2.556857 0.236736 6.673547
2.455737 0.103334 6.935015
2.453991 -0.062155 7.539340
1.295464 1.850874 -1.360213
1.482321 1.921732 -1.128175
1.571084 1.776286 -0.395436
1.635313 1.685742 0.083680
1.691875 1.613890 0.478200
1.751749 1.544492 0.872671
1.814927 1.477553 1.267052
2.005661 1.433045 1.909990
2.109110 1.347715 2.471378
2.010135 1.182046 2.793832
2.027794 1.054918 3.280892
2.305726 1.102825 3.825834
2.314876 0.993614 4.228835
2.347747 0.877150 4.717769
2.407040 0.755367 5.292828
2.551248 0.699837 5.854973
2.501407 0.541177 6.278840
2.532927 0.446264 6.689413
2.565583 0.273559 7.373270
2.404192 -0.005554 7.930249
0.438172 1.614910 -2.298958
1.094233 2.043934 -1.858583
1.390675 2.122923 -1.283471
1.475663 1.998698 -0.637664
1.443243 1.876899 -0.330013
1.514592 1.792066 0.148444
1.604438 1.697300 0.711456
1.685773 1.621087 1.189770
1.771675 1.548854 1.667904
1.878597 1.468961 2.230238
1.991804 1.394611 2.792103
1.889760 1.233908 3.031320
1.974845 1.186517 3.425808
2.269222 1.247734 4.053307
2.329107 1.124759 4.624416
2.310795 1.037042 4.860145
2.475581 0.981573 5.505250
2.434266 0.817495 5.926324
2.516840 0.712009 6.503979
2.509602 0.549459 7.015897
2.410895 0.327577 7.464828
0.232994 1.578483 -2.321543
1.200201 2.247705 -1.386245
1.293554 2.129685 -0.741471
1.199767 1.934384 -0.436178
1.262867 1.868430 -0.042320
1.372998 1.766218 0.605931
1.513619 1.779440 0.997207
1.652502 1.679098 1.727984
1.731190 1.629376 2.120379
1.812713 1.582590 2.512556
1.727695 1.304443 3.096315
1.904861 1.328534 3.566708
2.182211 1.516760 3.846067
2.201960 1.318083 4.509937
2.233002 1.216646 4.913189
2.289674 1.112822 5.402317
2.418208 1.085922 5.878342
2.460174 0.994399 6.285003
2.537896 0.821735 7.047747
2.523350 0.665816 7.476566
2.342205 0.293209 8.052233
0.955664 2.116158 -1.030677
1.019346 2.050481 -0.637564
1.194900 2.025164 0.009994
1.296668 1.944074 0.571373
1.354721 1.902339 0.878948
1.464825 1.831111 1.440091
1.562546 1.775634 1.916451
1.682537 1.716234 2.476943
1.623584 1.532503 2.797853
1.752429 1.482789 3.360304
1.991766 1.599978 3.818271
2.088451 1.480035 4.471768
2.126486 1.380909 4.874313
2.145079 1.288619 5.193855
2.343270 1.260917 5.922442
2.330785 1.095669 6.344225
2.407689 1.009875 6.837111
2.428449 0.851293 7.349425
2.420688 0.620673 7.969803
0.871412 2.249018 -0.958396
0.924901 2.201608 -0.651164
0.951500 2.051536 -0.175154
1.057455 1.975671 0.387317
1.151307 1.916539 0.864929
1.213716 1.880987 1.172893
1.313386 1.829876 1.650251
1.472961 1.761028 2.381339
1.484772 1.654165 2.695492
1.578697 1.525592 3.350794
1.747080 1.674358 3.556471
1.963461 1.721039 4.189987
1.984703 1.626036 4.506647
2.052270 1.527604 4.993232
2.193421 1.429697 5.734472
2.247095 1.344066 6.140012
2.328103 1.262092 6.631307
2.383563 1.104776 7.226234
2.419184 0.952066 7.740370
0.674131 2.202958 -0.819062
0.764501 2.137772 -0.339124
0.824664 2.098362 -0.028738
0.971900 2.013957 0.703307
1.106463 2.058702 1.093327
1.190482 2.021923 1.484998
1.257853 1.995506 1.792021
1.351917 1.861580 2.442834
1.288939 1.580353 2.856114
1.383244 1.558731 3.250735
1.725582 1.876058 3.777166
1.816567 1.773001 4.346044
1.912497 1.677025 4.916813
1.921767 1.589271 5.151617
2.121375 1.590196 5.879988
2.108820 1.423014 6.216740
2.196476 1.348000 6.709244
2.338346 1.285159 7.372286
2.290035 0.966231 7.925549
-0.506283 0.897642 -1.963284
0.451256 2.397776 -1.262926
0.530655 2.226120 -0.618354
0.546406 2.101175 -0.310419
0.725933 2.121264 0.338293
0.809477 2.084366 0.731791
0.876321 2.057968 1.040443
1.001184 2.015594 1.603254
1.129740 1.980708 2.165397
1.153013 1.778254 2.655732
1.268393 1.759788 3.134811
1.474137 1.925590 3.595394
1.637793 2.007448 4.060865
1.695860 1.826546 4.641942
1.801825 1.742596 5.214643
1.839160 1.745108 5.352854
1.950455 1.670587 5.927314
2.042062 1.599820 6.418835
2.136899 1.534604 6.911749
-0.526713 1.065969 -2.137495
0.185226 2.130123 -1.109058
0.322939 2.168237 -0.626544
0.423306 2.120200 -0.146702
0.563027 2.064039 0.503184
0.612372 2.046996 0.727980
0.738627 2.009590 1.292670
0.906248 2.072265 1.852445
0.960531 1.963819 2.251392
1.020317 1.762539 2.829152
1.137996 1.754615 3.309934
1.326594 2.029790 3.593745
1.512223 2.034139 4.323658
1.577833 1.949506 4.727329
1.690615 1.874900 5.301404
1.738013 1.795663 5.623622
1.845551 1.815790 6.016702
1.955499 1.672860 6.695032
2.022256 1.526108 7.208285
2.102088 1.469323 7.621361
-0.666993 0.937034 -2.246212
-0.076471 1.958339 -1.209234
0.103788 2.203523 -0.802522
0.226254 2.154881 -0.234704
0.332492 2.119862 0.248151
0.440648 2.090678 0.730968
0.531192 2.071019 1.128697
0.682554 2.047351 1.781122
0.796693 2.036721 2.263327
0.853098 1.841513 2.758910
0.971503 1.842583 3.242753
1.158180 2.133470 3.613865
1.278983 2.145169 4.093140
1.394738 2.071274 4.667659
1.490895 2.000552 5.157557
1.544379 1.924402 5.479907
1.695060 1.965053 6.042424
1.816765 1.832231 6.721142
1.922647 1.786552 7.216978
1.932199 1.622455 7.478390
-0.140101 2.127376 -1.046160
-0.065391 2.206043 -0.815139
0.041539 2.171928 -0.331672
0.231658 2.228447 0.405867
0.259875 2.121623 0.635341
0.371247 2.105440 1.118738
0.507276 2.192427 1.597958
0.638826 2.090967 2.254707
0.689286 1.899348 2.665684
0.784879 1.811034 3.158116
1.012476 2.123956 3.785570
1.132973 2.146835 4.266502
1.211946 2.073185 4.674040
1.356960 2.113621 5.239387
1.416915 2.042621 5.564493
1.587365 2.104713 6.213836
1.674535 1.964437 6.725107
1.787219 1.841775 7.324915
1.903107 1.728137 7.928743
-0.344904 2.119033 -1.195247
-0.162420 2.174152 -0.456531
-0.052940 2.153392 0.024324
0.057526 2.138642 0.505176
0.109739 2.133791 0.730968
0.261413 2.127227 1.381617
0.379598 2.031739 1.951844
0.438633 1.938357 2.268646
0.551540 1.661724 2.943152
0.641695 1.773631 3.248858
0.856985 2.203765 3.864887
0.932998 2.224630 4.174064
1.079966 2.178069 4.832654
1.122878 2.100341 5.069830
1.251758 2.059723 5.647213
1.404090 2.038425 6.310974
1.514891 2.004488 6.806678
1.627051 1.976915 7.303714
1.717531 1.760804 7.840340
-0.498991 2.087701 -1.191254
-0.399165 2.168772 -0.793226
-0.278471 2.049950 -0.228633
-0.136575 1.938543 0.424270
-0.035934 2.036431 0.819338
0.044754 2.137569 1.127369
0.176957 2.146822 1.692211
0.302238 2.064905 2.262338
0.381040 1.883238 2.670980
0.462189 1.999279 2.975265
0.637831 2.340242 3.599352
0.739142 2.180231 4.096441
0.868707 2.134408 4.671116
0.949573 2.266347 4.968073
1.054157 2.124282 5.472335
1.207210 2.111104 6.135443
1.340730 2.096157 6.715249
1.454338 2.075605 7.211599
-0.879062 0.986186 -2.101550
-0.820552 1.173347 -1.861186
-0.671277 1.847423 -1.260734
-0.533996 2.130814 -0.686644
-0.424559 2.023508 -0.207326
-0.352616 2.021999 0.103287
-0.221361 2.025772 0.669551
-0.109784 2.035596 1.150487
0.001843 2.051498 1.631248
0.113505 2.073476 2.111762
0.185508 1.991075 2.427892
0.357292 1.942943 3.172457
0.408965 2.160895 3.381308
0.579928 2.230886 4.114650
0.693810 2.085575 4.615626
0.766170 2.123426 4.925476
0.878169 2.187036 5.404739
0.991962 2.157792 5.897781
1.126083 2.149080 6.477226
1.260668 2.149233 7.058096
1.398557 2.060112 7.659034
-0.793547 1.586684 -1.211203
-0.725131 1.981451 -0.804529
-0.633455 1.981176 -0.409735
-0.515729 1.886568 0.070503
-0.444100 1.893126 0.380885
-0.255012 1.922709 1.203729
-0.203551 1.933875 1.428550
-0.082057 2.067443 1.989749
0.073534 2.017351 2.645706
0.168361 1.746636 2.977352
0.288134 1.902892 3.537573
0.388781 2.265412 4.073927
0.494803 2.117674 4.488678
0.563744 2.160071 4.797654
0.717458 2.158686 5.459342
0.823360 2.237702 5.937904
0.920118 2.208945 6.346508
1.035535 2.201094 6.841413
1.132253 2.182116 7.252617
1.309523 1.814697 7.911933
-0.986957 0.835333 -1.956706
-1.036051 1.624488 -1.689532
-0.922003 1.919893 -1.023530
-0.823444 2.024786 -0.538883
-0.679856 1.940242 0.023719
-0.634192 1.846045 0.161951
-0.486085 1.875386 0.812705
-0.397088 1.898518 1.207065
-0.289624 1.932098 1.686667
-0.126527 1.995202 2.421896
-0.024459 1.936250 2.822507
0.096004 1.891555 3.310359
0.151664 2.246111 3.762561
0.253853 2.311390 4.238780
0.352153 2.160605 4.567777
0.471103 2.250000 5.130212
0.623419 2.265595 5.790644
0.721971 2.242309 6.197788
0.785255 2.303220 6.505085
0.934894 2.342695 7.168510
1.085237 2.160783 7.701128
-1.168778 0.954610 -2.285080
-1.113131 1.149143 -1.870040
-1.060462 1.545919 -1.279954
-1.009446 1.750329 -0.875272
-0.878744 1.770063 -0.305964
-0.766803 1.691160 0.092761
-0.660738 1.822654 0.661877
-0.553739 1.857935 1.145683
-0.448605 1.898986 1.626980
-0.385741 2.034476 2.017677
-0.260500 1.989028 2.503503
-0.071980 1.766680 3.092006
0.016649 2.049919 3.728372
0.032698 2.289532 4.018297
0.194014 2.187085 4.603332
0.255644 2.240322 4.912530
0.407461 2.264068 5.574580
0.508270 2.246405 5.983180
0.615871 2.365426 6.547200
0.755743 2.282403 7.059853
0.910589 2.227243 7.661478
1.135466 1.758619 8.174808
-1.240481 1.452208 -1.563190
-1.232366 1.752982 -1.155315
-1.131390 1.874245 -0.587031
-1.013763 1.800994 -0.192012
-0.859351 1.744482 0.375879
-0.717815 1.799677 1.029583
-0.651420 1.829796 1.341495
-0.567939 1.871690 1.738683
-0.415968 1.960103 2.476857
-0.245015 1.728226 2.894866
-0.135414 1.690737 3.301220
-0.149606 2.036389 3.672746
-0.072035 2.225007 4.228116
0.049122 2.216747 4.718610
0.199725 2.248761 5.380939
0.255366 2.312649 5.690434
0.401451 2.361046 6.354473
0.533406 2.266092 6.781705
0.693175 2.218663 7.383044
0.809313 2.112881 7.731421
-1.242917 1.269021 -1.230023
-1.299508 1.561916 -0.994386
-1.173127 1.600276 -0.426108
-1.068164 1.639067 0.056820
-0.965441 1.683546 0.539739
-0.847435 1.743171 1.107985
-0.695097 1.718036 1.680166
-0.687669 1.839745 1.902377
-0.577259 1.918190 2.469862
-0.355650 1.728054 3.059490
-0.297734 1.779112 3.372828
-0.325530 2.138197 3.828746
-0.202140 2.135289 4.319785
-0.090986 2.264576 4.970616
0.038742 2.147703 5.306977
0.183305 2.202097 5.973631
0.245242 2.295571 6.370163
0.370663 2.345640 6.953094
0.508465 2.268727 7.385046
0.789320 1.975511 8.049721
-1.351889 0.659379 -2.258913
-1.343010 0.861731 -1.844325
-1.360285 1.163874 -1.343948
-1.326250 1.492559 -0.594304
-1.259464 1.520849 -0.281600
-1.132466 1.470204 0.116851
-1.016094 1.533105 0.687275
-0.903455 1.603651 1.257555
-0.810680 1.669603 1.742005
-0.736341 1.728033 2.140669
-0.663859 1.790185 2.539112
-0.428548 1.618530 3.131227
-0.405254 1.779027 3.523222
-0.387971 2.081642 4.158795
-0.266143 2.092174 4.652060
-0.159583 2.089748 5.061650
-0.054642 2.091442 5.472682
0.050212 2.267962 6.211759
0.161588 2.303364 6.711114
0.306037 2.234939 7.143992
0.412868 2.281760 7.647138
-1.457819 1.050975 -1.398722
-1.502160 1.355222 -0.903299
-1.350687 1.317984 -0.419139
-1.269289 1.362726 -0.018320
-1.122791 1.335628 0.469311
-1.029736 1.400306 0.956915
-0.924329 1.483206 1.530175
-0.874589 1.659164 2.097905
-0.835392 1.697351 2.327062
-0.675330 1.728009 2.990736
-0.429937 1.581883 3.588745
-0.369253 1.663181 3.991695
-0.507363 2.105012 4.436157
-0.388237 2.128418 4.931375
-0.241674 2.032904 5.270643
-0.148442 2.214080 6.011946
-0.048542 2.233386 6.426535
0.058682 2.280027 6.927821
0.198222 2.201273 7.277295
0.521562 1.953157 7.944547
-1.062517 -0.035784 -2.109537
-1.494133 0.847314 -1.484029
-1.725875 1.284546 -1.238505
-1.570227 1.254904 -0.757483
-1.417552 1.230618 -0.273937
-1.308644 1.305749 0.297187
-1.147507 1.305812 0.870402
-1.092200 1.354107 1.185244
-1.052901 1.529064 1.753035
-0.917073 1.532067 2.243434
-0.842256 1.621841 2.729139
-0.841296 1.780658 3.121097
-0.656882 1.717603 3.622675
-0.511634 1.779214 4.289957
-0.578816 2.031010 4.667047
-0.385428 2.027603 5.346466
-0.301668 2.004657 5.588211
-0.175169 2.095128 6.259420
-0.121705 2.250527 6.829737
-0.021136 2.309354 7.331317
0.181348 2.165937 7.700555
-1.461331 0.549336 -1.624697
-1.568018 0.830334 -1.213219
-1.582789 1.058772 -0.638269
-1.429682 1.048338 -0.155212
-1.310191 1.016898 0.158116
-1.226279 1.092081 0.643955
-1.132507 1.186656 1.215737
-1.121121 1.348858 1.697069
-1.010522 1.329840 2.014634
-0.929806 1.440079 2.585602
-0.994496 1.690945 3.055055
-0.805227 1.642249 3.554367
-0.665064 1.714294 4.219583
-0.687664 1.883492 4.606476
-0.574958 1.926730 5.101224
-0.458674 1.997512 5.683201
-0.354258 2.052051 6.181133
-0.259656 2.087750 6.594785
-0.162279 2.151906 7.095478
-0.003346 2.148038 7.615942
-1.598401 0.611927 -1.438556
-1.642757 0.824442 -0.947025
-1.570325 0.882291 -0.548296
-1.417409 0.884010 -0.063803
-1.296321 1.006836 0.680264
-1.291813 1.164800 1.163117
-1.246593 1.222428 1.475879
-1.087970 1.277594 2.136856
-1.139351 1.377616 2.272566
-1.199292 1.656789 2.913031
-1.075912 1.691280 3.402173
-0.746472 1.518438 3.922099
-0.615706 1.605641 4.590804
-0.736989 1.802560 4.794893
-0.622946 1.878149 5.376709
-0.509536 1.983857 6.045914
-0.408073 2.073821 6.630949
-0.401329 2.114187 6.771868
-0.304262 2.238117 7.443906
0.063301 2.045019 8.023244
-1.506441 0.101467 -2.289158
-1.573878 0.292098 -1.875454
-1.613717 0.510468 -1.293028
-1.675481 0.720194 -0.801829
-1.608867 0.784278 -0.403745
-1.444724 0.813713 0.166522
-1.360764 0.916223 0.737752
-1.334722 1.317484 2.095901
-1.524403 1.581319 2.388964
-1.307911 1.592204 3.051800
-1.188849 1.637029 3.540480
-0.760236 1.467939 4.243400
-0.662675 1.480942 4.567989
-0.782670 1.734285 5.029672
-0.760972 1.838976 5.427256
-0.663341 1.905886 5.924357
-0.567638 2.001842 6.508706
-0.479989 2.078717 7.008702
-1.027486 -0.375781 -2.246797
-1.468931 0.148417 -1.630715
-1.592415 0.441876 -0.958116
-1.713134 0.604187 -0.725034
-1.535311 0.658851 -0.067502
-1.388700 0.688107 0.420740
-1.347525 0.748765 0.736541
-1.502650 1.289858 2.169015
-1.617779 1.516234 2.635193
-1.418970 1.506030 3.127325
-1.208041 1.562916 3.880172
-0.870039 1.402950 4.230938
-0.681704 1.430780 4.824901
-0.826060 1.652835 5.198899
-0.811438 1.783175 5.681743
-0.721604 1.859194 6.178840
-0.636664 1.939440 6.677368
-0.477758 2.018221 7.366935
-0.244263 1.995217 7.907382
-0.817398 -0.552405 -2.179979
-1.615542 0.176083 -1.461684
-1.942711 0.555655 -0.875939
-1.719616 0.517523 -0.481220
-1.499430 0.482430 -0.082499
-1.428556 0.594898 0.491183
-1.383238 0.676325 0.892234
-1.249127 0.723801 1.382833
-1.440685 1.030238 2.028753
-1.744908 1.335889 2.403217
-1.711491 1.446797 2.881979
-1.514922 1.454146 3.377105
-1.242828 1.391495 3.800427
-0.881055 1.345868 4.498830
-0.784422 1.420615 4.998197
-0.948966 1.586075 5.201250
-0.859712 1.689456 5.786058
-0.862945 1.874085 6.442701
-0.701066 1.886748 6.874241
-0.545507 1.928468 7.395265
-0.227000 1.873821 7.958052
-1.550358 -0.023709 -1.554298
-1.819060 0.278588 -0.968821
-1.746533 0.389526 -0.398378
-1.612596 0.421376 0.000419
-1.464754 0.491721 0.573758
-1.627032 0.894989 1.762394
-1.854780 1.165681 2.313386
-1.730267 1.293091 3.054166
-1.539383 1.297070 3.465833
-1.354045 1.282398 3.795407
-0.813926 1.153143 4.428599
-0.811420 1.326915 5.091288
-0.989539 1.478333 5.294108
-0.998539 1.634337 5.865669
-0.926863 1.749872 6.451735
-0.766552 1.776055 6.883890
-0.713211 1.925549 7.560350
-0.210912 1.785915 8.075686
-1.525453 -0.112353 -1.411114
-1.737338 0.110524 -0.914074
-1.582930 0.185876 -0.342040
-1.634092 0.311365 0.059597
-1.492669 0.393248 0.634086
-1.673740 0.844076 2.081868
-1.931504 1.057953 2.461551
-1.825167 1.133544 2.948610
-1.724356 1.212143 3.437618
-1.354522 1.198143 4.043589
-0.719336 1.096955 4.781230
-0.727742 1.203997 5.186796
-1.011419 1.403809 5.464900
-1.034332 1.559882 6.037195
-0.958865 1.609175 6.365754
-0.896937 1.708844 6.868051
-0.665332 1.762818 7.494061
-0.186064 1.765311 8.360421
-1.276844 -0.411428 -1.803347
-1.416046 -0.258634 -1.390139
-1.729620 0.000591 -0.803813
-1.676817 0.122600 -0.230913
-1.450304 0.160214 0.257224
-1.422767 0.249488 0.659974
-1.399180 0.340190 1.062655
-1.368988 0.492407 1.724525
-1.636179 0.706570 2.196886
-1.912037 0.880089 2.491627
-1.811405 1.005769 3.150280
-1.720190 1.114444 3.726041
-1.257993 1.077281 4.260239
-0.701765 0.968302 4.642611
-0.720651 1.097056 5.136633
-1.032698 1.344032 5.675561
-1.058259 1.452610 6.077891
-1.015067 1.603699 6.754452
-0.957452 1.685971 7.173377
-0.829005 1.790058 7.785705
-1.476226 -0.528789 -2.171017
-1.239244 -0.500364 -1.775054
-1.373379 -0.321158 -1.187867
-1.612463 -0.113273 -0.604599
-1.481110 -0.032853 -0.116493
-1.456597 0.057264 0.286621
-1.436134 0.148517 0.689705
-1.221151 0.227972 1.271866
-1.497975 0.421345 1.750595
-1.975320 0.625892 2.040618
-1.876411 0.715411 2.528482
-1.786048 0.848934 3.189131
-1.607377 0.939771 3.775995
-1.240540 0.963028 4.302752
-0.687578 0.941535 4.861851
-0.803268 1.048293 5.169700
-1.126728 1.248513 5.622187
-1.167518 1.377758 6.111278
-1.136416 1.531917 6.788167
-0.979734 1.571980 7.138318
-0.763180 1.662966 7.770223
-0.641981 -0.804783 -2.182369
-1.386442 -0.554382 -1.734868
-1.633598 -0.367529 -1.146809
-1.698785 -0.238992 -0.655893
-1.467764 -0.128072 0.004476
-1.350973 -0.034710 0.496312
-1.626018 0.302525 1.698583
-1.924508 0.491970 2.255318
-1.836032 0.590506 2.745748
-1.858891 0.749557 3.400839
-1.583890 0.796789 3.827592
-1.209827 0.808069 4.183642
-1.150915 1.191275 5.855910
-1.205278 1.317700 6.346795
-1.157195 1.407469 6.766790
-1.028284 1.506392 7.292176
-0.711917 1.578565 7.858700
-1.320491 -0.591384 -1.439684
-1.589872 -0.443220 -0.939246
-1.468651 -0.343335 -0.450329
-1.351400 -0.222183 0.127785
-1.343944 -0.128409 0.533569
-1.648453 0.228057 1.909521
-1.867555 0.404603 2.556808
-1.691430 0.500742 3.057143
-1.620886 0.608177 3.553072
-1.457608 0.707543 4.060812
-1.293799 1.019806 5.481610
-1.265450 1.154605 6.073745
-1.307916 1.233802 6.392049
-1.181990 1.341298 6.915953
-1.063029 1.450468 7.443552
-0.575096 1.555721 8.139002
-0.609894 -0.873041 -2.117815
-1.461357 -0.620413 -1.180707
-1.647037 -0.518457 -0.774230
-1.435833 -0.414675 -0.288820
-1.330377 -0.245177 0.461087
-1.654657 0.066120 1.745611
-1.874768 0.185447 2.220845
-1.912132 0.338727 2.875232
-1.828039 0.389621 3.109783
-1.498191 0.576434 3.974541
-1.131241 0.644067 4.331932
-0.609241 0.793665 5.070587
-0.660264 0.890889 5.480763
-1.210556 0.992370 5.819915
-1.282604 1.109164 6.310732
-1.247908 1.205009 6.730313
-1.233012 1.322093 7.237947
-1.028257 1.440224 7.784088
-1.217034 -0.757787 -1.350774
-1.507765 -0.671220 -0.938572
-1.402501 -0.554966 -0.451005
-1.303416 -0.438957 0.036328
-1.307243 -0.366062 0.351343
-1.667838 -0.000942 1.974672
-1.787139 0.066439 2.281272
-1.822394 0.177220 2.763937
-1.689236 0.356605 3.520171
-1.215079 0.434363 3.792534
-1.180504 0.571483 4.379537
-0.572233 0.763951 5.128965
-0.432597 0.869189 5.564428
-1.186854 0.918013 5.875495
-1.252752 1.009382 6.278483
-1.255977 1.146583 6.870871
-1.366377 1.276629 7.446656
-0.977468 1.423836 8.030007
-1.264961 -1.037204 -2.085206
-0.758855 -0.891333 -1.702505
-1.052792 -0.847140 -1.371766
-1.350513 -0.723797 -0.699674
-1.256335 -0.619539 -0.297659
-1.166377 -0.515286 0.106366
-1.290323 -0.374467 0.769972
-1.117240 -0.239351 1.266470
-1.440292 -0.184478 1.657006
-1.866165 -0.143706 2.036428
-1.808052 -0.023622 2.523656
-1.468569 0.153786 3.121663
-1.128253 0.313426 3.643052
-1.090971 0.434218 4.143320
-0.888971 0.620027 4.843393
-0.572677 0.782415 5.388104
-0.738804 0.855937 5.783279
-1.316125 0.889329 6.203777
-1.294779 0.989100 6.621523
-1.314149 1.125187 7.214609
-1.342561 1.260556 7.808958
-1.080214 -0.999188 -1.599501
-1.384613 -0.878686 -0.840846
-1.294661 -0.787221 -0.526351
-1.214340 -0.656319 -0.036838
-1.140233 -0.526041 0.455086
-1.640779 -0.278602 1.911536
-1.786624 -0.193249 2.392097
-1.742977 -0.068795 2.884135
-1.510456 0.095924 3.393087
-1.018283 0.360119 4.112324
-1.070099 0.705212 5.617396
-1.164407 0.803507 6.110863
-1.342795 0.861158 6.500492
-1.332800 0.962223 6.920780
-1.347377 1.079419 7.429453
-1.029910 1.320086 8.191195
-0.599967 -1.145460 -2.314124
-1.002987 -1.016659 -1.312764
-1.220848 -0.916858 -0.645955
-1.140122 -0.818994 -0.332208
-1.091069 -0.625051 0.417737
-1.589701 -0.456098 1.696567
-1.825178 -0.428152 2.084875
-1.484821 0.088807 3.841680
-0.979168 0.340661 4.304898
-0.701388 0.568990 4.933576
-0.494138 0.734423 5.382156
-0.859349 0.722287 5.753663
-1.340442 0.693829 6.191185
-1.395388 0.842531 6.873133
-1.512557 0.928108 7.364434
-1.426587 1.057970 7.805206
-0.041380 -0.976723 -2.141859
-0.906230 -1.160322 -1.604591
-1.220886 -1.109561 -0.932506
-1.157503 -0.966295 -0.445599
-1.086498 -0.862411 -0.129651
-1.033034 -0.721672 0.361712
-1.574137 -0.539005 1.904147
-1.719886 -0.494965 2.298684
-1.417029 0.030558 3.980476
-1.039628 0.531940 5.453929
-1.108329 0.585989 5.774865
-1.372143 0.672740 6.517519
-1.400496 0.787986 7.026772
-1.503423 0.850360 7.432176
-1.271310 1.075201 7.999767
-0.551566 -1.087346 -1.556548
-0.870299 -1.057894 -0.878970
-0.902206 -0.969203 -0.473254
-0.954507 -0.845499 0.106366
-1.005177 -0.743128 0.599048
-1.132061 -0.719525 0.915594
-1.282877 -0.663153 1.403432
-1.541860 -0.635166 1.969971
-1.563347 -0.454072 2.721465
-1.315289 -0.301374 2.886205
-1.248342 -0.098447 3.567941
-1.069478 0.114103 4.090440
-1.130388 0.496311 5.703920
-1.204781 0.544683 6.025598
-1.413037 0.573558 6.506270
-1.538013 0.643077 7.000396
-1.604271 0.765243 7.598547
-1.117233 1.214781 8.512037
-0.488738 -1.047932 -1.184271
-0.772558 -1.141217 -0.944828
-0.837861 -1.001175 -0.279373
-0.805036 -0.852820 0.212828
-0.777955 -0.707007 0.707401
-0.907156 -0.694484 1.024211
-1.250326 -0.733594 1.592184
-1.585979 -0.793575 2.065598
-1.492527 -0.610367 2.563059
-1.248200 -0.315761 3.166827
-1.185699 -0.123531 3.762941
-1.077507 0.025734 4.101382
-1.133408 0.175106 4.782488
-0.842866 0.409787 5.063388
-0.787198 0.579685 5.589360
-1.269606 0.453871 6.120077
-1.542292 0.402954 6.496411
-1.587782 0.512465 7.005158
-1.663821 0.628502 7.602288
-0.462527 -1.201893 -1.492758
-0.698559 -1.169992 -0.819900
-0.734360 -1.105346 -0.501775
-0.816359 -0.974656 0.164091
-0.883089 -0.882107 0.656087
-0.941937 -0.808485 1.061089
-1.073845 -0.807648 1.375736
-1.416739 -0.876125 1.938403
-1.434340 -0.727487 2.516976
-1.244855 -0.510565 2.853015
-1.110286 -0.255851 3.455320
-1.085388 -0.049195 4.143096
-1.051251 0.140673 4.748397
-0.799688 0.407582 5.118374
-0.860822 0.534483 5.721256
-1.391963 0.305401 6.148417
-1.626536 0.308456 6.713615
-1.633750 0.396489 7.048697
-1.613684 0.555905 7.577220
-1.255684 1.013002 8.382849
-0.030126 -1.037013 -1.720044
-0.245074 -1.054377 -1.215935
-0.634851 -1.180423 -0.626042
-0.596955 -1.059074 -0.309329
-0.678303 -0.952225 0.270353
-0.752808 -0.865567 0.762856
-0.516394 -0.537593 1.267489
-0.822534 -0.655951 1.664427
-1.336190 -0.862344 2.303670
-1.553150 -0.940291 2.605323
-1.355245 -0.613635 3.206415
-1.010842 -0.166445 3.836640
-0.889034 0.080167 4.362820
-0.675403 0.376386 4.818312
-0.742100 0.501369 5.421750
-1.099689 0.362054 5.881747
-1.407685 0.288292 6.436467
-1.544426 0.327827 6.930594
-1.685982 0.363373 7.423667
-1.681852 0.521077 7.953575
0.526181 -0.690358 -1.979550
-0.159737 -1.079955 -1.269399
-0.439218 -1.200336 -0.856277
-0.596761 -1.160929 -0.277336
-0.569966 -1.039094 0.038889
-0.662617 -0.942202 0.617190
-0.672041 -0.797530 1.110961
-0.924855 -0.845224 1.682112
-1.239796 -0.978416 2.155595
-1.319545 -0.925510 2.554987
-1.292371 -0.719533 3.141586
-1.141359 -0.480011 3.481267
-1.001161 -0.137055 4.185660
-0.995529 0.055399 4.790410
-0.952643 0.227658 5.223166
-1.008928 0.336042 5.734252
-1.309348 0.155163 6.012245
-1.493363 0.198803 6.680755
-1.512856 0.285156 7.015251
-1.612649 0.381870 7.613461
-1.396029 0.817937 8.399089
0.380613 -0.873092 -2.034420
-0.151094 -1.311148 -1.680624
-0.525061 -1.474984 -1.001687
-0.531228 -1.317552 -0.513081
-0.403939 -1.019588 -0.022095
-0.473505 -0.955772 0.385318
-0.989341 -0.948115 2.018393
-1.276135 -1.120057 2.401039
-1.410417 -1.158463 2.705717
-1.285849 -0.797927 3.391737
-1.016796 -0.304796 4.022046
-1.047961 -0.198091 4.437455
-0.927601 0.138810 5.066150
-0.924648 0.317396 5.589360
-1.322426 0.048603 6.029707
-1.475989 -0.010787 6.332012
-1.550096 0.081724 6.839153
-1.628986 0.169672 7.347621
-1.637502 0.403182 8.070374
0.222064 -1.191100 -2.243888
0.071790 -1.159566 -1.655914
-0.169555 -1.333644 -1.326520
-0.420094 -1.363085 -0.570660
-0.347578 -1.159576 -0.255889
-0.372340 -1.009823 0.236550
-0.830613 -1.064797 1.616065
-1.094945 -1.149414 2.266991
-1.202150 -1.102570 2.753074
-1.127928 -0.825780 3.262671
-0.997739 -0.474913 3.788119
-0.978862 -0.196118 4.487967
-0.778790 0.218552 4.954697
-0.910260 0.241234 5.455672
-1.202061 0.020360 5.825467
-1.399483 -0.044823 6.306196
-1.574837 -0.116160 6.696414
-1.685188 -0.032921 7.292583
-1.715926 0.122868 7.821489
0.643886 -0.521328 -1.810910
0.110712 -1.103624 -1.368782
-0.148514 -1.270887 -0.866826
-0.237373 -1.199022 -0.374682
-0.272478 -1.050319 0.117806
-0.386136 -0.978083 0.698530
-0.411675 -0.849577 1.107167
-0.609994 -0.971301 1.506641
-0.922749 -1.261729 1.892688
-1.030588 -1.219146 2.379378
-1.050247 -1.010285 2.966305
-1.020500 -0.725403 3.566922
-0.843327 -0.289927 4.019482
-0.748447 0.063164 4.558843
-0.870447 0.167446 5.248444
-1.089639 0.009957 5.633101
-1.412938 -0.233139 6.173678
-1.527839 -0.233530 6.578869
-1.564002 -0.072977 7.104455
-1.578530 0.084510 7.545971
-1.495401 0.556439 8.421275
0.243649 -1.389143 -2.174137
0.137067 -1.423557 -1.851665
0.000849 -1.310989 -1.098903
-0.092107 -1.244253 -0.607152
-0.170959 -1.193359 -0.202449
-0.201630 -1.059675 0.202769
-0.303140 -1.007008 0.695801
-0.265980 -0.589918 1.464761
-0.941623 -1.396738 2.228173
-1.025784 -1.275434 2.805863
-1.045155 -1.077983 3.307693
-0.972070 -0.711594 3.832407
-0.811428 -0.267244 4.200323
-0.748013 0.090663 4.742635
-0.975058 0.007665 5.408497
-1.228021 -0.256133 5.777606
-1.461552 -0.355386 6.432285
-1.527363 -0.361943 6.663371
-1.700770 -0.304783 7.434218
-1.704079 -0.147369 7.789052
0.362595 -0.887337 -1.328578
0.193906 -1.014542 -0.914648
-0.037643 -1.226017 -0.416208
-0.113652 -1.075619 0.163188
-0.243328 -1.127879 0.567498
-0.263708 -0.906963 1.064426
-0.440225 -1.057932 1.463782
-0.762976 -1.379178 2.108474
-0.899256 -1.450482 2.502387
-0.994627 -1.435255 2.901238
-0.882933 -0.877544 3.522737
-0.715076 -0.237541 4.081970
-0.806521 -0.056163 4.779856
-0.897675 0.027858 5.292465
-1.089637 -0.162525 5.677198
-1.322586 -0.447044 6.042911
-1.500061 -0.558768 6.520214
-1.575122 -0.490357 6.940856
-1.624755 -0.257894 7.573130
-1.498187 0.333824 8.201242
0.452153 -1.221751 -2.007268
0.295854 -1.354380 -1.592188
0.231663 -1.316197 -1.273787
0.223361 -1.085657 -0.872423
0.026853 -1.213365 -0.288226
-0.042159 -1.077690 0.205158
-0.133461 -0.941686 0.788464
-0.172289 -0.725198 1.289819
-0.466648 -1.166625 1.765566
-0.668619 -1.430723 2.153912
-0.790883 -1.320524 2.820189
-0.797357 -1.129599 3.150979
-0.822901 -0.755144 3.851265
-0.787820 -0.386502 4.299138
-0.859891 -0.122901 5.009034
-1.036501 -0.324492 5.395470
-1.237184 -0.534553 5.864924
-1.333750 -0.640812 6.082549
-1.566692 -0.699438 6.923153
-1.566449 -0.532730 7.188341
-1.693205 -0.409878 7.892833
0.569601 -1.190069 -2.092669
0.442844 -1.343695 -1.762574
0.301874 -1.275069 -1.094139
0.292277 -1.055067 -0.777694
0.087141 -1.193699 -0.105097
0.025533 -1.071468 0.303086
-0.037759 -0.953211 0.713226
-0.143206 -0.832308 1.300754
-0.351510 -1.203097 1.694325
-0.551667 -1.481039 2.171077
-0.683156 -1.381653 2.839063
-0.727232 -1.193128 3.258271
-0.758072 -0.728093 3.970743
-0.804033 -0.458460 4.499787
-0.856960 -0.286296 4.934957
-1.036367 -0.416940 5.511367
-1.201616 -0.815821 5.691809
-1.333085 -0.854673 6.185777
-1.488393 -0.821475 6.868834
-1.526318 -0.664653 7.222753
-1.663505 -0.553552 7.929007
0.782592 -0.664424 -2.169924
0.522281 -1.085723 -1.474172
0.346196 -1.337510 -0.971985
0.275853 -1.314810 -0.654222
0.190412 -1.084923 -0.076008
0.058315 -1.058393 0.505421
-0.013706 -0.947228 0.914311
-0.085785 -0.642055 1.507800
-0.266001 -0.931366 1.991721
-0.425051 -1.420113 2.197005
-0.522221 -1.231621 2.785272
-0.623847 -0.957085 3.474062
-0.688624 -0.592027 4.093708
-0.752137 -0.419883 4.524719
-0.839963 -0.258596 5.047792
-1.024351 -0.590487 5.508815
-1.208098 -0.927943 5.961853
-1.332008 -1.067104 6.351365
-1.397251 -1.005925 6.684219
-1.544104 -0.810798 7.487988
-1.560315 -0.468912 7.881120
0.563516 -0.825183 -1.171124
0.486267 -0.702498 -0.763722
0.299034 -1.173637 -0.262016
0.220781 -1.060340 0.143738
0.086673 -1.047029 0.724800
-0.014288 -0.943474 1.221365
-0.130360 -0.945087 1.715980
-0.274071 -1.150807 2.199604
-0.423096 -1.557544 2.578868
-0.493269 -1.374822 2.994002
-0.599290 -0.821253 3.796606
-0.640458 -0.546188 4.146256
-0.770511 -0.303480 4.854997
-0.862370 -0.431640 5.166235
-1.043754 -0.974648 5.597538
-1.178462 -1.129414 6.074929
-1.291662 -1.093794 6.580814
-1.440240 -0.992663 7.279172
-1.501498 -0.846499 7.633132
0.883137 -0.340075 -2.152541
0.727739 -0.805502 -1.630388
0.558268 -0.971337 -0.953126
0.421965 -1.253181 -0.455259
0.303099 -1.041451 0.123265
0.229139 -1.038354 0.442640
0.127855 -1.137931 0.847256
0.053140 -0.842778 1.262028
-0.104012 -0.858730 1.933540
-0.209498 -1.368743 2.226754
-0.360125 -1.301679 2.896365
-0.475575 -0.941273 3.507089
-0.583193 -0.781527 4.020791
-0.661586 -0.421298 4.471927
-0.760324 -0.462971 4.883847
-0.960895 -0.947846 5.594339
-1.024944 -1.175655 5.798200
-1.165014 -1.256369 6.375742
-1.259776 -1.219358 6.795372
-1.391494 -1.019844 7.425368
-1.544390 -0.748986 8.169045
0.919323 -1.068164 -2.168686
0.845277 -1.052399 -1.849705
0.669657 -0.925527 -1.096741
0.594948 -0.818565 -0.778553
0.462000 -1.112557 -0.192918
0.366959 -1.013540 0.213347
0.212133 -1.024368 0.882072
0.160010 -1.130754 1.111320
0.003858 -1.057070 1.782381
-0.130052 -1.089128 2.361676
-0.223518 -1.116643 2.766214
-0.319592 -1.048694 3.178183
-0.459386 -0.902435 3.775733
-0.562922 -0.646353 4.212375
-0.704970 -0.516059 4.820294
-0.848636 -0.902933 5.455908
-0.929659 -1.259356 5.819915
-1.022379 -1.322796 6.222670
-1.119543 -1.291820 6.640828
-1.241828 -1.183075 7.164304
-1.430311 -1.036492 7.971999
0.588460 -1.072351 -0.383532
0.514917 -1.076741 -0.065612
0.381467 -1.091397 0.513721
0.219774 -1.019342 1.182929
0.167048 -1.031539 1.414156
0.005415 -1.180270 2.163577
-0.105424 -1.220247 2.654884
-0.196877 -1.050905 2.986517
-0.347512 -0.912708 3.584056
-0.469912 -0.662983 4.019498
-0.671550 -0.466537 4.815178
-0.717058 -0.920904 5.176520
-0.748906 -1.476720 5.516084
-0.867038 -1.460526 6.018289
-0.984955 -1.450875 6.521952
-1.152254 -1.385232 7.217607
-1.238789 -1.140155 7.500487
-1.489553 -0.626449 8.391833
1.024078 -0.516587 -2.231764
0.911992 -0.806568 -1.546636
0.884962 -1.103720 -1.218413
0.766934 -1.210974 -0.639075
0.601201 -1.030789 -0.062889
0.489147 -1.052024 0.429310
0.397718 -1.074103 0.834324
0.326461 -1.094342 1.152151
0.199507 -1.032349 1.648063
0.051594 -1.198285 2.396704
-0.017416 -1.231088 2.713978
-0.160028 -1.090920 3.220462
-0.339779 -0.871354 3.828072
-0.519694 -0.661466 4.443317
-0.567902 -0.808455 4.753966
-0.575483 -1.264429 5.113342
-0.727243 -1.511327 5.936435
-0.825619 -1.606966 6.423789
-0.945922 -1.497065 6.857025
-1.083279 -1.411624 7.380396
-1.240905 -1.237291 7.926278
0.924080 -0.149706 -1.964404
0.959977 -0.541101 -1.713495
0.872737 -0.846916 -1.034045
0.810126 -1.159664 -0.450759
0.695223 -1.082152 -0.048474
0.561475 -1.014483 0.442925
0.433868 -1.056907 1.021489
0.327119 -1.099497 1.512764
0.277669 -1.121502 1.742678
0.173166 -1.172919 2.233591
-0.009241 -1.166856 2.992199
-0.143352 -1.028681 3.412804
-0.294876 -0.908408 3.924786
-0.489233 -0.713578 4.539893
-0.507975 -1.086909 5.001375
-0.463894 -1.527653 5.268586
-0.546828 -1.734845 5.828830
-0.621898 -1.817708 6.228581
-0.824583 -1.678570 6.935727
-0.963532 -1.468237 7.302614
-1.176708 -1.232593 7.954772
0.827020 -1.006923 -0.251530
0.687808 -0.947915 0.237676
0.582117 -0.989639 0.727461
0.496710 -1.028315 1.130034
0.376686 -1.090599 1.706630
0.362636 -1.211875 1.930076
0.212352 -1.309001 2.678223
0.084226 -1.165783 3.006830
-0.127387 -0.972975 3.609390
-0.354049 -0.805153 4.307744
-0.396558 -0.846733 4.538665
-0.414992 -1.254298 5.171745
-0.397910 -1.633661 5.620835
-0.437030 -1.682222 5.847435
-0.646288 -1.686503 6.709999
-0.767343 -1.578033 7.057198
-0.964505 -1.448119 7.686644
0.890520 0.186173 -2.099874
0.922525 -0.309447 -1.402269
1.059724 -0.785574 -1.156066
1.008209 -1.115899 -0.400999
0.844619 -0.965254 -0.000256
0.720572 -0.910987 0.403441
0.583283 -0.982008 1.068447
0.480235 -0.927578 1.388239
0.405656 -1.094015 1.962334
0.367883 -1.242331 2.359675
0.164059 -1.161233 3.036432
0.026122 -1.031051 3.369071
-0.213447 -0.876274 4.065531
-0.353808 -0.897421 4.659745
-0.298892 -1.251771 5.030932
-0.263373 -1.788126 5.782355
-0.492680 -1.841702 6.784795
-0.753414 -1.656461 7.514834
-0.976053 -1.411103 7.993077
0.813353 0.236075 -1.834476
0.809029 0.028656 -1.411712
1.069373 -1.046310 -0.308418
0.876948 -0.918935 0.182428
0.777767 -0.975517 0.674761
0.635509 -0.948871 1.169844
0.541822 -1.016717 1.663098
0.466844 -1.076750 2.069081
0.440354 -1.228853 2.468813
0.184550 -1.077418 3.156360
0.004713 -0.855438 3.413539
-0.166167 -0.913407 4.184410
-0.230009 -0.997345 4.594358
-0.209739 -1.278596 5.067079
-0.138058 -1.651156 5.520816
-0.205970 -1.767784 6.010428
-0.318901 -1.803569 6.514936
-0.418359 -1.822378 6.934376
-0.633229 -1.721976 7.564378
-1.028922 -1.264756 8.191333
1.087062 -0.882355 -0.289529
0.988992 -0.940979 0.203660
0.927147 -0.981859 0.523408
0.766255 -0.976520 1.105894
0.609389 -0.979011 1.690986
0.562074 -1.158936 2.267470
0.494853 -1.229862 2.674158
0.230042 -1.101091 3.365004
0.061747 -1.013925 3.792158
-0.076194 -1.052610 4.388137
-0.174459 -1.039845 4.722671
-0.121767 -1.300249 5.109359
-0.054762 -1.731305 5.824142
-0.102304 -1.833951 6.228942
-0.128513 -1.894406 6.460736
-0.307916 -1.909480 7.157182
-0.582494 -1.747047 7.808958
1.098111 -0.030648 -2.009151
1.106407 -0.243514 -1.500365
1.213017 -0.522751 -1.167975
1.295156 -0.937818 -0.406755
1.176149 -0.897879 -0.091150
0.995311 -0.910185 0.572859
0.777718 -0.702394 0.809408
0.841072 -1.050611 1.467473
0.866819 -1.310669 2.034420
0.771776 -1.271938 2.269201
0.758306 -1.443993 2.751056
0.437744 -1.239692 3.356809
0.132115 -1.025602 3.885566
0.009552 -1.056093 4.391562
0.061517 -1.349526 4.951072
0.128477 -1.626843 5.417381
0.070122 -1.773922 5.993223
0.032418 -1.880870 6.395398
-0.070715 -1.937617 6.899728
-0.217854 -1.872534 7.250262
-0.582566 -1.736251 8.182387
1.433624 -0.325694 -2.076052
1.512000 -0.505546 -1.835527
1.488381 -0.749564 -1.079758
1.523120 -0.967761 -0.588541
1.321036 -0.871057 -0.189350
1.249801 -0.931090 0.212774
1.009171 -0.884314 0.878004
1.126018 -1.196364 1.358563
1.325791 -1.571632 1.740677
1.085247 -1.402669 2.066268
0.864660 -1.380970 2.734916
0.737212 -1.407064 3.228531
0.426564 -1.194418 3.664452
0.108193 -1.006869 4.195598
-0.084007 -0.996197 4.801067
-0.014444 -1.311493 5.446890
0.223127 -1.688768 5.709674
0.257743 -1.869078 6.096072
0.217481 -2.026969 6.667635
-0.006419 -1.922749 7.118038
-0.244757 -1.928174 7.920678
1.099078 0.145768 -2.056294
1.176819 -0.157823 -1.372304
1.397053 -0.488565 -1.042751
1.449670 -0.703744 -0.550336
1.338406 -0.808674 0.109631
1.120110 -0.749744 0.599954
1.342727 -1.103832 0.993128
1.628635 -1.545922 1.459599
1.422818 -1.498905 1.947854
1.363203 -1.596939 2.428498
1.327002 -1.662525 2.738763
0.836838 -1.369815 3.352449
0.335126 -1.128260 4.156962
0.228626 -1.157695 4.572953
0.334065 -1.418243 5.041243
0.372411 -1.613680 5.517436
0.425138 -1.765841 5.818054
0.399075 -1.899445 6.303885
0.374124 -2.062115 6.874617
0.143990 -1.978362 7.325823
-0.306688 -1.807128 8.187499
1.326514 0.041249 -2.132292
1.442156 -0.240982 -1.539785
1.520453 -0.434494 -1.130719
1.649550 -0.724183 -0.551985
1.572974 -0.806387 -0.067335
1.299209 -0.665213 0.247425
1.457028 -0.950411 0.730230
1.837499 -1.449905 1.281253
1.703436 -1.481222 1.762771
1.617827 -1.648201 2.549280
1.334927 -1.582124 3.134644
0.674914 -1.205053 3.773818
0.403059 -1.155460 4.381646
0.065509 -1.027811 4.921024
0.193088 -1.282780 5.390895
0.553083 -1.751281 5.898864
0.537884 -1.887102 6.384542
0.530608 -1.976810 6.697503
0.367431 -2.073611 7.474841
-0.017630 -1.890905 7.969255
1.965391 -0.335702 -2.149835
1.720070 -0.290206 -1.674659
1.652452 -0.355334 -1.274836
1.734524 -0.558068 -0.784726
1.674549 -0.628389 -0.386640
1.686322 -0.776911 0.097111
1.440744 -0.783978 0.754897
1.635121 -1.041591 1.145349
1.994806 -1.418406 1.522106
1.615658 -1.303589 2.102454
1.425831 -1.255030 2.423913
1.622567 -1.558998 2.968741
1.189268 -1.361821 3.403648
0.581793 -1.118551 4.128184
0.476947 -1.185418 4.630035
0.539581 -1.370382 5.108765
0.688644 -1.614903 5.570759
0.760582 -1.829435 6.127846
0.758186 -1.942613 6.525790
0.679372 -2.053214 7.111891
0.439814 -1.980549 7.478161
-0.191363 -1.771215 8.381293
1.480751 0.148630 -2.173946
1.821044 -0.203573 -1.662808
1.902501 -0.411883 -1.086496
1.822631 -0.517228 -0.518168
1.708163 -0.507208 -0.293064
1.648210 -0.601960 0.190930
1.745355 -0.840599 0.842403
2.131642 -1.185884 1.223019
2.096146 -1.270505 1.613988
1.612367 -1.175135 2.371261
1.324976 -1.132670 2.873069
1.483129 -1.289107 3.084075
1.189456 -1.338154 3.935270
0.663362 -1.135681 4.397217
0.484736 -1.116766 4.736491
0.562099 -1.343620 5.390060
0.818562 -1.578877 5.664784
0.822184 -1.713833 6.150564
0.831115 -1.851852 6.635414
0.759771 -1.944190 7.136624
0.522756 -1.943511 7.676196
2.095027 -0.058858 -2.230033
1.769697 0.011831 -1.846058
1.799349 -0.109621 -1.441733
1.987129 -0.359878 -0.863260
1.839719 -0.408376 -0.381668
1.960939 -0.850007 1.061641
2.374049 -1.166044 1.438412
1.986063 -1.090952 1.931522
1.691838 -1.066056 2.427892
1.841345 -1.311372 3.064427
1.648540 -1.339800 3.560611
1.014428 -1.172888 4.197751
0.744563 -1.122063 4.546103
0.834334 -1.294659 5.024944
0.928148 -1.445962 5.414317
1.027991 -1.622290 5.887164
1.055157 -1.830948 6.629610
0.995916 -1.953378 7.216371
0.837734 -1.961546 7.565560
1.508470 0.128397 -1.299736
1.756542 -0.036684 -1.062646
1.969860 -0.272170 -0.487180
2.000232 -0.449372 0.165543
1.797090 -0.420280 0.392873
1.939267 -0.622718 0.957131
2.473143 -0.922935 1.248652
2.343795 -1.051743 1.978729
1.962471 -0.972624 2.308082
1.950756 -1.066828 2.702118
1.847283 -1.188061 3.358423
1.291313 -1.108528 3.980937
0.832898 -1.027862 4.434274
0.655825 -1.060221 4.861737
0.858619 -1.285725 5.415310
1.073771 -1.536470 6.048299
1.189625 -1.682355 6.432313
1.217041 -1.794211 6.830419
1.248328 -1.907535 7.227824
0.931872 -1.935043 7.871292
1.983435 -0.129799 -0.474833
2.039329 -0.266630 0.006407
2.106547 -0.385929 0.400243
2.168810 -0.544548 0.961630
2.435386 -0.729017 1.344144
2.608648 -0.901752 1.808647
2.215680 -0.930101 2.471667
2.117575 -1.014810 2.954383
1.931316 -1.092832 3.532524
1.557026 -1.050089 3.879069
1.098771 -1.046306 4.501713
0.834543 -1.084473 5.025584
0.960878 -1.265454 5.589127
1.183387 -1.453504 6.047626
1.309525 -1.590233 6.430638
1.344950 -1.699497 6.827743
1.411924 -1.882073 7.480456
1.070556 -1.860238 7.866584
1.247603 0.566957 -1.962181
1.793461 0.342832 -1.616111
2.053073 0.197337 -1.288962
2.192398 0.003546 -0.629865
2.149442 -0.141564 0.022996
2.489138 -0.492027 1.120039
2.769014 -0.675906 1.585665
2.472737 -0.736477 2.159292
2.087629 -0.777620 2.747834
1.900589 -0.827894 3.160260
1.726905 -0.943865 3.832773
1.458390 -0.998101 4.349898
1.002747 -1.011147 4.897328
1.030897 -1.115700 5.303783
1.279237 -1.332382 5.940607
1.405993 -1.437376 6.242233
1.544450 -1.565397 6.627429
1.622186 -1.742422 7.283091
1.398624 -1.813941 7.823805
1.193070 0.657592 -1.918215
1.840947 0.423351 -1.398620
2.004084 0.279539 -0.906970
2.182535 0.174150 -0.590019
2.166676 0.103429 -0.277543
2.519557 -0.334407 1.325087
2.913792 -0.471256 1.617073
2.625581 -0.575457 2.272356
2.241293 -0.607262 2.690406
2.164250 -0.728404 3.262361
1.987356 -0.795033 3.675927
1.642254 -0.918838 4.456454
1.183107 -0.947509 4.916259
1.130125 -1.056868 5.420394
1.466215 -1.200191 5.782698
1.543625 -1.368438 6.441361
1.670977 -1.440418 6.653812
1.848183 -1.600765 7.205440
1.560519 -1.722259 7.933872
1.617902 0.622488 -1.598546
2.082659 0.440467 -1.012214
2.158539 0.300824 -0.444245
2.147049 0.209886 -0.048735
2.536069 -0.121327 1.210409
3.043123 -0.296038 1.747533
2.759023 -0.381198 2.232969
2.688672 -0.524681 2.878984
2.518518 -0.621901 3.368266
2.143075 -0.665017 3.711526
1.800605 -0.792428 4.403044
1.263141 -0.889099 5.044578
1.209459 -0.980549 5.460045
1.566425 -1.119325 5.905970
1.829999 -1.250722 6.359506
1.888930 -1.348728 6.755735
1.882170 -1.483918 7.339360
1.704264 -1.631569 8.048556
1.608420 0.914967 -2.345566
2.173964 0.763696 -1.746789
2.449025 0.624748 -1.173441
2.341660 0.575994 -0.952781
2.227602 0.428876 -0.306993
2.224438 0.337679 0.086871
2.329417 0.165976 0.817833
2.340321 0.055136 1.295123
2.644409 0.018693 1.423337
3.066346 -0.115134 1.960553
2.887128 -0.203241 2.357904
2.730253 -0.350896 3.010102
2.555201 -0.421568 3.331818
2.208080 -0.552540 3.930200
1.860856 -0.666111 4.453496
1.421575 -0.782525 4.997859
1.422841 -0.958999 5.759316
1.779500 -1.049674 6.116545
2.054883 -1.160464 6.568351
2.055658 -1.295634 7.151604
1.797360 0.854844 -1.470055
2.086997 0.738282 -0.894157
2.185035 0.671758 -0.582582
2.089642 0.515578 0.066168
2.393213 0.481741 0.289137
3.058955 0.156830 1.858427
2.880297 0.073463 2.172252
2.824784 -0.060030 2.733372
2.777761 -0.193542 3.296736
2.422380 -0.313355 3.722692
2.203214 -0.483606 4.400609
1.489684 -0.679500 5.063369
1.240353 -0.776487 5.417922
1.797075 -0.820897 5.750796
2.106445 -0.947309 6.374155
2.081882 -1.044264 6.785700
2.079137 -1.160009 7.283757
1.827770 -1.343801 8.011839
0.943872 1.001597 -1.993876
1.730364 0.983912 -1.472061
2.225224 0.953480 -1.061125
2.128096 0.869022 -0.754811
2.037056 0.745264 -0.276879
2.051202 0.634999 0.202988
2.624298 0.379456 1.621585
2.951411 0.335370 1.995793
2.911338 0.179925 2.638231
2.764527 0.046900 3.124189
2.624162 -0.086279 3.614455
2.317667 -0.286882 4.299008
1.898947 -0.467968 4.836379
1.850934 -0.550201 5.161031
2.211534 -0.585850 5.518129
2.330454 -0.721778 6.167247
2.196419 -0.819220 6.508181
2.235206 -0.970032 7.175533
2.169033 -1.119535 7.777740
1.837619 1.190703 -1.576531
1.944502 1.079436 -1.009026
2.056393 0.989983 -0.528923
2.080539 0.861884 0.033539
2.097224 0.792477 0.341606
2.515513 0.507289 1.928821
2.857204 0.473826 2.383957
2.805265 0.369297 2.777092
2.660496 0.242239 3.179937
2.472921 0.022815 3.933008
2.258149 -0.144442 4.441067
2.213475 -0.230061 4.761123
2.267774 -0.291425 5.069834
2.327659 -0.475548 5.901429
2.373319 -0.518571 6.124841
2.398533 -0.650234 6.703320
2.337309 -0.805311 7.301113
2.074375 -0.994148 7.855928
1.654075 1.253804 -1.403704
1.963370 1.207161 -0.831316
2.083557 1.127240 -0.353143
2.006321 1.030209 -0.046295
2.046664 0.906341 0.515837
2.286328 0.842872 1.072459
1.942352 0.643054 1.477561
2.815064 0.681886 2.387213
2.759560 0.590706 2.696502
2.755908 0.433699 3.341823
2.464939 0.204070 3.935315
2.342545 0.068250 4.347316
2.319099 -0.036229 4.750966
2.444759 -0.155154 5.397278
2.414291 -0.241772 5.718390
2.481543 -0.402129 6.464541
2.439916 -0.472240 6.703652
2.390178 -0.631340 7.301113
2.071641 -0.885073 7.960551
1.138552 1.427444 -2.199855
1.620123 1.509924 -1.776764
1.914179 1.544466 -1.454787
1.945203 1.416710 -0.892329
1.884456 1.274432 -0.415310
1.915527 1.188448 -0.020788
1.966607 1.068095 0.543329
2.211314 1.024610 1.101782
2.184952 0.873825 1.666913
2.236108 0.796026 2.059998
2.556429 0.848607 2.350592
2.639794 0.742564 2.907761
2.561141 0.548279 3.565885
2.370496 0.348385 4.071033
2.337000 0.255862 4.390655
2.484447 0.131343 5.122574
2.386957 -0.011157 5.542896
2.515209 -0.101277 6.106375
2.539756 -0.214563 6.600483
2.505442 -0.287931 6.841783
2.381755 -0.489804 7.459837
0.853204 1.398413 -2.098737
1.690453 1.686197 -1.659355
1.999575 1.687461 -1.088328
1.863937 1.479739 -0.532223
1.785980 1.407051 -0.394442
1.868008 1.236343 0.423092
1.913165 1.156895 0.816576
2.041052 1.139550 1.122393
2.104240 1.047322 1.599236
2.160280 0.973432 1.991363
2.349842 0.900148 2.629898
2.429973 0.816597 3.104527
2.248713 0.601145 3.605728
2.251547 0.477326 4.093130
2.419559 0.459634 4.475058
2.469922 0.314894 5.132476
2.432177 0.236128 5.368848
2.517703 0.085603 6.114308
2.550475 -0.025359 6.607427
2.525171 -0.190758 7.204308
2.373924 -0.378572 7.653814
0.746613 1.460136 -2.109223
1.560613 1.807760 -1.663989
1.847241 1.885442 -1.339711
1.811490 1.714805 -0.777391
1.696038 1.499156 -0.217555
1.741262 1.419818 0.176642
1.790044 1.342525 0.570821
1.964405 1.270130 1.216192
2.035372 1.183313 1.693653
2.125577 1.085040 2.255309
2.263968 1.083826 2.556892
2.209809 0.876644 3.216573
2.200522 0.764058 3.618293
2.383000 0.743781 4.085893
2.466804 0.687194 4.477691
2.423566 0.506263 5.062500
2.431939 0.402608 5.468671
2.530250 0.259736 6.214758
2.504849 0.181134 6.454615
2.537195 -0.005108 7.221542
2.483629 -0.151026 7.653051
1.285946 1.738143 -1.337662
1.567784 1.839559 -1.017194
1.602292 1.776042 -0.706668
1.753228 1.720333 -0.141976
1.769398 1.526079 0.591196
1.732407 1.413437 0.904007
1.889210 1.386166 1.381314
1.968577 1.305811 1.860674
2.037709 1.242229 2.255309
2.126187 1.168212 2.734095
2.073856 0.970597 3.313320
2.254785 0.961536 3.784019
2.378219 0.887740 4.346702
2.508485 0.818835 4.908464
2.482195 0.734516 5.146012
2.505848 0.538052 5.905209
2.450655 0.381489 6.330838
2.455792 0.293327 6.658252
2.481625 0.118820 7.344284
2.413864 -0.101976 7.968944
0.603983 1.605783 -2.054450
1.189757 1.967470 -1.706645
1.569687 2.097600 -1.127764
1.551041 1.942000 -0.651505
1.502549 1.837018 -0.426494
1.607328 1.703030 0.307708
1.655121 1.648907 0.618949
1.746997 1.554750 1.183825
1.800422 1.505142 1.494903
1.886800 1.431732 1.974863
2.071715 1.413479 2.532555
1.954251 1.147805 3.116070
2.075082 1.076952 3.679790
2.297221 1.167548 3.969171
2.351228 1.041541 4.540205
2.412316 0.920600 5.113092
2.360969 0.755796 5.532776
2.411785 0.650347 6.025718
2.467858 0.548637 6.520118
2.529205 0.450700 7.015897
0.387392 1.595396 -2.119708
1.347601 2.281429 -1.441892
1.338702 2.122553 -0.968180
1.360068 1.937523 -0.322744
1.421616 1.870045 0.071454
1.529296 1.765252 0.719385
1.598756 1.705235 1.113475
1.671195 1.648053 1.507450
1.796722 1.560232 2.154691
1.877003 1.510569 2.548166
1.745657 1.255278 2.963549
1.922759 1.271499 3.435732
2.226055 1.440011 3.801461
2.279785 1.225613 4.634941
2.265332 1.137241 4.870359
2.340118 1.025008 5.444518
2.444841 0.913532 6.104740
2.461613 0.826327 6.428737
2.485519 0.659360 7.024830
2.439816 0.506720 7.370183
0.464814 1.850675 -2.168586
0.997931 2.121231 -1.263451
1.206844 2.183274 -0.780356
1.201905 2.043790 -0.388827
1.244081 1.867785 0.259125
1.314614 1.809474 0.653626
1.423307 1.851573 0.876305
1.547616 1.765342 1.523299
1.609566 1.727085 1.831960
1.726734 1.662231 2.393840
1.632012 1.388274 2.892504
1.826328 1.409292 3.448964
2.050547 1.525177 3.823532
2.077877 1.326809 4.489573
2.177898 1.301246 4.882220
2.325569 1.270063 5.442779
2.390997 1.173416 5.932972
2.325048 1.014584 6.187006
2.383090 0.845127 6.866286
2.372950 0.687196 7.295135
2.320073 0.380711 8.021814
0.940855 2.224059 -0.992750
1.021667 2.148298 -0.516364
1.075312 1.974547 0.129604
1.148903 1.920893 0.522462
1.286446 1.949316 0.912973
1.416961 1.873410 1.558296
1.438567 1.752429 1.954681
1.603123 1.785083 2.425499
1.529303 1.505185 2.922716
1.620958 1.474196 3.316296
1.855432 1.599994 3.775447
1.892434 1.496736 4.176705
2.057323 1.464763 4.821262
2.205945 1.444155 5.380293
2.277523 1.352132 5.868797
2.295130 1.185105 6.374600
2.375461 1.102675 6.867167
2.428245 0.946234 7.463988
2.293842 0.631739 7.848162
0.703212 2.337082 -1.270192
0.819059 2.241160 -0.624733
0.869552 2.081840 -0.063851
0.946255 2.032829 0.329018
1.007969 1.996779 0.637065
1.196562 2.011674 1.280922
1.244110 1.990107 1.503488
1.351076 1.843100 2.238488
1.426588 1.718540 2.806796
1.425737 1.620243 3.037570
1.635778 1.669690 3.676484
1.786523 1.737463 4.058220
1.952109 1.717820 4.701371
1.980733 1.627399 5.019579
2.080254 1.537388 5.592170
2.113577 1.452926 5.913127
2.245590 1.375312 6.573260
2.283118 1.217698 7.083386
0.546695 2.244126 -0.891260
0.573003 2.226078 -0.754149
0.668642 2.049836 -0.023497
0.815019 2.085917 0.452903
0.915660 2.039865 0.929176
