-2.039781 0.227529 7.353486
-1.987394 0.154595 8.003532
-2.061890 0.268885 8.420588
-2.046370 0.251886 9.197830
-1.980569 0.157880 9.710253
-1.808000 -0.097573 9.923602
-1.416540 -0.677837 10.307289
-1.469861 -0.708438 2.195879
-1.558317 -0.593159 2.933740
-1.566354 -0.577721 3.708317
-1.679286 -0.433700 4.200381
-1.504302 -0.646496 4.915064
-1.705465 -0.391407 5.584262
-1.993859 -0.026517 6.427776
-2.039451 0.033863 6.945178
-1.976818 -0.039520 7.598011
-1.947384 -0.072228 8.158253
-2.062542 0.074972 8.708399
-2.099222 0.124804 9.303619
-2.050908 0.067622 9.725243
-1.726055 -0.333572 10.175816
-1.195774 -0.992095 10.394842
-1.380473 -0.853348 2.451386
-1.518252 -0.704336 3.094790
-1.529404 -0.687675 3.868143
-1.549591 -0.661545 4.636415
-1.775588 -0.421037 5.077559
-1.931442 -0.251703 5.926531
-2.038963 -0.135006 6.493017
-2.027161 -0.142961 7.192198
-2.083495 -0.080435 7.705902
-2.085051 -0.074387 8.397869
-2.088357 -0.067942 8.863330
-2.095128 -0.057865 9.327032
-1.897665 -0.261362 9.983841
-1.504813 -0.672473 10.309670
-0.767456 -1.446422 10.557089
-1.319291 -0.952174 2.419734
-1.467453 -0.816345 3.065823
-1.504478 -0.777954 3.983192
-1.575380 -0.712158 4.427627
-1.669304 -0.623680 5.240307
-1.983070 -0.341229 5.725471
-2.026945 -0.297709 6.477017
-1.946530 -0.365498 7.134577
-2.073693 -0.248886 7.694898
-2.106514 -0.216088 8.298541
-2.176500 -0.150726 8.807903
-2.092617 -0.221135 9.545260
-1.899092 -0.391550 9.891371
-1.512628 -0.733235 10.348976
-0.741635 -1.419362 10.502993
-1.248022 -1.057073 1.792765
-1.175268 -1.106692 2.524564
-1.381402 -0.951791 3.074512
-1.381501 -0.946223 4.081600
-1.419460 -0.915338 4.615439
-1.564732 -0.804375 5.332428
-1.976602 -0.497989 5.860162
-1.955990 -0.509352 6.561318
-1.944466 -0.514036 7.259097
-1.976930 -0.486822 7.862236
-2.050145 -0.430094 8.370898
-2.128031 -0.369943 8.876198
-2.040334 -0.430563 9.609831
-1.896723 -0.535517 9.769756
-1.449683 -0.861969 10.314301
-1.291271 -1.069935 1.550364
-1.258924 -1.086906 2.188413
-1.261231 -1.081423 2.967084
-1.274747 -1.068937 3.740922
-1.385825 -0.996272 4.324543
-1.470968 -0.940616 4.763932
-1.700817 -0.792570 5.524990
-1.976303 -0.615253 6.413405
-1.963182 -0.621031 6.885456
-1.879162 -0.670322 7.538151
-1.916585 -0.643736 8.140731
-2.108707 -0.520908 8.599679
-2.080990 -0.535415 9.153351
-1.914985 -0.635889 9.847553
-1.653564 -0.798670 10.062059
-0.950515 -1.237156 10.501537
-1.211871 -1.166704 1.711284
-1.130717 -1.204817 2.441645
-1.280988 -1.125095 2.941396
-1.341495 -1.090627 3.622030
-1.410855 -1.051631 4.297871
-1.455227 -1.026195 4.829214
-1.740573 -0.876196 5.498084
-1.908578 -0.785215 6.431524
-1.895037 -0.789843 6.903936
-1.807234 -0.831756 7.557031
-1.923375 -0.769970 7.977924
-2.048789 -0.702328 8.619143
-2.065246 -0.690482 9.304395
-1.916111 -0.765268 9.685810
-1.571883 -0.940273 10.082849
-0.800757 -1.334067 10.616719
-1.136355 -1.252028 2.046796
-1.057043 -1.281197 2.775670
-1.265997 -1.193300 3.181261
-1.283990 -1.182235 3.952268
-1.186393 -1.218539 4.762870
-1.527975 -1.075251 5.341752
-1.743695 -0.982480 6.187388
-1.809818 -0.952808 6.706665
-1.798561 -0.955197 7.178683
-1.875984 -0.920909 7.690994
-1.880254 -0.915872 8.381544
-2.016786 -0.856673 9.018528
-1.907611 -0.899163 9.529656
-1.633993 -1.009679 9.963126
-1.158407 -1.203192 10.417637
-1.114875 -1.318092 1.512785
-1.025415 -1.342973 2.242356
-1.266995 -1.264171 2.793344
-1.146693 -1.298398 3.607599
-1.270507 -1.256623 4.190988
-1.269625 -1.254032 4.814109
-1.399457 -1.209336 5.619208
-1.890839 -1.051798 6.143517
-1.914990 -1.041374 6.751217
-1.733509 -1.095868 7.358462
-1.773942 -1.080327 7.961234
-1.948781 -1.022597 8.511612
-1.878416 -1.041843 9.155830
-1.767361 -1.074542 9.668052
-1.486476 -1.161209 10.103216
-0.944957 -1.330655 10.429937
-1.066685 -1.389864 1.786403
-0.865621 -1.433061 2.319831
-0.871301 -1.428268 3.098050
-0.940739 -1.409453 3.778784
-1.119309 -1.366741 4.270146
-1.070914 -1.374491 4.986198
-1.433942 -1.289561 5.562718
-1.711287 -1.223274 6.314353
-1.738305 -1.214406 6.922650
-1.642847 -1.233118 7.574824
-1.728708 -1.211341 8.086263
-1.868316 -1.176795 8.726581
-1.799461 -1.189510 9.370571
-1.636838 -1.224671 9.752607
-1.260335 -1.308268 10.150623
-0.653080 -1.445095 10.349642
-0.873699 -1.483651 1.907991
-0.701377 -1.504865 2.586859
-0.784514 -1.491181 3.036868
-0.939870 -1.466097 3.768007
-0.969314 -1.458549 4.536288
-1.070644 -1.442353 4.975968
-1.295729 -1.406932 5.827505
-1.627243 -1.357401 6.486872
-1.568015 -1.363226 7.050746
-1.605346 -1.355291 7.656573
-1.693084 -1.340687 8.168164
-1.664130 -1.341297 8.948087
-1.676859 -1.337458 9.410229
-1.512537 -1.358867 9.791713
-1.001780 -1.428669 10.243107
-0.164737 -1.545367 10.463481
-0.905357 -1.545919 1.642003
-0.728235 -1.552402 2.318682
-0.896068 -1.541238 2.818885
-0.824255 -1.541899 3.540533
-1.026276 -1.527307 4.404767
-1.380711 -1.504812 5.215179
-1.000293 -1.523855 5.504886
-1.065505 -1.518068 6.028647
-1.537147 -1.489200 6.864876
-1.393801 -1.494584 7.381213
-1.570550 -1.482705 7.935670
-1.663354 -1.475517 8.443057
-1.721184 -1.469814 9.037334
-1.394643 -1.483985 9.780335
-1.178905 -1.494397 10.032789
-0.444058 -1.531560 10.506459
-0.759827 -1.614937 1.665749
-0.552390 -1.606491 2.199311
-0.610433 -1.605181 2.885762
-0.504871 -1.599515 3.468511
-1.372303 -1.617410 5.201925
-1.079056 -1.607305 5.538787
-1.096661 -1.605118 6.154136
-1.391059 -1.610498 6.900315
-1.381450 -1.608145 7.371423
-1.424118 -1.606749 7.974622
-1.565886 -1.608100 8.616030
-1.494007 -1.603153 9.260539
-1.379009 -1.597517 9.773318
-0.863095 -1.580361 10.224186
-0.166105 -1.558158 10.611696
-0.423529 -1.648950 1.992543
-0.424552 -1.645619 2.772312
-0.424417 -1.643844 3.170182
-1.265574 -1.730893 5.139181
-1.197482 -1.721643 5.478054
-0.637595 -1.656012 5.906842
-0.753077 -1.667248 6.338765
-1.094431 -1.702214 7.219236
-1.135327 -1.704195 7.824193
-1.316414 -1.722366 8.376876
-1.372945 -1.726163 8.973631
-1.216188 -1.705649 9.577185
-0.961322 -1.675115 9.921352
-0.488088 -1.619640 10.283970
-0.274855 -1.677172 2.005921
-0.161319 -1.651788 2.590485
-0.140464 -1.644767 3.224195
-0.828250 -1.779136 4.014097
-1.304683 -1.871210 4.785312
-1.092017 -1.825843 5.393627
-0.981048 -1.801676 5.821402
-0.345725 -1.672565 6.205959
-1.072924 -1.811942 7.641673
-1.078470 -1.809960 8.332230
-1.134762 -1.818577 8.928250
-1.187294 -1.827449 9.299088
-0.986108 -1.784998 9.770381
-0.443936 -1.673856 10.312964
0.256104 -1.532756 10.477157
-0.103869 -1.685212 2.058375
-0.076406 -1.674373 2.693781
0.058074 -1.633509 3.134029
-1.021701 -1.936838 5.018093
-0.901467 -1.899098 5.675068
-0.755191 -1.855508 5.966225
-0.092667 -1.662964 6.216107
-0.809480 -1.862445 7.879308
-1.026505 -1.923036 8.340076
-0.993975 -1.911102 8.894608
-0.892513 -1.878432 9.628997
-0.684294 -1.817126 9.881022
-0.154276 -1.661505 10.427760
0.924975 -1.349182 10.543728
-0.065935 -1.729388 1.871168
0.145198 -1.644760 2.640180
0.144833 -1.643031 3.037445
-0.855842 -2.017683 5.013140
-0.837609 -2.009528 5.259373
-0.553774 -1.896899 6.051034
-0.331232 -1.810352 6.297520
-0.733461 -1.955941 8.155445
-0.661817 -1.925409 8.802224
-0.759218 -1.960411 9.305747
-0.495778 -1.856249 9.960983
-0.052232 -1.684363 10.322969
0.649303 -1.413967 10.583244
0.131593 -1.704788 1.770674
0.238319 -1.650190 2.356426
0.211697 -1.660447 2.898963
-0.475734 -1.985408 4.596967
-0.323039 -1.908839 5.118572
-0.415529 -1.950445 5.780320
-0.073426 -1.782056 6.301803
0.545181 -1.480909 6.559984
-0.500802 -1.980601 8.071022
-0.512936 -1.983118 8.760275
-0.441849 -1.946593 9.182917
-0.256579 -1.854462 9.657350
0.006995 -1.724548 10.095685
0.701132 -1.385241 10.670368
0.480773 -1.564822 1.782588
0.460193 -1.574230 2.327407
0.721952 -1.415505 3.049407
-0.214181 -1.961045 4.797845
-0.070388 -1.873208 5.320623
-0.155123 -2.036396 4.800293
0.322199 -1.690897 6.797771
-0.016940 -1.918328 8.741899
-0.135328 -1.999141 9.155858
0.065061 -1.855557 9.721787
0.334967 -1.663403 10.252926
0.736829 -1.380767 10.398527
0.664895 -1.523218 1.817094
0.771477 -1.427877 2.641488
0.944311 -1.278712 3.034773
0.297824 -1.811772 5.881651
0.550352 -1.594648 6.313616
0.593853 -1.554397 6.882289
0.203118 -1.875061 8.865936
0.121710 -1.941348 9.369697
0.176377 -1.892453 9.791476
0.525472 -1.592380 10.374990
1.096921 -1.105187 10.634716
0.900614 -1.346435 2.099062
0.895246 -1.346935 2.879333
0.250867 -1.976579 4.533946
0.531005 -1.695176 5.053637
0.757281 -1.463962 6.106083
0.807567 -1.404588 7.630601
0.542133 -1.662805 8.497552
0.310639 -1.889601 8.995768
0.316901 -1.878567 9.773607
0.523169 -1.671026 10.211435
0.924142 -1.270801 10.542019
1.143056 -1.107514 2.452363
1.213415 -1.021115 3.042904
0.448392 -1.904919 4.845649
0.927381 -1.343215 4.950282
1.061029 -1.184021 5.344172
0.846753 -1.428901 6.243263
0.919795 -1.332361 7.868004
0.615080 -1.683102 8.776198
0.513009 -1.798309 9.417619
0.560035 -1.740342 9.844691
0.869338 -1.375602 10.211596
1.345401 -0.814715 10.701941
1.170172 -1.096573 2.073950
1.134119 -1.141590 2.763116
0.733330 -1.682579 5.039166
1.007403 -1.299049 5.286379
1.127752 -1.126758 5.909814
0.874189 -1.476283 6.385314
1.195862 -1.024984 6.829090
0.800165 -1.565564 8.218016
0.659292 -1.756571 8.904575
0.696321 -1.700103 9.555512
0.791328 -1.564874 9.943724
1.090137 -1.145276 10.406080
1.309989 -0.904892 2.618511
0.760601 -1.821965 4.999731
1.042754 -1.338636 5.196961
1.189672 -1.084870 5.540694
1.246295 -0.982399 6.210210
1.480333 -0.578619 6.704321
1.369570 -0.763557 7.179266
1.136963 -1.152614 8.098093
0.880895 -1.584612 8.684283
0.800911 -1.715579 9.323893
0.856425 -1.616333 9.840389
1.087018 -1.217616 10.428487
1.513165 -0.488231 10.656540
1.361828 -0.832029 2.367530
1.508082 -0.526724 2.949790
0.987594 -1.574467 4.750950
1.155310 -1.228121 5.042987
1.283114 -0.962986 5.386426
1.351687 -0.817254 5.917792
1.496739 -0.513468 6.594105
1.559692 -0.381538 6.896327
1.052927 -1.400968 8.718705
0.988467 -1.528793 9.134948
1.030276 -1.435763 9.876100
1.181045 -1.123927 10.187304
1.485677 -0.496216 10.580275
1.442597 -0.670665 2.646677
1.129844 -1.453541 4.401539
1.108736 -1.501397 4.930907
1.214311 -1.225835 5.270146
1.369791 -0.818529 5.892319
1.342028 -0.883531 6.418784
1.410403 -0.702976 6.810813
1.239651 -1.122349 8.432915
1.172157 -1.291950 8.757946
1.127233 -1.398606 9.488267
1.151665 -1.330646 9.912424
1.336097 -0.850887 10.370757
1.667469 0.006204 10.789672
1.256420 -1.343301 4.817992
1.324909 -1.096886 5.295041
1.415517 -0.777733 5.497041
1.469667 -0.579003 6.119314
1.633511 0.000960 6.663010
1.330488 -1.032267 8.129576
1.287301 -1.172592 8.773431
1.271133 -1.223007 9.147476
1.275071 -1.200410 9.703962
1.348495 -0.933815 10.367612
1.528673 -0.300811 10.665611
1.339160 -1.318136 4.681817
1.325611 -1.372141 5.208983
1.447941 -0.770121 5.732854
1.550734 -0.266214 6.082303
1.607172 0.013904 6.433552
1.400940 -0.945930 8.093444
1.368637 -1.087928 8.738864
1.364281 -1.098829 9.206483
1.358918 -1.114634 9.672297
1.416622 -0.826451 10.113735
1.537541 -0.233313 10.542083
1.466876 -1.023192 4.592949
1.530385 -0.449865 5.898879
1.600749 0.152215 6.440944
1.561030 -0.148947 7.191745
1.482020 -0.774376 7.966087
1.457340 -0.958288 8.520596
1.451959 -0.977435 9.213682
1.443573 -1.033173 9.586709
1.465740 -0.832226 10.065220
1.532417 -0.268369 10.396602
1.555937 -0.854540 4.644744
1.552084 -0.910336 5.172724
1.563097 -0.432694 5.652125
1.573045 -0.007447 6.046327
1.580208 0.324502 6.491231
1.542454 -0.792931 8.097920
1.539037 -0.806135 8.792881
1.535942 -0.858844 9.167621
1.536821 -0.743954 9.685703
1.543579 -0.412320 10.220858
1.556159 0.135564 10.782650
1.579973 -0.047094 5.299008
1.569926 0.148835 5.460047
1.558696 0.313466 6.229390
1.568125 0.058792 6.845460
1.583682 -0.340304 7.633506
1.600568 -0.745356 8.183835
1.604699 -0.891479 8.828245
1.592526 -0.680290 9.307311
1.576089 -0.396982 9.974286
1.566716 -0.236458 10.365660
1.525441 0.608205 10.596438
1.534001 0.485310 3.310717
1.560937 0.249391 4.328393
1.581516 0.070923 5.052553
1.552587 0.274836 5.447190
1.535730 0.386622 5.888741
1.483009 0.764079 6.432061
1.653065 -0.565081 8.037044
1.657427 -0.617904 8.641711
1.645248 -0.548251 9.294702
1.633479 -0.474177 9.722506
1.587277 -0.145427 10.259767
1.510855 0.416638 10.598701
1.457381 0.742647 3.122991
1.497196 0.549524 4.002403
1.544158 0.329732 4.637155
1.523594 0.408879 5.219712
1.454699 0.701180 5.805318
1.459020 0.674309 6.198266
1.571797 0.161926 6.945810
1.637036 -0.145183 7.917060
1.645841 -0.196105 8.524817
1.695318 -0.423510 8.984416
1.667035 -0.309081 9.504948
1.619910 -0.110769 9.987344
1.544943 0.209208 10.528219
1.345281 1.087967 10.632328
1.415016 0.777526 3.581465
1.546815 0.350887 4.221262
1.559907 0.301611 4.757548
1.438585 0.677924 5.293907
1.428926 0.701385 5.782096
1.513783 0.421654 6.539953
1.628795 0.042616 7.560172
1.707906 -0.216637 8.161360
1.734700 -0.308949 8.673724
1.735858 -0.319450 9.142440
1.686560 -0.172291 9.754629
1.608213 0.070647 10.106032
1.412274 0.683373 10.631506
1.331316 0.926207 3.647247
1.478801 0.558099 4.380095
1.510877 0.472054 5.056574
1.360106 0.833468 5.594046
1.368087 0.809455 5.987123
1.545038 0.368219 6.830511
1.658921 0.081914 7.574666
1.725050 -0.085798 8.133239
1.692688 -0.014484 8.789260
1.679636 0.010837 9.351244
1.619426 0.150539 9.965581
1.536584 0.349524 10.225972
1.290861 0.942559 10.755281
1.307137 0.927792 3.456335
1.457135 0.619590 4.283440
1.495096 0.537009 4.959028
1.300123 0.923176 5.354369
1.244365 1.028082 6.030259
1.495993 0.518256 6.685171
1.670322 0.161768 7.472638
1.709532 0.076035 8.214741
1.691585 0.106415 8.776983
1.676900 0.130285 9.337513
1.701077 0.078247 9.711319
1.568167 0.339787 10.153982
1.237535 0.996434 10.642124
1.191986 1.082429 3.537148
1.351561 0.819803 4.222380
1.376731 0.774812 4.758683
1.166305 1.109133 5.295946
1.147527 1.133352 6.018425
1.444764 0.649328 6.674223
1.627327 0.348060 7.555119
1.697571 0.229552 8.205361
1.698839 0.223592 8.675931
1.702780 0.213343 9.144754
1.597892 0.376342 9.850316
1.490779 0.544773 10.333626
1.141728 1.104240 10.636211
1.105849 1.164596 3.925196
1.176667 1.063037 4.748384
1.021358 1.268820 5.240434
1.004330 1.288166 5.730281
1.147748 1.088492 6.584159
1.461292 0.661946 7.096611
1.618587 0.443714 7.929926
1.672497 0.367230 8.444288
1.626383 0.424576 9.099558
1.524439 0.559156 9.489535
1.456119 0.647419 10.012587
1.170949 1.029165 10.386995
0.843401 1.440972 3.343917
0.950554 1.314051 4.078144
1.064983 1.178891 4.805448
0.952573 1.303335 5.342517
0.966923 1.284374 5.735821
1.036742 1.198853 6.637954
1.561525 0.592276 7.978385
1.594720 0.550448 8.582918
1.600084 0.541221 9.051146
1.434850 0.725581 9.624593
1.274723 0.904102 10.201327
0.985708 1.231377 10.482571
0.711465 1.513134 3.568501
0.921427 1.305407 4.489548
1.087149 1.142049 5.118046
0.833930 1.381668 5.795703
0.852904 1.361018 6.186810
1.196266 1.025377 7.026171
1.484165 0.743466 7.809481
1.580423 0.648241 8.230617
1.553620 0.670615 8.792511
1.466054 0.751733 9.313003
1.393107 0.817409 10.058105
1.171332 1.029541 10.279540
0.439900 1.731272 10.665256
0.798289 1.391725 3.690182
0.996056 1.225959 4.468800
1.211592 1.047071 5.005163
0.830985 1.353488 5.729381
0.674986 1.478504 6.127576
0.836035 1.344388 6.607736
1.558098 0.746650 8.130355
1.463346 0.819709 8.879226
1.471778 0.810166 9.349076
1.311019 0.938584 9.832318
1.082827 1.122218 10.280271
0.468983 1.620963 10.645156
1.050972 1.196652 4.112388
0.903853 1.294554 4.647419
0.908298 1.288164 5.275839
0.659853 1.455193 5.859939
0.607945 1.488891 6.207506
0.890144 1.290891 7.098560
1.221422 1.059848 7.883259
1.412832 0.925093 8.573164
1.386117 0.940397 9.134979
1.246512 1.033930 9.524008
1.109846 1.125442 9.914559
1.205999 1.137259 4.175786
0.974663 1.263979 4.659377
1.100013 1.191084 5.238352
0.843791 1.332393 5.583908
0.346594 1.606539 6.266893
0.452011 1.545499 6.701363
1.351075 1.035707 8.261656
1.283496 1.070139 8.916827
1.259398 1.080771 9.477808
1.114589 1.159658 9.867184
0.858728 1.300256 10.313914
0.086834 1.729551 10.641659
1.173334 1.198843 4.065673
1.060430 1.246085 5.129380
0.910297 1.313184 5.660130
0.609374 1.451815 5.869125
0.344034 1.572112 6.454253
0.618067 1.441308 7.205695
1.067018 1.228974 8.031298
1.159348 1.182541 8.772058
1.242876 1.142400 9.056925
1.052623 1.228351 9.539253
0.867345 1.311982 10.023919
0.400270 1.526452 10.494013
1.038788 1.302656 4.127230
0.872505 1.361302 4.658004
1.090426 1.278263 5.283013
0.808970 1.379039 5.858795
0.415210 1.523030 6.022762
0.268916 1.573221 6.789935
0.725989 1.402369 7.392172
1.233682 1.212315 8.120984
1.081706 1.264249 8.962040
1.169221 1.230744 9.246500
0.900979 1.326230 9.914781
0.697962 1.399644 10.175756
-0.203209 1.728522 10.692808
1.034851 1.360122 4.111388
0.828032 1.413617 4.499569
0.965518 1.374253 5.077712
0.806112 1.414444 5.605622
0.130230 1.592793 6.098167
0.072566 1.606628 6.443902
0.366721 1.523574 7.424651
0.803376 1.403782 8.111167
1.024604 1.342575 8.572442
1.005217 1.344181 9.358472
0.806886 1.394985 9.839581
0.434858 1.492531 10.247804
-0.203172 1.661619 10.552848
0.905012 1.443917 3.933312
0.433767 1.528058 4.178133
0.446436 1.524006 4.572532
0.713547 1.472274 5.338630
0.197350 1.563043 5.919816
0.048820 1.588564 6.220909
-0.544436 1.693398 6.773615
0.745510 1.452563 8.459029
0.843801 1.432502 8.970361
0.727800 1.451154 9.492075
0.527168 1.485283 9.975787
0.058013 1.568467 10.350157
0.656132 1.524973 4.161288
0.392831 1.548240 4.645519
0.487613 1.536126 5.318359
0.367468 1.544760 5.988590
-0.185668 1.597175 6.204549
-0.246488 1.600481 6.784973
0.060849 1.567526 7.533364
0.421767 1.529855 8.178681
0.658889 1.503936 8.867675
0.581030 1.509559 9.295821
0.468468 1.518119 9.816963
0.232270 1.538360 10.394406
-0.664310 1.624422 10.494724
0.748543 1.576605 4.154233
0.032192 1.578711 4.631290
0.266140 1.574588 5.257366
0.098226 1.572219 6.020932
-0.205738 1.567220 7.564705
0.340576 1.560823 8.291487
0.398307 1.557824 8.896950
0.595896 1.554257 9.445247
0.523229 1.552806 9.872416
-0.029376 1.553600 10.429707
-0.063933 1.573182 5.863376
-0.354115 1.548335 6.446579
-0.501394 1.534670 6.981753
0.720370 1.621259 8.617618
0.588781 1.609857 8.912548
0.745742 1.619091 9.551848
0.451450 1.594555 9.992807
-0.283391 1.536008 10.476781
0.692249 1.704556 4.202680
0.207463 1.628524 4.680808
-0.009215 1.592708 5.306958
-0.122748 1.573443 5.747357
-0.543739 1.507479 6.148387
-0.603144 1.496873 6.497149
-1.016813 1.430947 7.140839
0.373648 1.636296 8.633150
0.434192 1.642843 9.237115
0.229555 1.609497 9.720538
-0.098780 1.557035 10.261992
-1.027072 1.414650 10.456241
0.386136 1.724111 4.472905
-0.257937 1.561846 4.860227
-0.458510 1.510078 5.253873
-0.355527 1.532707 5.924560
-0.633665 1.461806 6.274759
-0.822437 1.411908 6.904973
-0.607461 1.462293 7.609679
-0.164579 1.569560 8.295361
0.198108 1.657070 8.930569
0.262666 1.670441 9.530945
0.066130 1.619282 10.012377
-0.431744 1.493097 10.478168
0.504112 1.840332 4.179847
0.337479 1.781366 4.706297
-0.325262 1.555414 4.952456
-0.520790 1.487258 5.346978
-0.334940 1.546979 6.063056
-0.605800 1.453474 6.413411
-1.259291 1.229436 6.923414
0.028606 1.658929 8.513958
0.172688 1.704814 9.158459
-0.023527 1.636018 9.640771
-0.302177 1.539424 10.087401
-0.928584 1.325533 10.390568
0.052834 1.745215 4.558267
-0.058933 1.694487 4.995265
-0.091946 1.676696 5.710292
-0.399830 1.540618 6.149663
-0.783657 1.372796 6.317252
-1.085989 1.237968 6.999900
-0.715009 1.395613 7.789750
-0.134196 1.645761 8.330005
-0.034169 1.685747 9.068846
-0.056169 1.673483 9.630661
-0.395780 1.522675 10.262794
-0.847265 1.325486 10.415053
0.202407 1.894558 4.391632
-0.037868 1.763890 5.102579
-0.140800 1.707259 5.538645
-0.401778 1.566304 6.115347
-0.811583 1.348187 6.372980
-1.180884 1.150780 6.775734
-0.985645 1.250580 7.481162
-0.502192 1.502766 8.209295
-0.171965 1.674339 8.844530
-0.148209 1.683469 9.536723
-0.408111 1.543750 9.979126
-0.828125 1.319662 10.351322
-0.012020 1.879899 4.473936
-0.122187 1.804313 5.138236
-0.103828 1.814293 5.525705
-0.459789 1.579298 5.913479
-0.851606 1.320309 6.401894
-1.238831 1.064278 6.899043
-1.055106 1.182030 7.372691
-0.634356 1.453068 8.196174
-0.389943 1.608713 9.017410
-0.299502 1.665237 9.525167
-0.513477 1.523362 9.875176
-0.974800 1.218508 10.435190
-0.076809 1.933659 4.501936
-0.212234 1.826565 5.026970
-0.310034 1.747644 5.691374
-0.609089 1.515930 5.988941
-0.908556 1.282584 6.523473
-1.274394 0.998382 7.021350
-1.136763 1.102395 7.358312
-0.771887 1.378010 8.276390
-0.475080 1.602818 8.912849
-0.452922 1.616019 9.606807
-0.624800 1.482358 9.865368
-1.062010 1.142899 10.426359
-0.332908 1.835455 4.727660
-0.355358 1.812032 5.208353
-0.408980 1.759525 5.779597
-0.686437 1.503668 6.076362
-1.096504 1.125487 6.521499
-1.370361 0.872853 6.830880
-1.106710 1.110416 7.482665
-0.599151 1.569850 8.385191
-0.486254 1.669414 9.027266
-0.627976 1.535439 9.730478
-0.814579 1.362469 10.080269
-1.287005 0.926708 10.604801
-1.299104 0.929280 2.947212
-0.505182 1.790010 4.746291
-0.557372 1.728929 5.317421
-0.540812 1.744607 5.703489
-0.856550 1.394496 6.183696
-1.259170 0.950036 6.490648
-1.143711 1.073210 7.058967
-0.779387 1.468795 7.792106
-0.620532 1.638871 8.480993
-0.693923 1.553358 9.225565
-0.778685 1.458285 9.520514
-0.975966 1.238589 9.964121
-1.470745 0.691666 10.452845
-1.377165 0.813412 2.980368
-0.565566 1.840898 4.736278
-0.697563 1.667355 5.351895
-0.795145 1.538559 5.876850
-1.082567 1.166782 6.361434
-1.116868 1.118732 6.934858
-0.896718 1.396206 7.584440
-0.753306 1.575043 8.275972
-0.722457 1.611880 8.653220
-0.844167 1.450884 9.357749
-0.968638 1.287940 9.839581
-1.204015 0.983396 10.248536
-1.370396 0.801007 3.162583
-0.789648 1.676154 4.770662
-0.858017 1.566273 5.435268
-1.016112 1.321777 5.777241
-1.174148 1.075485 6.354144
-1.031983 1.287963 6.966314
-0.909313 1.469943 7.664219
-0.834886 1.580362 8.086760
-0.853330 1.547647 8.648904
-0.939704 1.410652 9.261302
-1.029693 1.269923 9.650194
-1.209771 0.990230 10.189271
-1.368672 0.807924 2.518249
-1.376435 0.787640 3.154851
-1.279145 0.959948 4.027731
-1.037169 1.395713 5.420330
-1.196083 1.097047 5.854845
-1.182211 1.117052 6.472452
-1.015430 1.422357 6.896757
-1.035899 1.377063 7.690178
-0.990497 1.456495 8.203263
-1.024269 1.387835 8.856300
-1.041155 1.353429 9.190924
-1.129848 1.182460 9.895609
-1.310559 0.843632 10.302942
-1.407383 0.746882 2.415054
-1.344870 0.882104 3.153694
-1.277909 1.027600 3.885641
-1.226265 1.137031 4.703360
-1.147166 1.313056 5.189742
-1.175074 1.242751 5.764212
-1.128178 1.342994 6.427375
-1.077482 1.452010 7.085160
-1.095593 1.404256 7.651627
-1.127318 1.324291 8.308746
-1.106802 1.367168 8.687756
-1.132254 1.301625 9.341545
-1.227822 1.076171 9.916632
-1.394735 0.687912 10.420396
-1.469597 0.615727 2.234708
-1.464402 0.620350 3.017583
-1.377656 0.869330 3.564592
-1.333456 0.991978 4.150779
-1.333676 0.979540 5.010405
-1.268660 1.165137 5.494257
-1.217494 1.305428 6.295691
-1.205716 1.331845 6.908919
-1.177496 1.408181 7.426874
-1.203329 1.322807 8.082807
-1.187079 1.365662 8.461347
-1.249980 1.170023 9.166033
-1.284853 1.059771 9.687067
-1.365452 0.816631 10.039873
-1.472917 0.655802 2.732872
-1.445028 0.753554 3.559504
-1.411004 0.880580 4.143532
-1.386899 0.965844 4.815642
-1.349235 1.107774 5.390418
-1.320882 1.210417 6.052552
-1.300828 1.277879 6.801208
-1.300952 1.268728 7.273600
-1.278000 1.352226 7.787204
-1.263392 1.400334 8.389047
-1.268908 1.367793 8.946452
-1.326204 1.125457 9.514856
-1.395104 0.838488 9.955427
-1.530091 0.285986 10.288096
-1.537438 0.443038 2.490988
-1.510308 0.591389 3.227101
-1.481440 0.750735 3.956520
-1.457413 0.884050 4.538815
-1.461291 0.840129 5.254439
-1.420437 1.077063 5.873753
-1.406603 1.142306 6.625266
-1.378414 1.308335 6.960502
-1.390811 1.213104 7.616007
-1.401621 1.127769 8.270301
-1.377766 1.264552 8.688540
-1.380054 1.234882 9.246536
-1.431358 0.901122 9.777735
-1.505657 0.428868 10.145809
-1.575355 0.220789 2.649603
-1.553139 0.480634 3.197276
-1.530777 0.729149 3.974153
-1.521306 0.814551 4.646610
-1.514716 0.870473 5.174968
-1.500217 1.014392 5.976392
-1.482407 1.220687 6.450306
-1.477339 1.252044 7.058331
-1.477459 1.204946 7.845727
-1.475244 1.206991 8.313242
-1.478091 1.132116 8.962205
-1.484743 1.014999 9.478212
-1.505273 0.720236 9.917208
-1.539851 0.245238 10.285390
-1.590765 0.219582 2.420563
-1.589893 0.422996 3.063575
-1.587310 0.530309 3.885883
-1.586939 0.715750 4.375698
-1.583357 0.669623 5.090066
-1.581415 0.771619 5.755072
-1.580905 1.061727 6.504993
-1.580211 1.184182 6.930606
-1.577918 1.222196 7.535657
-1.573417 1.092871 8.277507
-1.572233 1.140989 8.652280
-1.570206 1.202757 9.248463
-1.566145 0.996780 9.722861
-1.559251 0.426644 10.046489
-1.589548 -0.068712 2.293620
-1.599907 0.078950 3.032028
-1.629531 0.428661 3.627227
-1.641749 0.595829 4.351909
-1.636327 0.560149 4.835316
-1.655142 0.793947 5.457525
-1.673256 1.030769 6.301799
-1.673233 1.059681 6.911357
-1.661478 0.963493 7.565431
-1.671750 1.095033 7.986436
-1.669685 1.105700 8.677639
-1.664501 1.076076 9.233497
-1.639453 0.831583 9.800600
-1.594007 0.356181 10.164466
-1.527568 -0.356309 10.331359
-1.591638 -0.128908 2.169631
-1.613958 0.015479 2.908098
-1.653254 0.256636 3.689122
-1.679613 0.423434 4.413199
-1.647124 0.253578 4.941568
-1.670479 0.399703 5.516989
-1.756470 0.903380 6.270061
-1.750506 0.887381 6.970544
-1.739010 0.836717 7.532927
-1.760206 0.966784 7.953679
-1.758974 0.977212 8.644534
-1.743863 0.908299 9.291234
-1.705856 0.706001 9.766559
-1.636822 0.326950 10.167847
-1.511180 -0.377151 10.332938
-1.559390 -0.322904 2.255194
-1.624450 -0.076049 2.807650
-1.699348 0.209032 3.497450
-1.689245 0.186463 4.359229
-1.677679 0.152279 4.843849
-1.700661 0.247359 5.512659
-1.832358 0.740981 6.265783
-1.824937 0.725525 6.966264
-1.808837 0.676070 7.528642
-1.841834 0.803610 7.949407
-1.841543 0.814039 8.640263
-1.831185 0.785444 9.195738
-1.787922 0.637483 9.801485
-1.681443 0.251458 9.978573
-1.470818 -0.512136 10.328527
-1.566286 -0.342328 2.079060
-1.611893 -0.205170 2.817834
-1.708491 0.073918 3.506841
-1.726208 0.135318 4.416084
-1.700124 0.066862 4.759257
-1.729964 0.159015 5.427540
-1.850140 0.508453 6.455666
-1.873691 0.581058 6.973397
-1.914507 0.700708 7.396859
-1.897269 0.662742 8.181301
-1.882757 0.629433 8.738541
-1.884615 0.640686 9.202861
-1.830239 0.496548 9.808634
-1.694668 0.119786 9.985791
-1.413393 -0.660894 10.430039
-1.491460 -0.559893 2.240926
-1.571526 -0.377252 2.889163
-1.690890 -0.107879 3.580930
-1.720381 -0.035937 4.260271
-1.645078 -0.195611 4.792468
-1.739128 0.017497 5.418889
-1.926721 0.438318 6.267566
-1.954635 0.505123 6.788837
-1.929046 0.457332 7.580191
-1.981491 0.576952 8.003498
-1.982569 0.586661 8.696322
-2.005214 0.642711 9.294398
-1.934038 0.490536 9.679268
-1.733773 0.054730 10.041644
-1.419813 -0.631773 10.300216
-1.501062 -0.572700 2.225511
-1.611542 -0.368455 3.014951
-1.711651 -0.184066 3.654149
-1.747887 -0.113320 4.331010
-1.746094 -0.110906 4.955569
-1.834846 0.053889 5.669766
-1.949283 0.265682 6.513322
-1.896126 0.176730 7.170516
-1.935287 0.251242 7.685738
-1.998529 0.367880 8.106581
-2.022274 0.415642 8.706267
-1.985530 0.355881 9.352835
-1.922195 0.245490 9.645399
-1.712441 -0.124395 10.137496
-1.233865 -0.975918 10.415422
-1.509380 -0.609479 1.848767
-1.585146 -0.492102 2.589760
-1.558456 -0.524603 3.459986
-1.579719 -0.489079 3.998209
-1.682382 -0.334046 4.488977
-1.830432 -0.110022 5.254258
-1.931602 0.046315 6.193056
-2.020482 0.181632 6.758235
-2.062923 0.248174 7.274617
-2.059498 0.248563 7.969401
-2.133785 0.361244 8.388202
-2.066060 0.267268 9.125393
-2.021232 0.204557 9.548672
-1.853550 -0.038979 9.985391
-1.459281 -0.616637 10.368573
-1.435680 -0.752658 2.089596
-1.612048 -0.529085 2.785691
-1.585382 -0.556088 3.652196
-1.633557 -0.491617 4.328517
-1.522449 -0.625688 4.858095
-1.637425 -0.478107 5.573668
-1.985747 -0.041548 6.235129
-2.057147 0.051567 6.889365
-2.078135 0.081828 7.494542
-2.074977 0.081188 7.962654
-2.078832 0.090797 8.652646
-2.115104 0.139941 9.247949
-1.983867 -0.019487 9.720939
-1.764799 -0.288993 10.027357
-1.266774 -0.904127 10.374643
-1.383121 -0.854585 2.051019
-1.382471 -0.850299 2.832386
-1.524396 -0.697857 3.472494
-1.575880 -0.639725 4.150408
-1.573540 -0.638196 4.775879
-1.733130 -0.467393 5.399321
-1.893884 -0.293959 6.245217
-2.004718 -0.174502 6.809482
-2.089357 -0.083318 7.234145
-2.116440 -0.051180 7.835980
-2.119984 -0.043096 8.524936
-2.131122 -0.027097 9.210028
-2.133036 -0.023580 9.448840
-1.873202 -0.291309 10.064243
-1.442660 -0.740179 10.258747
-1.350932 -0.925545 2.534957
-1.502799 -0.787611 3.175244
-1.517193 -0.770380 3.945237
-1.590022 -0.703454 4.385072
-1.751574 -0.555704 5.240269
-1.996071 -0.335796 5.902855
-2.113749 -0.228518 6.466662
-2.135547 -0.205712 7.071744
-1.962872 -0.354192 7.768730
-2.062349 -0.263850 8.186683
-2.108217 -0.218521 9.005852
-2.087690 -0.233425 9.557319
-1.865735 -0.426993 9.990271
-1.537307 -0.715595 10.259423
-1.216157 -1.077060 2.061207
-1.329125 -0.988915 2.800328
-1.424230 -0.914884 3.390717
-1.525140 -0.836554 3.976782
-1.491391 -0.859019 4.462266
-1.704528 -0.696165 5.227358
-1.889050 -0.554162 6.074568
-2.016276 -0.456356 6.639848
-2.041079 -0.434567 7.246924
-2.107645 -0.382205 7.759781
-2.144797 -0.351262 8.359890
-2.155625 -0.339439 9.046821
-2.060108 -0.407737 9.559448
-1.790906 -0.605254 10.086051
-1.439268 -0.865530 10.358369
-1.251256 -1.093800 2.005978
-1.297705 -1.061255 2.692332
-1.443458 -0.967712 3.189195
-1.460164 -0.953300 3.958756
-1.382038 -0.999076 4.535202
-1.609559 -0.853120 5.298395
-1.962595 -0.629105 6.007368
-1.904175 -0.661471 6.798447
-2.009068 -0.593810 7.222079
-2.080017 -0.546879 7.733569
-2.083869 -0.540905 8.422897
-2.054604 -0.556304 8.976433
-1.997700 -0.588493 9.619059
-1.813319 -0.702272 9.869961
-1.343697 -0.992556 10.415468
-0.815271 -1.368107 2.429317
-1.964101 -0.769115 6.734564
-1.914487 -0.791319 7.293795
-1.951995 -0.769499 7.894504
-1.886094 -0.797194 9.003259
-1.909270 -0.782181 9.685810
-1.681295 -0.895164 10.027428
-1.083236 -1.274595 2.711528
-1.242643 -1.207926 3.209395
-1.357984 -1.158615 3.795641
-1.257538 -1.195303 4.605491
-1.516632 -1.088251 5.138113
-1.818129 -0.963464 5.803273
-1.876567 -0.936348 6.550725
-1.822037 -0.954612 7.339270
-1.817277 -0.954309 7.808554
-1.946085 -0.899298 8.451230
-1.998878 -0.875177 9.047175
-1.963331 -0.887951 9.378006
-1.700180 -0.991013 10.033088
-1.172928 -1.202191 10.357646
-1.116305 -1.314047 1.897881
-1.085160 -1.321039 2.533171
-1.247324 -1.267084 3.031399
-1.313818 -1.242775 3.709725
-1.209521 -1.272268 4.518996
-1.129075 -1.295243 5.094036
-1.439499 -1.193284 5.760515
-1.887287 -1.047812 6.373832
-1.829263 -1.063705 6.935770
-1.780327 -1.075671 7.721523
-1.865920 -1.046055 8.231203
-1.878410 -1.038907 8.918687
-1.851920 -1.044797 9.471519
-1.694062 -1.093323 9.853246
-1.290982 -1.219465 10.343436
-0.557970 -1.452815 10.376473
-0.926922 -1.423867 2.008453
-0.949170 -1.416497 2.553408
-0.957749 -1.411103 3.330709
-1.081090 -1.381196 3.916953
-1.076436 -1.379409 4.542773
-1.090902 -1.374451 4.933955
-1.492810 -1.282376 5.648975
-1.681232 -1.236525 6.580895
-1.668341 -1.237252 7.052877
-1.748324 -1.217256 7.566859
-1.797872 -1.202590 8.391742
-1.844361 -1.190629 8.765818
-1.776033 -1.202838 9.409875
-1.703273 -1.217027 9.831486
-1.162659 -1.334110 10.374349
-0.301448 -1.523094 10.690185
-0.909434 -1.482703 1.835807
-0.875988 -1.484403 2.472132
-0.851426 -1.484913 3.105855
-1.059922 -1.453908 3.743145
-1.002313 -1.458511 4.461387
-1.179783 -1.431343 5.178960
-1.375050 -1.402817 5.660389
-1.570233 -1.373311 6.365461
-1.643431 -1.361122 6.883302
-1.678729 -1.353668 7.488569
-1.637851 -1.355722 8.271600
-1.642903 -1.352974 8.737434
-1.573294 -1.359520 9.383103
-1.590292 -1.355174 9.845324
-1.155109 -1.412806 10.112965
-0.371028 -1.517239 10.460979
-0.781549 -1.555437 1.642137
-0.745799 -1.554398 2.278596
-0.859217 -1.546207 2.870715
-0.683233 -1.550885 3.778061
-0.990635 -1.532753 4.457871
-1.345799 -1.511693 5.268546
-1.053718 -1.524596 5.605947
-0.894906 -1.530113 6.130221
-1.413989 -1.501266 6.875506
-1.450172 -1.496821 7.481051
-1.452045 -1.493681 8.173903
-1.506118 -1.488386 8.772171
-1.476986 -1.487384 9.326322
-1.310483 -1.493903 9.708828
-0.924862 -1.511145 10.107491
-0.413321 -1.534320 10.567205
-0.640257 -1.614822 1.656567
-0.519203 -1.608101 2.241632
-0.546444 -1.606651 2.783883
-0.440257 -1.600451 3.366401
-1.443179 -1.627400 5.056664
-1.229947 -1.617410 5.666390
-1.072356 -1.609723 6.186270
-1.182049 -1.607544 7.537438
-1.313882 -1.610218 7.957328
-1.365720 -1.609364 8.555783
-1.466234 -1.610594 9.059909
-1.310369 -1.602604 9.662016
-1.055341 -1.592355 10.004918
-0.450112 -1.569774 10.422325
-0.565014 -1.668128 1.751446
-0.391930 -1.644971 2.427134
-0.507837 -1.655865 3.017769
-1.010903 -1.710390 3.943123
-1.305830 -1.740755 4.847598
-1.372513 -1.747224 5.141960
-0.979277 -1.698110 5.886564
-0.829660 -1.679385 6.178563
-1.294976 -1.727847 7.480425
-1.165517 -1.709494 8.219353
-1.261799 -1.718473 8.725740
-1.363793 -1.728133 9.228720
-1.250234 -1.712643 9.739285
-0.776233 -1.655835 10.095755
-0.009392 -1.563961 10.665718
-0.267397 -1.676783 1.824181
-0.259708 -1.673444 2.224266
-0.402844 -1.698919 2.960065
-0.847155 -1.783668 3.978423
-1.108628 -1.830036 5.360308
-0.956907 -1.798233 5.651449
-0.494079 -1.703067 6.127343
-0.653340 -1.732541 6.693992
-1.040482 -1.806847 7.478211
-1.043021 -1.804253 8.171063
-1.137186 -1.820907 8.678624
-1.147458 -1.820896 9.142020
-0.995711 -1.787689 9.745499
-0.655575 -1.717947 10.051308
-0.025423 -1.588975 10.565385
-0.273786 -1.742358 1.554176
-0.021872 -1.664707 2.179350
-0.027554 -1.662828 2.957659
-0.113458 -1.686286 3.403738
-1.078012 -1.964896 5.092149
-0.920375 -1.915725 5.610157
-0.508797 -1.790746 6.219749
-0.151293 -1.683259 6.515320
-0.872624 -1.890855 7.943837
-0.883145 -1.890821 8.632769
-0.932442 -1.903751 9.004788
-0.820825 -1.868270 9.516673
-0.590029 -1.797165 10.081403
-0.171654 -1.671723 10.351866
-0.007774 -1.710378 1.957120
0.048622 -1.686066 2.447759
0.099978 -1.663725 2.937364
-0.794139 -2.002231 5.112964
-0.679735 -1.954512 5.769159
-0.412486 -1.848683 6.105197
0.106561 -1.643084 6.770129
-0.682275 -1.944927 8.012025
-0.855753 -2.010006 8.561117
-0.875220 -2.014375 9.244982
-0.562005 -1.889737 9.767262
-0.168728 -1.734023 10.257147
0.323371 -1.540952 10.494621
0.173819 -1.681450 1.859634
0.124741 -1.701655 2.548348
0.252715 -1.638068 2.989563
-0.393529 -1.939596 4.778589
-0.329627 -1.907254 5.120000
-0.421289 -1.948024 5.783883
-0.077605 -1.780478 6.307555
0.584352 -1.460964 6.661624
-0.503253 -1.976169 8.083110
-0.633925 -2.035773 8.725031
-0.525284 -1.981109 9.239756
-0.304328 -1.872271 9.806847
0.008212 -1.720718 10.116588
0.553518 -1.456852 10.543208
0.433321 -1.587810 2.290364
0.286930 -1.670975 2.791477
-0.444776 -2.090507 4.540030
0.108694 -1.762539 5.305429
-0.059338 -1.857310 6.015748
0.266651 -1.663754 6.542430
-0.272214 -1.969358 8.490403
-0.210430 -1.929879 9.139213
-0.190749 -1.915525 9.695019
0.029073 -1.785049 10.041726
0.486401 -1.516067 10.278318
0.546652 -1.565516 1.838492
0.712187 -1.444104 2.375351
0.731139 -1.427089 3.013425
-0.262499 -2.129226 4.723189
0.488875 -1.590021 4.958953
0.351348 -1.682017 6.155430
0.328062 -1.695360 6.771444
-0.079707 -1.976532 8.763483
-0.196614 -2.057984 9.179005
0.002871 -1.912105 9.745737
0.271357 -1.717014 10.277670
0.807058 -1.331887 10.574289
0.756703 -1.445091 1.823306
0.672263 -1.513401 2.419877
0.968932 -1.257443 3.091860
0.432594 -1.695091 6.229571
0.409386 -1.711272 6.843470
0.162261 -1.910288 8.746542
0.112963 -1.948733 9.344011
0.268233 -1.814052 9.820313
0.589222 -1.538448 10.315462
1.161815 -1.050392 10.578064
0.904165 -1.345314 2.090324
0.861066 -1.384296 2.777833
0.633686 -1.592723 5.959819
0.773074 -1.448961 6.578646
1.002436 -1.217434 6.788155
0.648755 -1.562925 8.317263
0.254529 -1.954187 9.031145
0.270380 -1.934829 9.585103
0.542029 -1.659686 9.982593
0.902925 -1.294576 10.442144
1.066093 -1.201129 2.232077
1.171310 -1.071830 2.912430
0.558077 -1.786188 4.707600
1.033361 -1.222355 4.809832
1.055917 -1.190741 5.527473
0.807958 -1.480648 6.098167
0.967414 -1.280376 7.763256
0.638478 -1.664563 8.578077
0.504380 -1.818193 9.349640
0.515961 -1.800696 9.904130
0.821930 -1.435699 10.266958
1.162295 -1.030781 10.507564
1.213037 -1.035538 2.383977
1.174314 -1.084741 3.071437
0.664356 -1.789820 4.583777
1.069419 -1.218843 4.825005
1.188428 -1.048656 5.216771
1.021955 -1.276806 5.976964
1.086857 -1.171589 7.828018
0.790157 -1.582307 8.642790
0.622854 -1.812923 9.231687
0.589164 -1.857439 9.604008
0.887744 -1.434477 10.056552
1.237563 -0.939720 10.482652
1.302348 -0.917945 2.413957
1.329803 -0.867565 2.909500
0.862401 -1.638535 4.569233
1.179501 -1.101309 5.093855
1.258886 -0.965367 5.393816
1.225841 -1.014331 6.156591
1.140432 -1.152914 6.727452
0.926476 -1.495528 8.686676
0.798683 -1.704364 9.368240
0.787671 -1.718885 9.831516
1.049429 -1.275230 10.286502
1.319098 -0.820121 10.527718
1.427788 -0.694672 2.604724
0.973412 -1.622197 4.845696
1.140861 -1.266652 5.367966
1.323885 -0.879878 5.757846
1.349334 -0.823155 6.101045
1.509999 -0.481648 6.637954
1.432521 -0.635565 7.436398
1.173603 -1.168322 8.298863
1.089444 -1.338725 8.850533
1.019306 -1.478920 9.488985
1.065146 -1.377783 10.005633
1.228649 -1.031693 10.409775
1.536031 -0.387058 10.579679
1.483981 -0.561873 2.830564
1.106559 -1.530158 4.446372
1.151714 -1.403749 5.110943
1.271979 -1.083535 5.544052
1.357476 -0.856588 5.795430
1.378957 -0.790422 6.601632
1.590749 -0.232036 6.915550
1.180569 -1.286327 8.511954
1.189593 -1.255792 9.073019
1.163053 -1.317909 9.671578
1.186620 -1.250961 10.097487
1.400881 -0.684746 10.522371
1.547041 -0.366735 2.559499
1.226243 -1.437055 4.854643
1.346828 -1.011391 5.471330
1.476396 -0.560468 5.725050
1.467496 -0.585006 6.115660
1.557607 -0.263506 6.792495
1.313974 -1.080597 8.267793
1.270153 -1.221574 8.912800
1.253817 -1.271993 9.288601
1.283423 -1.161681 9.807664
1.409376 -0.717895 10.399524
1.591657 -0.084351 10.703866
1.366089 -1.205161 4.881144
1.441901 -0.818398 5.408280
1.515747 -0.446461 5.705308
1.535271 -0.335039 6.374034
1.562276 -0.189676 6.904408
1.385886 -1.029842 8.370725
1.356175 -1.167607 8.786975
1.392548 -0.972094 9.488704
1.397639 -0.939529 9.821435
1.467691 -0.579017 10.449795
1.596698 0.065940 10.751951
1.476036 -0.983400 4.445912
1.552848 -0.261882 6.037036
1.599900 0.158279 6.438357
1.552069 -0.231839 7.002541
1.479420 -0.815216 8.100308
1.451052 -1.041723 8.562624
1.452239 -1.010175 9.123379
1.463382 -0.894505 9.643144
1.484627 -0.693357 10.124966
1.537869 -0.221020 10.497672
1.551301 -0.853932 4.662017
1.571498 -0.116412 5.628570
1.578695 0.178102 6.212060
1.571818 0.058977 6.878300
1.550867 -0.475332 7.615712
1.538012 -0.753524 8.442485
1.531520 -0.893889 8.861012
1.534102 -0.734832 9.473184
1.534643 -0.661787 9.900939
1.544030 -0.294807 10.532538
1.570984 0.549383 10.766243
1.564569 0.398460 3.155228
1.572303 0.104969 5.340375
1.561892 0.258800 5.639875
1.557300 0.283051 6.357393
1.574934 -0.064075 7.013381
1.595274 -0.466436 7.796449
1.597933 -0.566474 8.535963
1.604500 -0.708559 8.952380
1.592560 -0.552033 9.563089
1.589171 -0.519529 9.896601
1.567410 -0.191361 10.433036
1.505895 0.837533 10.590161
1.525021 0.540982 2.978768
1.527910 0.503783 3.523489
1.595100 -0.015489 5.073693
1.539670 0.363727 5.375205
1.527005 0.434438 5.956527
1.547328 0.274111 6.530311
1.592913 -0.072999 7.415321
1.647201 -0.477832 8.194539
1.665105 -0.623410 8.839442
1.658756 -0.596310 9.398965
1.633638 -0.432282 9.786763
1.571642 -0.013193 10.286498
1.501486 0.473925 10.437923
1.478886 0.638594 3.544902
1.567578 0.238527 4.043326
1.572403 0.202004 4.814901
1.524582 0.404572 5.209430
1.505642 0.476371 5.790839
1.486798 0.543162 6.603683
1.581388 0.113175 7.302416
1.678045 -0.325706 7.991267
1.707093 -0.466320 8.638115
1.697937 -0.437153 9.198925
1.649927 -0.235471 9.679834
1.612016 -0.076421 10.070085
1.507996 0.369344 10.668533
1.410418 0.800254 3.010178
1.419538 0.763458 3.554502
1.493563 0.517836 4.333532
1.533673 0.382401 4.916555
1.454635 0.625409 5.405014
1.430747 0.692536 5.986017
1.502897 0.451857 6.832997
1.688247 -0.142734 7.383370
1.726487 -0.273213 8.032363
1.740237 -0.325506 8.634518
1.676583 -0.134313 9.337513
1.640530 -0.027785 9.856475
1.550860 0.249516 10.300358
1.367326 0.824025 10.733454
1.291838 1.024778 3.426051
1.478538 0.563487 3.971986
1.522594 0.446660 4.790055
1.389782 0.765216 5.230542
1.326052 0.914324 5.766127
1.434286 0.641807 6.522968
1.581013 0.275099 7.313406
1.714860 -0.058531 7.957714
1.647341 0.098900 8.571888
1.649334 0.088612 9.041304
1.622524 0.146387 9.694425
1.559210 0.296171 10.083909
1.432983 0.597513 10.625242
1.227147 1.083757 3.134096
1.337569 0.859511 3.917700
1.500008 0.535096 4.505347
1.397185 0.730776 5.133086
1.302633 0.912479 5.528408
1.287594 0.935019 6.248568
1.482587 0.545617 6.950922
1.702542 0.106024 7.778565
1.742324 0.022994 8.292538
1.584892 0.324557 9.051569
1.589873 0.310241 9.521105
1.573341 0.339425 9.857377
1.344518 0.781724 10.548697
0.994307 1.468436 10.596040
1.282264 0.879231 10.517101
1.056193 1.214083 5.751342
0.985848 1.302617 6.427704
1.302023 0.878729 6.941026
1.568381 0.518060 7.861987
1.622604 0.442248 8.376517
1.625542 0.434907 8.847060
1.479545 0.623063 9.647484
1.482428 0.617454 9.890798
1.226679 0.953617 10.394475
0.661306 1.703434 10.594240
0.903325 1.364486 3.977751
1.109285 1.128351 4.660473
0.928834 1.326478 5.387634
0.879212 1.378420 5.971893
0.894315 1.357292 6.598554
1.275018 0.926387 7.017401
1.630542 0.520202 7.980081
1.663165 0.479508 8.586159
1.552660 0.599718 9.200796
1.439711 0.724157 9.591538
1.329146 0.845904 9.983807
1.047208 1.159616 10.491139
0.712161 1.507733 3.753786
0.897431 1.326395 4.534552
1.063166 1.164584 5.166111
0.907405 1.309221 5.797954
0.860539 1.351773 6.147279
1.072998 1.143267 7.134502
1.459869 0.770039 7.869956
1.494418 0.733409 8.479217
1.469309 0.753920 9.043115
1.383007 0.833010 9.566118
1.301326 0.907692 10.089369
0.995540 1.196093 10.595742
0.275256 1.882224 10.668542
0.905853 1.302450 3.837869
1.146644 1.103941 4.517757
1.257064 1.011403 5.096401
0.990308 1.224588 5.534477
0.694843 1.461744 5.837867
0.676631 1.472408 6.556350
1.544046 0.762086 8.159918
1.585793 0.724934 8.761907
1.491471 0.798261 9.280439
1.361242 0.901358 9.667594
1.101829 1.108045 10.204980
0.660048 1.463291 10.543706
1.124975 1.148999 3.739258
0.974251 1.248710 4.272830
1.047710 1.195144 4.948075
0.982540 1.236409 5.526469
0.741809 1.398341 5.874748
0.574212 1.509022 6.504177
0.973512 1.234140 7.109530
1.273851 1.023942 8.212727
1.463125 0.892720 8.673406
1.404093 0.929414 9.326312
1.233213 1.043116 9.807629
0.958750 1.226981 10.347201
0.489776 1.544235 10.688916
1.117172 1.184705 4.165191
0.886699 1.312411 4.649280
1.055047 1.214895 5.134975
0.708557 1.406691 5.901446
0.421114 1.567944 6.112767
0.404915 1.573469 6.830880
1.226950 1.101625 8.345218
1.356367 1.025300 8.987958
1.333748 1.035258 9.546113
1.110256 1.159707 9.894432
0.742186 1.365026 10.395943
-0.156269 1.871571 10.557273
1.121021 1.228858 4.142808
1.052308 1.258181 4.486502
1.127615 1.219879 5.389079
0.905887 1.318643 5.638998
0.517379 1.491901 6.034167
0.335559 1.570850 6.662175
0.737742 1.386167 7.358499
1.230856 1.160332 8.086941
1.279679 1.135412 8.690361
1.252459 1.144987 9.250110
1.063980 1.227650 9.730332
0.711816 1.384466 10.137200
-0.163463 1.776604 10.653654
1.085696 1.293328 3.808077
0.667261 1.440443 4.194943
0.631545 1.450877 4.683293
0.629780 1.447494 5.543660
0.232834 1.587998 5.708112
0.084292 1.638358 6.245388
1.128381 1.257031 8.334240
1.018447 1.292667 9.082591
0.908162 1.329481 9.604976
0.789795 1.370218 9.902901
0.391197 1.509721 10.408331
1.066318 1.354095 3.844840
0.588140 1.478834 4.323999
0.171270 1.584825 5.347731
0.279659 1.554064 5.786058
0.087030 1.603390 6.182376
-0.320642 1.709745 6.588742
0.985571 1.354757 8.414474
0.953169 1.360798 8.977598
0.800918 1.398416 9.591901
0.642264 1.438751 9.982349
0.234719 1.544622 10.487826
0.951549 1.437264 3.844118
0.464712 1.522189 4.323269
0.255471 1.557853 4.716737
0.438002 1.521996 5.436914
0.285920 1.547856 5.736661
-0.002898 1.596902 6.320521
-0.550407 1.692768 6.779223
0.912510 1.424266 8.321236
0.838146 1.434639 8.976874
0.722034 1.453074 9.498969
0.521264 1.486818 9.983078
0.143212 1.552589 10.395087
0.801052 1.512429 4.100192
0.725359 1.518076 4.444564
0.778195 1.510728 4.976112
0.564390 1.528230 5.597632
-0.038055 1.583929 5.902367
-0.281499 1.604811 6.393992
-0.519378 1.625154 6.888355
0.607320 1.511413 8.487685
0.666610 1.503132 9.092010
0.590176 1.508474 9.521468
0.218922 1.540833 10.154772
-0.346835 1.592896 10.496237
0.787072 1.573683 3.894620
0.306525 1.577802 4.140927
0.304983 1.575046 4.771939
0.441236 1.569999 5.585286
-0.034024 1.572983 6.076795
-0.367715 1.574621 6.526004
-0.922322 1.579614 6.755685
0.436251 1.556884 8.582782
0.496113 1.553569 9.189873
0.379942 1.552517 9.715459
0.254329 1.552554 10.016625
-0.352338 1.557220 10.448979
0.477560 1.623052 4.396822
0.196736 1.597397 5.131335
0.163083 1.591554 5.847503
-0.348824 1.549135 6.200263
-0.453412 1.538843 6.641109
-0.147351 1.559975 7.390155
0.085416 1.574475 8.316160
0.366480 1.594290 8.911168
0.432048 1.596872 9.512913
0.229439 1.578570 9.995855
-0.115093 1.549670 10.312681
0.600040 1.698961 4.338392
0.216936 1.635149 4.631109
0.000487 1.597051 5.255908
-0.024948 1.590743 5.740701
-0.536918 1.504593 6.327904
-0.637781 1.487206 6.536735
-0.423655 1.517963 7.476294
-0.155634 1.559001 8.081392
0.128743 1.601730 8.906399
0.362803 1.637884 9.363893
0.198854 1.609397 9.753914
-0.181983 1.545436 10.163193
0.628225 1.787438 4.222774
0.543891 1.763670 4.795758
-0.133465 1.592510 5.040150
-0.551799 1.485698 5.434833
-0.359358 1.530773 6.149849
-0.680184 1.448212 6.594930
-1.391328 1.267978 6.969902
0.020073 1.614944 8.597673
0.336487 1.692122 9.096444
0.148636 1.641768 9.801422
-0.187551 1.555946 10.115141
-0.900945 1.374617 10.607206
0.389398 1.803598 3.982336
0.304239 1.771923 4.557360
-0.405768 1.528513 4.895336
-0.432659 1.517100 5.380962
-0.290084 1.561920 6.187591
-0.644008 1.439956 6.491752
-0.996052 1.317527 7.034038
-0.529668 1.473605 7.633299
-0.090350 1.619015 8.544659
0.218210 1.721801 9.043475
0.034443 1.655938 9.747847
-0.329955 1.529931 10.154208
-0.990303 1.303161 10.551522
0.244614 1.829709 4.384325
-0.004061 1.718035 5.095118
-0.028785 1.704964 5.576557
-0.380337 1.549365 6.106650
-0.681401 1.417281 6.316776
-1.024524 1.265297 6.858287
-0.738511 1.386241 7.605789
-0.236433 1.601352 8.332844
0.069481 1.731061 9.059327
-0.036531 1.682413 9.579345
-0.391087 1.526104 9.984901
-0.861754 1.318936 10.454157
0.020620 1.803346 4.741858
-0.084313 1.744735 5.176049
-0.143048 1.711434 5.518072
-0.481156 1.526919 6.047634
-0.932979 1.280951 6.633900
-1.100528 1.190004 6.798298
-0.787824 1.354951 7.452185
-0.381775 1.568808 8.366984
-0.132139 1.700131 8.960529
-0.222837 1.647625 9.705876
-0.562165 1.463066 10.112585
-0.914007 1.272869 10.300037
0.155155 1.983706 4.541786
-0.028468 1.861263 5.156026
-0.009870 1.871314 5.542536
-0.520077 1.537281 6.068830
-0.794937 1.357727 6.276595
-1.070285 1.176619 6.720552
-1.074745 1.169986 7.433921
-0.657072 1.438070 8.027684
-0.380003 1.614148 8.757579
-0.358239 1.624647 9.451035
-0.527910 1.511958 9.932590
-0.958129 1.230178 10.398398
-0.062839 1.961602 4.622734
-0.118019 1.916166 4.962074
-0.177391 1.866137 5.531435
-0.547746 1.571252 6.009710
-0.877806 1.308636 6.403078
-1.205111 1.048155 6.803227
-1.210111 1.041514 7.285122
-0.710940 1.431033 8.057779
-0.451033 1.632019 8.786732
-0.471201 1.612972 9.346908
-0.630717 1.484424 9.827961
-1.004474 1.187458 10.198467
-1.292494 0.964198 2.924478
-0.331049 1.848457 4.685756
-0.425167 1.756867 5.351177
-0.442792 1.737580 5.831693
-0.752383 1.447092 6.222893
-1.157585 1.068670 6.438781
-1.396459 0.842256 7.120602
-1.066280 1.145391 7.814770
-0.625962 1.550046 8.673644
-0.453407 1.707890 9.132730
-0.604496 1.564382 9.614035
-0.914972 1.272412 10.114776
