-0.649116 1.577495 10.337198
-1.115298 2.209464 1.455682
-1.095911 2.173235 1.735730
-1.091875 2.165403 2.172724
-1.104685 2.188905 2.552330
-1.090822 2.162940 2.829530
-1.007918 2.008309 3.645536
-1.055158 2.095862 3.905622
-1.103522 2.185505 4.163754
-1.121292 2.218391 4.324276
-1.094064 2.167520 4.704117
-1.015947 2.021903 5.360083
-1.135672 2.244171 5.536481
-1.146882 2.264398 6.312098
-1.234198 2.426537 6.390756
-1.185276 2.335205 6.979305
-1.228884 2.416414 6.715832
-1.218253 2.396381 7.085053
-1.144745 2.259212 7.890941
-1.119805 2.212750 8.065128
-1.178964 2.322424 8.350321
-1.138024 2.245840 9.043830
-1.157371 2.281898 8.888716
-1.161700 2.289659 9.252048
-1.141224 2.251490 9.425962
-1.062314 2.104347 10.151243
-1.020655 2.027012 10.084297
-0.899144 1.801102 10.331125
-0.742703 1.510404 10.450574
-1.202919 2.009762 1.488288
-1.246723 2.078484 1.547488
-1.206442 2.014729 2.318211
-1.132882 1.898772 3.029072
-1.226471 2.045620 3.128149
-1.178484 1.969850 3.777985
-1.197141 1.999026 3.941253
-1.212141 2.022284 4.365797
-1.143575 1.914277 4.914468
-1.141182 1.910514 4.925096
-1.140875 1.909673 5.455673
-1.365099 2.261449 5.760343
-1.319915 2.189981 6.552604
-1.389655 2.299501 6.487804
-1.365404 2.261144 6.913773
-1.404158 2.321912 7.011405
-1.375112 2.275992 7.489720
-1.317598 2.185477 7.828392
-1.358192 2.249136 7.923022
-1.297135 2.152780 8.673566
-1.300216 2.157370 9.039327
-1.322016 2.191695 8.885291
-1.326730 2.198847 9.249694
-1.247666 2.074316 9.864603
-1.214422 2.022250 9.687215
-1.126951 1.884759 9.952718
-1.396437 2.007783 1.508120
-1.444657 2.073275 1.567591
-1.403542 2.017196 1.901284
-1.364989 1.964599 2.234744
-1.249812 1.807571 3.056425
-1.438423 2.063866 3.089745
-1.393121 2.002066 3.474273
-1.366445 1.965611 3.803391
-1.396266 2.005910 4.173215
-1.360540 1.957124 4.555324
-1.218847 1.764220 5.120627
-1.314800 1.894370 5.521441
-1.532672 2.190353 5.679743
-1.590157 2.268287 5.981056
-1.488308 2.129413 6.735299
-1.576453 2.249273 6.615901
-1.443937 2.068590 7.587623
-1.473387 2.108707 7.432996
-1.419734 2.035619 7.717212
-1.454383 2.082615 7.866515
-1.395187 2.001739 8.563975
-1.516802 2.167004 8.572862
-1.419845 2.034867 9.185449
-1.419926 2.034719 9.604036
-1.426295 2.043402 9.558952
-1.307052 1.881091 9.987763
-1.247870 1.800671 9.976174
-1.463746 1.832247 1.483106
-1.418273 1.778275 1.819037
-1.447845 1.813060 2.157105
-1.414230 1.772874 2.914606
-1.421403 1.781113 3.346313
-1.483358 1.854240 3.609522
-1.406990 1.763640 4.103504
-1.538065 1.918643 4.140108
-1.499233 1.872500 4.520629
-1.465619 1.832678 4.640318
-1.418031 1.776001 5.335613
-1.571232 1.956918 5.823216
-1.648759 2.048472 6.068516
-1.602566 1.993567 6.550249
-1.587765 1.975678 7.228091
-1.609467 2.001402 7.127664
-1.560470 1.943323 7.356336
-1.596981 1.986421 7.506202
-1.547126 1.927124 8.094123
-1.545354 1.925024 8.103361
-1.533957 1.911306 8.525484
-1.617833 2.010348 8.807405
-1.542401 1.920880 9.255690
-1.505901 1.877580 9.485227
-1.351644 1.694802 10.081566
-1.327468 1.666109 10.258009
-1.121576 1.422565 10.318910
-0.901192 1.161813 10.497014
-1.621741 1.764545 1.596369
-1.594528 1.736360 1.875995
-1.631014 1.773893 1.989489
-1.486762 1.624947 2.600293
-1.568042 1.708581 2.812497
-1.581550 1.722162 3.453427
-1.568021 1.708079 3.728255
-1.637453 1.779481 3.988847
-1.725826 1.870426 4.192610
-1.683964 1.827095 4.573432
-1.453254 1.589114 5.098436
-1.643436 1.784997 5.223325
-1.776752 1.922042 5.821821
-1.859892 2.007575 6.068144
-1.823395 1.969748 6.495046
-1.805148 1.950752 6.866635
-1.724634 1.867619 7.205596
-1.659581 1.800444 7.491029
-1.711304 1.853685 7.587194
-1.715870 1.858225 7.902085
-1.711986 1.854030 8.270658
-1.666070 1.806600 8.501193
-1.579743 1.717203 9.364906
-1.674132 1.814523 9.234419
-1.588887 1.726427 9.741387
-1.475825 1.609797 10.007456
-1.325411 1.454535 10.556608
-1.729178 1.647058 1.406314
-1.858178 1.763426 1.302161
-1.758684 1.673495 1.747134
-1.600237 1.530327 2.359152
-1.667918 1.591117 2.840167
-1.668643 1.591661 3.062517
-1.777492 1.689731 3.217709
-1.655668 1.579485 4.032704
-1.843059 1.748486 3.962442
-1.795587 1.705494 4.344890
-1.734815 1.650482 4.782065
-1.661867 1.584592 5.014794
-1.699124 1.617853 5.692061
-1.941106 1.835912 5.958247
-1.870945 1.772385 6.496750
-1.879746 1.780191 6.760952
-1.891062 1.790416 6.717775
-1.708908 1.625814 7.444034
-1.751006 1.663699 7.595376
-1.781083 1.690717 7.800998
-1.763930 1.675042 8.225691
-1.797743 1.705431 8.429006
-1.761168 1.672365 8.604635
-1.743376 1.656088 9.081922
-1.669856 1.589602 9.479227
-1.582645 1.510715 9.989207
-1.545458 1.477299 9.755302
-1.364110 1.313456 10.416891
-1.144039 1.115047 10.368677
-1.889061 1.570246 1.488771
-1.788475 1.490950 1.720205
-1.804934 1.503730 2.102463
-1.825624 1.519842 2.482453
-1.802283 1.501337 2.759794
-1.683151 1.407193 3.523887
-1.841659 1.531963 3.565335
-1.799274 1.498320 4.157442
-1.789721 1.490672 4.430353
-1.672139 1.397822 5.035386
-1.614740 1.352551 5.213613
-1.847281 1.535592 5.282318
-2.105301 1.738480 5.807758
-2.092840 1.728522 6.126835
-1.994063 1.650600 6.465313
-1.913825 1.587156 7.057904
-1.925569 1.596422 7.013907
-1.801447 1.498326 7.827147
-1.808915 1.504058 8.143252
-1.845043 1.532573 7.988645
-1.745467 1.453802 8.801120
-1.762371 1.466965 9.114482
-1.792897 1.490878 9.371169
-1.738744 1.448111 9.659065
-1.726618 1.438534 9.725578
-1.534046 1.286621 10.384505
-1.396387 1.178312 10.243101
-1.163712 0.995156 10.193609
-1.853715 1.342540 1.175389
-1.987405 1.433516 1.499519
-1.879753 1.359947 1.945097
-1.778508 1.290744 2.391279
-1.896893 1.371362 2.549776
-1.849804 1.339120 2.882999
-1.814323 1.314698 3.425812
-1.809135 1.310948 3.910529
-1.955085 1.410381 4.005210
-1.903000 1.374712 4.388675
-1.875209 1.355626 4.716356
-1.813025 1.313050 5.154254
-1.851963 1.339404 5.572923
-2.043445 1.469811 5.803915
-2.090712 1.501845 6.215329
-1.969956 1.419230 6.919420
-2.076256 1.491710 6.853378
-1.891389 1.365413 7.525207
-1.938452 1.397423 7.677013
-1.944692 1.401536 7.993384
-1.887993 1.362790 8.225521
-1.964658 1.415025 8.264641
-1.964295 1.414615 8.633688
-1.910184 1.377450 9.277251
-1.863216 1.345335 9.509720
-1.828606 1.321667 9.687225
-1.673752 1.215956 10.066322
-1.451895 1.064608 10.373811
-1.216616 0.904295 10.268279
-1.975767 1.233746 1.306798
-2.014350 1.256221 1.637323
-2.006180 1.251337 1.863049
-1.849029 1.158992 2.420820
-1.851241 1.160103 2.857342
-1.971135 1.230398 2.803421
-1.955346 1.220938 3.291578
-1.947358 1.216051 3.777119
-2.076954 1.291946 3.928605
-1.854708 1.161332 4.755947
-1.849293 1.158043 5.029302
-1.827033 1.144857 5.357508
-2.002155 1.247486 5.388818
-2.144486 1.330741 5.786763
-2.021660 1.258343 6.748811
-2.183575 1.353343 6.519429
-2.062983 1.282493 6.915977
-2.030059 1.263014 7.344841
-1.891591 1.181640 7.854188
-1.872312 1.170159 8.282640
-1.966194 1.225192 8.266145
-1.889173 1.179751 8.969067
-1.861959 1.163749 9.091472
-1.967628 1.225715 9.016748
-1.916523 1.195663 9.249566
-1.738033 1.090862 9.682978
-1.597300 1.008261 9.952862
-2.075390 1.106373 1.677451
-2.121126 1.129103 1.792345
-1.903460 1.020518 2.247302
-1.954070 1.045589 2.573379
-1.952967 1.044949 2.796980
-1.841527 0.989161 3.508975
-2.022303 1.079172 3.549828
-2.005803 1.070842 3.824728
-1.897981 1.016837 4.583965
-2.058203 1.096592 4.674005
-2.031478 1.083150 5.000520
-1.865577 1.000344 5.455894
-2.091875 1.112970 5.632505
-2.289897 1.211367 6.171700
-2.315665 1.224114 6.381335
-2.223639 1.178168 6.665946
-2.084359 1.108622 7.117222
-1.991364 1.062044 7.767486
-1.988380 1.060554 7.778319
-2.011103 1.071764 8.039870
-1.952684 1.042429 8.633024
-2.036388 1.084099 8.670218
-1.879553 1.005717 9.347614
-1.865050 0.998468 9.414254
-1.850703 0.991296 9.480936
-1.594216 0.863224 10.312076
-1.568472 0.850546 9.963691
-1.188581 0.661122 10.541143
-2.100809 0.942853 1.559595
-2.148242 0.962501 1.673566
-2.085670 0.936390 2.008241
-2.027088 0.911935 2.342662
-2.080875 0.934139 2.666515
-2.030029 0.912897 2.999130
-1.992993 0.897306 3.541265
-1.989545 0.895683 4.025136
-2.130346 0.954083 4.173423
-2.030542 0.912451 4.667384
-2.046049 0.918804 4.883463
-1.938318 0.873858 5.432372
-2.020314 0.907883 5.479755
-2.155213 0.963713 5.931409
-2.154894 0.963353 6.508359
-2.220241 0.990445 6.607528
-2.110326 0.944674 6.949145
-2.126047 0.951097 7.212646
-1.959789 0.881846 7.778068
-1.938217 0.872720 8.207113
-2.039025 0.914581 8.189787
-1.982074 0.890701 8.782882
-1.950407 0.877341 9.319316
-1.948038 0.876354 9.329763
-1.896165 0.854724 9.563366
-1.767962 0.801434 9.719252
-1.621706 0.740417 10.462055
-2.115722 0.783675 1.232981
-2.328148 0.855352 1.446233
-2.092305 0.775508 1.898991
-1.921173 0.717483 2.457828
-2.054503 0.762544 2.403007
-1.926824 0.719138 3.116966
-1.930466 0.720283 3.339045
-1.899111 0.709482 3.882104
-2.066781 0.766086 3.976052
-2.002023 0.743960 4.624439
-2.170075 0.800595 4.974574
-2.149280 0.793345 5.559075
-2.166010 0.799013 5.514522
-2.059306 0.762857 5.802711
-2.056259 0.761604 6.383848
-2.193244 0.807806 6.573116
-2.062029 0.763327 6.972005
-2.010095 0.745595 7.459284
-2.080680 0.769402 7.555152
-1.962783 0.729282 8.317805
-1.915538 0.713254 8.495456
-2.048531 0.758230 8.365161
-2.049866 0.758538 8.735510
-1.991609 0.738769 8.968248
-1.896239 0.706398 9.369312
-1.748104 0.656093 10.053124
-1.712257 0.644097 9.759967
-1.466060 0.560833 10.010577
-1.036401 0.415607 10.226677
-2.210777 0.651599 1.147270
-2.223129 0.654716 1.532788
-2.099709 0.622026 1.765493
-2.064234 0.612469 2.259917
-1.978511 0.589677 2.651234
-2.118767 0.626667 2.807831
-1.962960 0.585300 3.364376
-2.031028 0.603160 3.683968
-2.064950 0.612059 3.846159
-2.155943 0.635899 4.367275
-2.212632 0.650539 5.252746
-2.277106 0.667532 5.354304
-2.299372 0.673334 5.565678
-2.019979 0.599353 6.037656
-2.107406 0.622431 6.081363
-2.259145 0.662345 6.525622
-2.162046 0.636589 6.811062
-2.068058 0.611653 7.097614
-2.086575 0.616445 7.360117
-2.074252 0.613049 7.732828
-2.020266 0.598586 8.271594
-2.110809 0.622489 8.307823
-2.141122 0.630399 8.565775
-2.010262 0.595640 9.075451
-1.902005 0.566871 9.531660
-1.912840 0.569751 9.484375
-1.636321 0.496393 10.316836
-1.490842 0.458062 10.057757
-1.041839 0.339353 10.331300
-2.186142 0.487398 1.262021
-2.025452 0.456276 1.765551
-2.077211 0.466198 1.878579
-1.956641 0.442820 2.326146
-2.069959 0.464557 2.539161
-1.987525 0.448542 2.928973
-1.958969 0.442764 3.684141
-2.031522 0.456790 3.526204
-2.254909 0.499255 4.983005
-2.342856 0.516072 5.290073
-2.429921 0.532816 5.337492
-2.317745 0.511114 5.622584
-2.167466 0.482035 6.019937
-1.911204 0.432543 6.441980
-1.923164 0.434746 6.709337
-1.940394 0.437849 7.287253
-1.995520 0.448405 7.439617
-2.103483 0.469195 7.424039
-2.025674 0.453994 8.020999
-1.927730 0.435010 8.366626
-1.988967 0.446744 8.515338
-2.021552 0.452920 8.774958
-1.947517 0.438560 9.064530
-1.824174 0.414623 9.579916
-1.821910 0.414183 9.589813
-1.493332 0.350707 10.180240
-1.322553 0.317883 10.034868
-0.843567 0.225523 10.429428
-2.070651 0.320766 1.315278
-2.115705 0.326192 1.646791
-2.047576 0.317679 1.984952
-1.841594 0.292089 2.603670
-2.008919 0.312732 2.492347
-1.877356 0.296269 3.210076
-1.971374 0.307748 3.476323
-2.067831 0.319527 3.740630
-2.224253 0.338559 4.362507
-2.372914 0.356524 5.288780
-2.482403 0.370007 5.283203
-2.374326 0.356500 5.827066
-2.391056 0.358576 5.783567
-2.230677 0.338776 5.925195
-1.796585 0.285099 6.539666
-1.828139 0.288906 6.753434
-1.994535 0.309231 7.197544
-2.067006 0.318119 7.296226
-1.890114 0.296128 7.867133
-1.932577 0.301280 8.074783
-1.868754 0.293201 8.674442
-1.946904 0.302789 8.767172
-1.900325 0.296988 8.946329
-1.843464 0.289747 9.599712
-1.854004 0.291061 9.554186
-1.653889 0.266258 9.995158
-1.398063 0.234664 10.250107
-2.238460 0.191745 1.249883
-2.043663 0.180548 1.811173
-2.065719 0.181730 1.981897
-1.886794 0.171429 2.544307
-1.885519 0.171275 2.769790
-2.065529 0.181318 3.082478
-1.898564 0.171769 3.430565
-2.581358 0.209784 4.833784
-2.598894 0.210695 5.048152
-2.392471 0.198862 5.553614
-2.352346 0.196460 5.932272
-2.340174 0.195863 5.686448
-2.073522 0.180663 6.106553
-1.799848 0.165160 6.273851
-1.770611 0.163370 6.657440
-1.955175 0.173642 7.046683
-1.955009 0.173514 7.369611
-1.907726 0.170667 7.859888
-1.933846 0.172044 8.124338
-1.978403 0.174483 8.331587
-1.928333 0.171592 8.511303
-1.818502 0.165093 9.335781
-1.871177 0.168144 9.121851
-1.708187 0.158695 9.810927
-1.499547 0.146738 10.313548
-1.348747 0.138324 10.055729
-0.861727 0.110698 10.452274
-2.233850 0.027438 1.069582
-2.005197 0.031099 1.686281
-1.849579 0.033559 2.193119
-2.021625 0.030597 2.295745
-1.962018 0.031488 2.631976
-1.996506 0.030763 3.011855
-1.866372 0.032792 3.514968
-2.581877 0.020233 4.600689
-2.458886 0.022125 5.144184
-2.483990 0.021527 5.614586
-2.567891 0.020177 5.405381
-2.264509 0.025049 6.187352
-2.250184 0.025382 5.940796
-1.954797 0.030323 6.160292
-1.523501 0.037427 6.783626
-1.520535 0.037358 7.111047
-1.861334 0.031475 7.357613
-1.876395 0.030988 7.989961
-1.969200 0.029396 8.028762
-1.949678 0.029704 8.095391
-1.870893 0.030804 8.751168
-1.868095 0.030847 8.761725
-1.792385 0.032028 9.054256
-1.602282 0.034965 9.858482
-1.637988 0.034417 9.698593
-1.282846 0.040193 10.411555
-1.107496 0.043226 10.267883
-2.093694 -0.110008 1.109073
-1.923834 -0.096025 1.833533
-2.005311 -0.102881 1.892703
-1.911008 -0.095116 2.287906
-1.773427 -0.083839 3.009639
-2.486171 -0.144380 5.068794
-2.505396 -0.146071 5.283632
-2.526385 -0.147910 5.497679
-2.543664 -0.149344 5.454618
-2.294672 -0.128590 5.815446
-2.071353 -0.109971 6.125752
-1.678915 -0.077239 6.633448
-1.428028 -0.056237 6.752135
-1.329422 -0.048076 7.051342
-1.579640 -0.069259 7.584536
-1.794134 -0.087371 7.909387
-1.820794 -0.089704 8.174417
-1.803968 -0.088451 8.607491
-1.823087 -0.090172 8.926389
-1.708270 -0.080710 9.389887
-1.829605 -0.090859 9.311549
-1.702901 -0.080268 9.412462
-1.499432 -0.063363 9.856614
-1.194356 -0.037952 10.344191
-0.836350 -0.007833 10.102228
-1.995366 -0.235733 1.060446
-1.915007 -0.223782 1.619321
-1.758526 -0.200297 2.130269
-1.812878 -0.208641 2.460786
-1.866250 -0.216759 2.575519
-2.445458 -0.305235 4.872944
-2.508610 -0.314829 4.978493
-2.573862 -0.324834 5.340790
-2.354068 -0.291789 5.902073
-2.257314 -0.277142 5.877983
-2.005417 -0.239072 5.986015
-1.826258 -0.212041 6.187918
-1.531671 -0.167674 6.733714
-1.264383 -0.127302 6.911713
-1.411392 -0.149613 7.100770
-1.576152 -0.174840 7.916226
-1.717533 -0.196182 7.786428
-1.821353 -0.212019 8.137407
-1.849890 -0.216434 8.402001
-1.807795 -0.210266 8.947101
-1.666417 -0.188935 9.104172
-1.568563 -0.174282 9.514006
-1.527044 -0.168068 9.696990
-1.377874 -0.145581 9.916277
-2.001956 -0.390250 1.210124
-1.874599 -0.361248 1.445387
-1.891749 -0.365310 1.832655
-1.686410 -0.318639 2.453968
-1.854935 -0.357171 2.555295
-1.692737 -0.320333 3.118578
-1.634747 -0.307134 3.243033
-2.519672 -0.509784 4.626360
-2.332310 -0.467156 5.076992
-2.283457 -0.456042 5.198282
-2.134231 -0.422203 5.856154
-2.018384 -0.395753 5.887249
-1.821117 -0.350790 6.143890
-1.587445 -0.297555 6.517509
-1.360904 -0.245832 6.577543
-1.059094 -0.177003 6.871435
-1.055470 -0.176180 6.882773
-1.659701 -0.314584 7.918774
-1.578501 -0.296285 8.581757
-1.654947 -0.313781 8.675507
-1.702875 -0.324806 8.881941
-1.630262 -0.308330 9.176434
-1.547932 -0.289657 9.528687
-1.350835 -0.244804 9.975446
-1.172271 -0.204164 10.369697
-0.776297 -0.113714 10.362353
-1.989203 -0.514264 1.183475
-1.863589 -0.477578 1.418603
-1.680775 -0.424354 2.200531
-1.704943 -0.431494 2.370403
-1.621656 -0.407261 2.766182
-1.579030 -0.394992 3.318464
-1.660833 -0.418961 3.372166
-2.338645 -0.617914 4.725209
-2.089056 -0.544980 5.084951
-2.151648 -0.563345 5.189386
-2.171663 -0.569286 5.404284
-2.104037 -0.549555 5.581826
-1.766666 -0.451032 6.229770
-1.523666 -0.379934 6.343410
-1.319509 -0.320165 6.345194
-1.129557 -0.264655 6.612019
-0.741382 -0.151113 6.878825
-0.831625 -0.177672 7.243313
-1.229183 -0.294331 7.949377
-1.580154 -0.397290 8.495807
-1.626157 -0.410836 8.702536
-1.525464 -0.381512 9.110860
-1.550018 -0.388822 9.429515
-1.448263 -0.359209 9.896108
-1.328597 -0.324215 10.000109
-1.220881 -0.292698 10.047509
-1.813081 -0.593802 1.241056
-1.719654 -0.559689 1.421052
-1.624831 -0.525150 1.818865
-1.564765 -0.503389 2.375950
-1.541575 -0.495098 2.874003
-1.653768 -0.536229 3.085851
-1.837623 -0.603701 3.606488
-2.179005 -0.728859 4.254907
-2.079487 -0.692638 4.747693
-2.009780 -0.667202 4.923662
-1.962787 -0.650055 5.044240
-1.985591 -0.658583 5.518880
-1.920879 -0.634975 5.695519
-1.632265 -0.529585 6.232642
-1.464792 -0.468388 6.435581
-1.284523 -0.402408 6.378624
-0.848670 -0.243106 6.813210
-0.543454 -0.131573 7.173526
-0.562594 -0.138683 7.448824
-1.063101 -0.322071 8.122179
-1.407247 -0.448056 8.296825
-1.393932 -0.443354 8.732332
-1.441046 -0.460672 8.937904
-1.375273 -0.436886 9.656411
-1.422911 -0.454230 9.436841
-1.266840 -0.397420 10.191070
-1.092277 -0.333516 10.102235
-0.803269 -0.227776 10.109320
-1.609699 -0.657120 1.133991
-1.678999 -0.688610 1.409589
-1.479804 -0.598575 1.815543
-1.475258 -0.596694 2.258586
-1.606874 -0.656354 2.415484
-1.617480 -0.661417 3.067285
-2.228782 -0.938686 4.230017
-2.004729 -0.837458 4.792887
-1.727943 -0.712317 5.267780
-1.683756 -0.692358 5.389747
-1.750632 -0.722786 5.753051
-1.613268 -0.660748 6.157234
-1.413689 -0.570504 6.473908
-1.220481 -0.483018 6.474957
-1.041914 -0.402268 6.740943
-0.848518 -0.314698 6.745642
-0.555793 -0.182424 7.430349
-0.918079 -0.346497 7.497096
-1.186272 -0.468103 7.910217
-1.372074 -0.552387 8.288787
-1.367408 -0.550596 9.092325
-1.365286 -0.549639 9.101705
-1.312471 -0.525820 9.340047
-1.180627 -0.466376 9.981548
-1.056624 -0.410291 10.143854
-0.854786 -0.318932 10.229912
-0.363960 -0.096742 10.379429
-1.587761 -0.776299 1.496291
-1.421455 -0.687381 1.848450
-1.365460 -0.657625 2.407979
-1.388616 -0.670097 2.578694
-1.363459 -0.656742 2.862894
-2.019284 -1.008576 4.346040
-1.950400 -0.971760 4.524176
-1.712664 -0.844820 5.436130
-1.612313 -0.791200 5.729510
-1.294302 -0.621056 6.126591
-0.999061 -0.463088 6.475439
-1.044098 -0.487273 6.635527
-0.856191 -0.386644 6.641890
-0.650879 -0.276853 7.033153
-0.904142 -0.412661 7.455696
-1.089774 -0.512365 8.158968
-1.299781 -0.624941 8.422399
-1.288743 -0.619211 8.859535
-1.284082 -0.616895 9.295290
-1.269753 -0.609249 9.363328
-1.220464 -0.582953 9.603582
-1.011890 -0.471511 10.228036
-0.719936 -0.315211 10.355477
-0.351719 -0.118038 10.409218
-1.439283 -0.824408 1.487055
-1.329405 -0.755791 1.943293
-1.274306 -0.721337 2.068466
-1.224823 -0.690587 2.627613
-1.372235 -0.782951 2.727048
-1.296784 -0.735777 2.909072
-1.934408 -1.135740 4.377678
-1.828031 -1.069243 4.666465
-1.424313 -0.816674 5.298106
-1.289994 -0.732729 5.707850
-1.196425 -0.674257 6.005160
-1.078032 -0.600149 6.097220
-0.855456 -0.461083 6.862115
-0.627086 -0.318139 7.046256
-0.450079 -0.207428 7.382487
-0.698213 -0.363009 7.802282
-0.965127 -0.530325 8.156374
-1.153785 -0.648617 8.477961
-1.220031 -0.690146 8.572320
-1.223721 -0.692621 8.952410
-1.209049 -0.683644 9.445745
-1.088263 -0.608275 10.089399
-1.045055 -0.581111 9.848750
-0.795217 -0.424830 10.283985
-0.403015 -0.179326 10.573600
-1.429496 -0.957334 1.166719
-1.323250 -0.880285 1.405352
-1.290199 -0.856412 1.692159
-1.093711 -0.714030 2.379712
-1.210539 -0.798943 2.538129
-1.215204 -0.802531 2.980981
-1.684796 -1.144061 4.104299
-1.764138 -1.201915 4.627051
-1.592050 -1.076938 4.615687
-1.172656 -0.772829 5.634676
-1.116797 -0.732346 5.818525
-0.994989 -0.644075 6.233693
-0.801777 -0.503937 6.619333
-0.693471 -0.425181 6.391548
-0.502059 -0.286352 6.783936
-0.474977 -0.267037 7.565302
-0.874020 -0.556870 7.660899
-0.970386 -0.627156 8.335114
-1.049378 -0.684705 8.744922
-1.137343 -0.748578 8.724264
-1.119750 -0.736025 9.219858
-1.106261 -0.726260 9.289014
-1.039050 -0.677612 9.646250
-0.797707 -0.502542 10.079900
-0.562120 -0.331655 10.522328
-1.243483 -0.953309 1.446724
-1.098325 -0.832268 1.801157
-1.138667 -0.866112 2.133965
-1.202475 -0.919421 2.190978
-1.112067 -0.844145 2.647767
-1.707486 -1.342112 4.291868
-1.680749 -1.319943 4.621391
-1.444379 -1.122797 5.098532
-1.157217 -0.883071 5.225426
-1.082375 -0.820565 5.200081
-1.081682 -0.820118 5.477532
-1.066738 -0.807799 5.811566
-0.951151 -0.711478 6.226468
-0.737900 -0.533648 6.728531
-0.559499 -0.384712 6.795072
-0.396636 -0.248879 7.131337
-0.544809 -0.372794 7.526425
-0.797047 -0.583559 7.825890
-0.952654 -0.713676 8.208617
-1.038099 -0.785191 8.559975
-1.063956 -0.806909 8.825688
-1.017815 -0.768697 9.492690
-1.026246 -0.775715 9.445447
-0.879647 -0.653488 9.838408
-0.737543 -0.535018 10.235843
-0.440703 -0.287353 10.660686
-1.195258 -1.051638 1.192321
-1.163555 -1.021494 1.481005
-1.004748 -0.870077 2.113018
-0.980244 -0.846810 2.401292
-1.022907 -0.887740 2.732948
-0.963589 -0.831267 3.134406
-1.525783 -1.368899 4.074588
-1.495272 -1.340047 4.669348
-1.373883 -1.224135 4.810032
-1.135913 -0.996902 5.085679
-1.048988 -0.913863 5.116916
-0.980361 -0.848415 5.357954
-1.032964 -0.898861 5.727885
-0.855103 -0.729113 6.108429
-0.624443 -0.509038 6.728448
-0.581309 -0.467755 6.590992
-0.426109 -0.319635 6.925410
-0.550525 -0.438741 7.380553
-0.761923 -0.640936 7.799053
-0.780778 -0.659278 8.446275
-0.852702 -0.728206 8.856429
-0.969859 -0.840234 9.031984
-1.017548 -0.885875 9.182155
-0.966115 -0.836883 9.480990
-0.819258 -0.696795 9.933139
-0.669827 -0.554279 10.449075
-0.480268 -0.373049 10.226738
-1.131868 -1.141473 1.164318
-1.081841 -1.086926 1.508403
-0.994483 -0.991596 1.966817
-1.010550 -1.009267 2.138663
-0.870004 -0.855723 2.552602
-0.953738 -0.947568 2.983162
-1.200351 -1.218123 4.349337
-1.380054 -1.414945 4.743336
-1.314719 -1.343448 4.715641
-1.138888 -1.151274 5.084750
-0.949011 -0.943623 5.250794
-0.856127 -0.842193 5.607972
-0.844123 -0.829240 5.943184
-0.680175 -0.650076 6.327746
-0.610311 -0.573802 6.631629
-0.414336 -0.359522 6.875451
-0.360475 -0.300551 6.797290
-0.450707 -0.399584 7.372640
-0.712671 -0.686436 7.820204
-0.773277 -0.752969 8.235228
-0.807779 -0.791033 8.819997
-0.747473 -0.725248 9.179661
-0.765186 -0.744803 9.504538
-0.856350 -0.844469 9.364966
-0.750573 -0.729122 10.071740
-0.699390 -0.673055 9.946449
-0.450826 -0.401270 10.250042
-1.004374 -1.157414 1.093594
-0.938089 -1.074334 1.496969
-0.986867 -1.135809 1.775066
-0.836679 -0.947434 2.464286
-0.835538 -0.946135 2.693991
-0.870215 -0.989788 2.807930
-1.148881 -1.340885 4.221781
-1.213827 -1.422673 4.483136
-1.180483 -1.380834 4.608192
-0.901936 -1.031045 5.170704
-0.869540 -0.990243 5.031336
-0.812271 -0.918557 5.541212
-0.832638 -0.944443 6.027164
-0.673800 -0.744861 6.146123
-0.561408 -0.603716 6.359500
-0.437826 -0.448541 6.634401
-0.327836 -0.310418 6.853198
-0.445522 -0.458576 7.251111
-0.675290 -0.747679 7.758585
-0.710561 -0.792325 8.289875
-0.752315 -0.845116 8.816603
-0.759730 -0.854409 8.770235
-0.764137 -0.860173 9.153339
-0.708462 -0.790688 9.998678
-0.754005 -0.847735 9.662284
-0.586086 -0.637143 10.468497
-0.408335 -0.413658 10.364773
-0.841240 -1.100721 1.362181
-0.835357 -1.092369 1.592593
-0.796472 -1.036408 1.937393
-0.710775 -0.912922 2.455237
-0.718098 -0.923927 3.117469
-1.168514 -1.575444 4.273245
-1.058110 -1.416054 4.468306
-0.934167 -1.237311 4.988970
-0.801110 -1.045268 5.305363
-0.629416 -0.797345 5.532824
-0.660551 -0.842604 5.960856
-0.658492 -0.839636 5.970834
-0.432616 -0.513624 6.499869
-0.343049 -0.384314 6.655716
-0.319069 -0.349750 6.784536
-0.310311 -0.337558 7.507216
-0.611279 -0.772392 7.484810
-0.650157 -0.828869 7.958621
-0.647783 -0.825686 8.344098
-0.674526 -0.864460 8.554162
-0.660575 -0.844623 9.053064
-0.690455 -0.887926 9.260552
-0.599800 -0.757399 9.967846
-0.571192 -0.716222 10.211208
-0.425660 -0.506122 10.476269
-0.169554 -0.136243 10.711384
-0.734484 -1.119989 1.447628
-0.699266 -1.060363 1.791823
-0.726349 -1.106645 2.123573
-0.680953 -1.029756 2.523748
-1.011181 -1.592387 4.196003
-0.946743 -1.483044 4.487520
-0.883975 -1.376542 4.780449
-0.729570 -1.114384 5.266958
-0.590697 -0.878597 5.703223
-0.625492 -0.937827 5.805690
-0.565263 -0.835453 5.839015
-0.451962 -0.643065 6.165679
-0.330625 -0.437057 6.555764
-0.231448 -0.268642 6.831702
-0.357517 -0.483367 7.376332
-0.514644 -0.750761 7.735631
-0.593307 -0.884629 7.917786
-0.559069 -0.826865 8.535595
-0.561171 -0.830715 8.919541
-0.587291 -0.875272 9.127689
-0.573699 -0.852563 9.683152
-0.579180 -0.861847 9.634784
-0.527299 -0.773986 10.110435
-0.722135 -1.291979 0.982080
-0.673899 -1.196269 1.385042
-0.561394 -0.972837 2.077091
-0.533488 -0.917556 2.423309
-0.585873 -1.022030 2.638806
-0.536508 -0.924119 3.098905
-0.811309 -1.472112 4.166513
-0.814776 -1.479411 4.653630
-0.823433 -1.496609 4.608021
-0.737215 -1.325113 4.808048
-0.620761 -1.093561 5.183375
-0.548709 -0.950444 5.599396
-0.489025 -0.831907 5.959577
-0.380014 -0.615182 6.347642
-0.308759 -0.473443 6.503985
-0.349567 -0.554725 6.547299
-0.261493 -0.379596 6.823499
-0.282320 -0.421770 7.693507
-0.444501 -0.745123 8.252222
-0.494733 -0.845423 8.606334
-0.503474 -0.863091 8.932728
-0.513990 -0.884293 9.257780
-0.506683 -0.869800 9.326405
-0.469701 -0.796464 9.686563
-0.473443 -0.804270 10.126390
-0.433924 -0.725533 10.058313
-0.240857 -0.341228 10.166435
-0.492644 -1.002007 1.020280
-0.602132 -1.262480 1.337539
-0.574459 -1.197046 1.682114
-0.560030 -1.163027 1.968866
-0.535490 -1.105037 2.312807
-0.490809 -0.999294 2.772217
-0.743704 -1.601608 4.221560
-0.711387 -1.525235 4.667807
-0.682019 -1.455867 5.113849
-0.581808 -1.217840 5.221842
-0.481694 -0.980044 5.332921
-0.473552 -0.961013 5.669202
-0.361692 -0.695674 6.171180
-0.299802 -0.548751 6.325788
-0.244583 -0.417934 6.750922
-0.162090 -0.222227 7.088969
-0.316055 -0.588158 7.159442
-0.445196 -0.895621 7.783591
-0.498909 -1.023484 8.023965
-0.461784 -0.935954 8.756890
-0.492528 -1.009098 8.850319
-0.480133 -0.979763 8.976904
-0.430569 -0.862487 9.510899
-0.447256 -0.902389 9.776310
-0.384298 -0.753049 10.058085
-0.255459 -0.447013 10.185975
-0.433636 -1.066374 1.375802
-0.498805 -1.257013 1.423392
-0.456542 -1.133936 1.883730
-0.416848 -1.018373 2.344653
-0.407054 -0.990052 2.631598
-0.333361 -0.775077 3.108706
-0.637109 -1.664595 4.184031
-0.564622 -1.453197 4.705126
-0.540284 -1.382225 4.886801
-0.508922 -1.290779 5.126326
-0.448115 -1.113181 5.330568
-0.366627 -0.875299 5.712105
-0.358372 -0.851236 5.781161
-0.278978 -0.619485 6.168700
-0.164294 -0.284568 6.589683
-0.187360 -0.352510 7.019513
-0.272837 -0.602665 7.179241
-0.327780 -0.764283 8.009107
-0.389052 -0.943543 8.074187
-0.368210 -0.883291 8.693290
-0.449685 -1.121371 8.522688
-0.436766 -1.084215 9.078307
-0.390794 -0.949952 9.239381
-0.376648 -0.908791 9.424644
-0.346259 -0.820395 9.843760
-0.286271 -0.645411 10.244821
-0.129223 -0.186591 10.656382
-0.340452 -1.011977 0.492491
-0.401673 -1.240173 1.094697
-0.350199 -1.049832 1.673339
-0.348088 -1.042626 2.124412
-0.346996 -1.038895 2.354847
-0.302580 -0.874761 2.933790
-0.315608 -0.922995 2.828780
-0.497955 -1.602400 4.423963
-0.465329 -1.481654 4.719596
-0.439615 -1.386501 4.959392
-0.420409 -1.315434 5.142684
-0.359864 -1.091042 5.463609
-0.334434 -0.996571 5.439495
-0.299216 -0.866292 5.800545
-0.235371 -0.629742 6.189181
-0.174500 -0.403784 6.253980
-0.166854 -0.375950 6.654423
-0.235135 -0.630207 7.143559
-0.305687 -0.892879 7.622094
-0.332617 -0.993388 7.979044
-0.344063 -1.036190 8.190128
-0.360987 -1.099778 8.715297
-0.377745 -1.162221 8.865477
-0.304663 -0.891863 9.606331
-0.310984 -0.915185 9.499516
-0.293440 -0.850456 9.801075
-0.254480 -0.706089 10.024553
-0.115878 -0.192283 10.670657
-0.255125 -0.952906 0.433343
-0.275916 -1.059733 1.269159
-0.272941 -1.045528 1.723410
-0.277108 -1.067367 2.117390
-0.293150 -1.148688 2.175045
-0.282037 -1.093487 2.739173
-0.231056 -0.835995 3.057957
-0.387221 -1.629178 4.431940
-0.358074 -1.482783 5.050678
-0.343723 -1.409975 4.967438
-0.285126 -1.114250 5.460217
-0.261871 -0.996588 5.494206
-0.219372 -0.782551 6.089625
-0.204371 -0.706457 6.009174
-0.123497 -0.298156 6.607868
-0.129839 -0.330678 6.829606
-0.195577 -0.663954 7.081208
-0.234313 -0.861407 7.795649
-0.251543 -0.949418 8.211962
-0.275988 -1.073728 8.508411
-0.291113 -1.150480 8.603480
-0.278140 -1.086072 9.275941
-0.237218 -0.878942 9.299636
-0.218536 -0.785160 9.720836
-0.215537 -0.771029 10.280552
-0.191585 -0.649980 10.390639
-0.104118 -0.207616 10.625964
-0.195823 -1.008822 0.767992
-0.215255 -1.161464 1.319768
-0.209874 -1.120463 1.609972
-0.212398 -1.141209 2.003366
-0.200520 -1.050026 2.407886
-0.203866 -1.076533 2.579920
-0.170050 -0.814569 2.898096
-0.275598 -1.638817 4.209954
-0.288877 -1.742795 4.470956
-0.269840 -1.595811 4.822631
-0.251411 -1.453561 5.176280
-0.227386 -1.267384 5.380891
-0.188823 -0.968261 5.611033
-0.151707 -0.681173 6.115794
-0.144506 -0.624799 5.976566
-0.113412 -0.384211 6.370609
-0.090278 -0.205940 6.920195
-0.138812 -0.584543 7.377717
-0.181735 -0.919994 8.000294
-0.201628 -1.075158 8.182651
-0.205317 -1.104611 8.452724
-0.209353 -1.136751 8.721626
-0.199502 -1.061038 9.023137
-0.174162 -0.865187 9.419466
-0.172079 -0.849195 9.489824
-0.155363 -0.720958 10.088138
-0.128322 -1.014398 0.777305
-0.143460 -1.261593 1.156549
-0.133031 -1.095932 1.678548
-0.125059 -0.969684 2.143556
-0.137474 -1.170839 2.188142
-0.126524 -0.997077 2.766915
-0.121391 -0.916414 3.171874
-0.164619 -1.622465 4.281167
-0.168399 -1.684268 4.389849
-0.156006 -1.488072 5.123377
-0.122991 -0.958778 5.955024
-0.105884 -0.683030 6.134882
-0.101098 -0.605117 6.055414
-0.089841 -0.424250 6.272323
-0.079550 -0.262569 7.091305
-0.099436 -0.586162 7.398489
-0.124334 -0.991339 7.787229
-0.127689 -1.048770 8.318231
-0.133434 -1.141963 8.355912
-0.131505 -1.113709 8.855977
-0.122445 -0.970607 9.448306
-0.112937 -0.818082 9.671394
-0.107249 -0.728534 10.093649
-0.104854 -0.690891 10.281606
-0.059775 -0.821120 0.316463
-0.057879 -1.054143 0.923589
-0.057805 -1.029995 1.601481
-0.057128 -1.110069 1.880707
-0.057090 -1.103571 2.112861
-0.058322 -0.899719 2.751855
-0.057212 -1.046204 2.909129
-0.054614 -1.384603 3.364116
-0.053259 -1.527310 4.266495
-0.053232 -1.516897 4.545010
-0.053332 -1.485938 4.879881
-0.052828 -1.550813 4.985630
-0.055770 -1.112436 5.555915
-0.056890 -0.965474 5.379715
-0.058947 -0.650727 5.942471
-0.059356 -0.584154 6.130880
-0.061177 -0.304727 6.644951
-0.060623 -0.376670 6.746971
-0.057511 -0.792380 7.088160
-0.055804 -0.993756 7.800190
-0.055287 -1.035810 8.389043
-0.054692 -1.113755 8.484186
-0.054612 -1.102401 8.926161
-0.054167 -1.153745 9.135028
-0.054969 -1.039819 9.180569
-0.056298 -0.831769 9.635927
-0.056857 -0.729508 10.116613
-0.057516 -0.641265 10.048976
-0.013414 -0.649380 0.218703
0.003670 -0.858640 0.661142
0.020520 -1.063035 1.541337
0.017516 -1.024574 1.831194
0.029039 -1.166347 1.991842
0.021788 -1.074843 2.395642
0.015024 -0.989373 2.799431
0.026483 -1.128152 3.444906
0.058668 -1.524670 3.777912
0.055028 -1.476914 4.383384
0.063744 -1.583517 4.643498
0.052138 -1.438391 4.996949
0.031291 -1.180100 5.106268
-0.000171 -0.788918 5.569816
-0.013262 -0.626334 5.722997
-0.025326 -0.475213 6.148650
-0.030507 -0.410285 6.338298
-0.034107 -0.363685 6.797939
-0.000425 -0.778678 7.138352
0.025813 -1.101765 7.443197
0.022338 -1.056518 7.947049
0.028659 -1.132555 8.417878
0.033763 -1.194975 8.570523
0.023027 -1.059807 9.102959
0.013156 -0.935308 9.638007
0.007162 -0.861759 9.510391
-0.006034 -0.697294 9.793476
-0.012022 -0.621584 10.158464
0.058621 -0.836693 0.697041
0.108299 -1.168477 1.124379
0.070644 -0.914467 1.822010
0.078673 -0.967431 2.157666
0.086741 -1.021200 2.272308
0.057524 -0.823869 2.911368
0.084835 -1.006076 3.225361
0.135668 -1.345532 3.676466
0.141407 -1.381715 4.593854
0.161019 -1.512615 4.796456
0.139935 -1.370475 5.151201
0.111799 -1.182121 5.088882
0.047572 -0.750374 5.670031
0.023609 -0.589444 5.824280
0.016779 -0.543363 5.954372
0.003995 -0.457094 6.203385
0.016741 -0.541573 6.574496
0.044850 -0.728114 7.296912
0.080572 -0.965984 7.889831
0.106098 -1.136700 8.013335
0.101195 -1.102610 8.513619
0.098549 -1.084718 8.581803
0.105842 -1.133060 8.791041
0.092788 -1.044712 9.149246
0.062189 -0.838585 9.603445
0.032739 -0.640134 10.063031
0.034197 -0.650025 10.014419
0.097122 -0.754447 0.224777
0.090993 -0.725523 0.685464
0.125370 -0.882746 1.015741
0.127781 -0.892752 1.634333
0.164462 -1.060935 1.736785
0.132720 -0.913976 2.477363
0.115010 -0.831993 2.881625
0.133232 -0.915540 2.934702
0.166796 -1.068122 3.793550
0.233026 -1.371619 4.080468
0.229674 -1.355297 4.628142
0.223726 -1.327881 4.695652
0.212817 -1.277594 4.820768
0.142889 -0.956149 5.104082
0.085814 -0.692958 5.817277
0.071593 -0.627361 6.004454
0.028854 -0.430727 6.278128
0.015314 -0.368257 6.467153
0.046660 -0.511239 6.986511
0.119403 -0.844695 7.234626
0.152890 -0.996887 8.117136
0.155946 -1.010353 8.444684
0.172666 -1.086935 8.538758
0.192680 -1.178732 8.574586
0.173174 -1.088589 8.932050
0.137730 -0.924693 9.640286
0.122018 -0.852794 9.511762
0.105208 -0.775018 9.873635
0.056504 -0.550377 10.512654
-0.025248 -0.175356 10.389469
0.132221 -0.690759 0.124119
0.239790 -1.059495 1.285473
0.211383 -0.961185 1.692400
0.250900 -1.096705 2.073470
0.209888 -0.954859 2.594162
0.169351 -0.814935 2.897639
0.173058 -0.827107 3.344734
0.255397 -1.109783 3.910065
0.301420 -1.267368 4.541078
0.325259 -1.349008 4.858584
0.337077 -1.389820 4.755154
0.238713 -1.050804 5.095065
0.180006 -0.848385 5.361578
0.154265 -0.759464 5.607409
0.073696 -0.481477 6.116198
0.061159 -0.438152 6.246551
0.063691 -0.446072 6.855982
0.148377 -0.737082 7.224365
0.215155 -0.966156 7.819067
0.263174 -1.131274 7.944158
0.275400 -1.173078 8.156260
0.266623 -1.142215 8.656098
0.252730 -1.093590 9.270510
0.236506 -1.037993 9.084359
0.181833 -0.849286 9.480684
0.128809 -0.666253 9.881578
0.097384 -0.558022 9.931553
0.310568 -1.042221 1.283207
0.285951 -0.974349 1.632375
0.243337 -0.856774 2.318148
0.242647 -0.854634 2.549463
0.214127 -0.776000 2.955783
0.243236 -0.855760 3.010221
0.270486 -0.929897 3.556056
0.364253 -1.186345 4.175594
0.276306 -0.944253 5.060615
0.245424 -0.859028 5.575077
0.167654 -0.645433 5.904706
0.080055 -0.405105 6.027480
0.076006 -0.393640 6.369679
0.092889 -0.439410 6.860624
0.222225 -0.793906 6.993816
0.284777 -0.964600 7.764495
0.321070 -1.063737 8.121047
0.315293 -1.047423 8.564130
0.347446 -1.135548 8.600545
0.336151 -1.104441 8.727051
0.286276 -0.967056 9.318223
0.229169 -0.810170 9.598642
0.210857 -0.759698 9.844068
0.177276 -0.667108 10.325301
0.216669 -0.651699 0.153095
0.200105 -0.614224 0.224923
0.369728 -0.996317 1.329458
0.365320 -0.986152 1.563344
0.337659 -0.923167 2.133089
0.326178 -0.896778 2.642425
0.315047 -0.871379 2.931738
0.268731 -0.766555 3.176669
0.308375 -0.855403 3.936587
0.432476 -1.135182 4.492492
0.440448 -1.153228 4.445600
0.361663 -0.974867 4.919712
0.313525 -0.865878 5.221877
0.237788 -0.694638 5.431463
0.171500 -0.544791 5.584439
0.126422 -0.442707 5.891883
0.091064 -0.362627 6.140969
0.178593 -0.559755 6.754377
0.302920 -0.839923 7.444771
0.344101 -0.932605 7.804511
0.374181 -1.000114 8.276947
0.386773 -1.028310 8.546007
0.388609 -1.032109 8.929785
0.381673 -1.016383 8.998659
0.363414 -0.974979 9.183748
0.300766 -0.833290 9.404852
0.228637 -0.669640 10.237006
0.174099 -0.546315 10.405887
0.270090 -0.653067 0.118142
0.266649 -0.646533 0.131016
0.431154 -0.957499 1.353054
0.426158 -0.947843 1.586949
0.421927 -0.939467 2.040347
0.447892 -0.988437 2.375241
0.339442 -0.782428 2.854184
0.265132 -0.641069 3.437355
0.306009 -0.718151 3.982783
0.440201 -0.972328 4.327952
0.446743 -0.984555 4.553453
0.410928 -0.916500 4.740500
0.364917 -0.829063 4.986468
0.278322 -0.664491 5.468214
0.181571 -0.480824 5.741707
0.110870 -0.346430 6.170764
0.108777 -0.342450 6.183803
0.272069 -0.651662 6.711816
0.406130 -0.905274 7.461154
0.453381 -0.994586 7.821671
0.473145 -1.031893 8.035954
0.449995 -0.987558 8.596760
0.427425 -0.944617 8.783678
0.437465 -0.963398 9.111126
0.423003 -0.935876 9.240062
0.326406 -0.752357 9.697486
0.279221 -0.662510 10.180012
0.254765 -0.616327 9.937276
0.279172 -0.577557 0.436304
0.378711 -0.738722 0.712598
0.456793 -0.864757 1.488947
0.498450 -0.932092 1.768765
0.419568 -0.803704 2.512032
0.419127 -0.802828 2.743412
0.362464 -0.710652 3.208275
0.359421 -0.705709 3.220877
0.362848 -0.710764 3.942450
0.491410 -0.919037 4.132352
0.483122 -0.905215 4.687328
0.382856 -0.742346 5.166731
0.380294 -0.738185 5.179315
0.342333 -0.676517 5.367882
0.210298 -0.462209 5.758842
0.120161 -0.315753 6.247397
0.165088 -0.388322 6.621660
0.362584 -0.708378 6.758455
0.564421 -1.035028 7.533487
0.594615 -1.083864 7.689380
0.607676 -1.104850 7.959733
0.530152 -0.978809 8.491430
0.512449 -0.950023 8.618973
0.507744 -0.942089 9.061454
0.455695 -0.857423 9.480167
0.368943 -0.716598 9.762281
0.316542 -0.631319 10.243902
0.239446 -0.449302 0.469762
0.418374 -0.699823 1.584431
0.534770 -0.863218 1.632375
0.428470 -0.713462 2.436993
0.528804 -0.854272 2.538667
0.428052 -0.712584 2.899927
0.351989 -0.605460 3.422638
0.424501 -0.707138 3.632932
0.521458 -0.843040 3.998355
0.483336 -0.789092 4.669959
0.507115 -0.822375 4.835136
0.491594 -0.800370 5.174461
0.437069 -0.723660 5.419182
0.200464 -0.391122 5.951293
0.186039 -0.370824 6.021903
0.121818 -0.280253 6.661282
0.640143 -1.007484 7.485171
0.683542 -1.068357 7.582856
0.622275 -0.982111 7.940091
0.628991 -0.991335 8.267327
0.586251 -0.930903 8.940657
0.568032 -0.905243 9.067576
0.487821 -0.792250 9.660573
0.407570 -0.679471 9.825736
0.420903 -0.698258 9.719462
0.285543 -0.507805 10.357845
0.036685 -0.158325 10.473193
0.598981 -0.831268 1.189444
0.570009 -0.795743 1.702638
0.603030 -0.835704 2.038985
0.472875 -0.677065 2.679071
0.421040 -0.613798 3.086019
0.457878 -0.658529 3.198883
0.502238 -0.712283 3.528205
0.527160 -0.742210 4.186732
0.622160 -0.857492 4.606062
0.529268 -0.744325 4.967533
0.527333 -0.741810 5.249704
0.450788 -0.648710 5.284419
0.222704 -0.370960 5.970797
0.260239 -0.416700 5.804939
0.237748 -0.389119 6.206634
0.460300 -0.659445 6.732799
0.659717 -0.901361 7.740143
0.707614 -0.959548 7.838233
0.693549 -0.942190 8.282236
0.722852 -0.977701 8.493817
0.672759 -0.916614 8.794887
0.554148 -0.772187 9.131404
0.562122 -0.781663 9.516135
0.506904 -0.714557 9.447559
0.447702 -0.642323 9.869738
0.376281 -0.555446 9.918170
0.029845 -0.133766 10.625753
0.321970 -0.434237 0.007487
0.224240 -0.331283 0.257245
0.722486 -0.854976 1.224095
0.651201 -0.779761 1.631466
0.686385 -0.816600 1.967950
0.602935 -0.728556 2.432234
0.505965 -0.626257 2.955554
0.434224 -0.550532 3.420798
0.448784 -0.565613 3.867048
0.600057 -0.724636 4.115369
0.605527 -0.730128 4.613211
0.584850 -0.708193 4.954532
0.534046 -0.654642 5.142029
0.499608 -0.618342 5.271358
0.281087 -0.388135 5.838777
0.328381 -0.437837 5.943966
0.264336 -0.370150 6.521362
0.509902 -0.628406 6.717455
0.761844 -0.893034 7.550200
0.837582 -0.972727 7.532454
0.741354 -0.871235 8.005194
0.827215 -0.961413 8.301188
0.653336 -0.778176 8.865448
0.661575 -0.786869 8.818195
0.629590 -0.752891 9.434654
0.498011 -0.614245 9.833069
0.496390 -0.612534 9.844068
0.385260 -0.495463 10.128951
0.065351 -0.158732 10.420655
0.300790 -0.365632 0.329208
0.634298 -0.671517 1.592361
0.717955 -0.748402 1.591036
0.712060 -0.742760 2.042164
0.561676 -0.604233 2.680902
0.629304 -0.666253 2.953173
0.505588 -0.552372 3.315359
0.625758 -0.662632 3.683667
0.712317 -0.741945 4.164140
0.684205 -0.715805 4.775518
0.646497 -0.681088 4.902783
0.592323 -0.631206 5.088765
0.388414 -0.443583 5.534322
0.252416 -0.318488 5.748036
0.241296 -0.308099 6.090018
0.387562 -0.442353 6.435614
0.607607 -0.644241 7.130896
0.859434 -0.875560 7.377350
0.862862 -0.878549 7.705607
0.857165 -0.873122 8.090404
0.890261 -0.903434 8.300963
0.830817 -0.848654 8.600094
0.752564 -0.776530 9.016111
0.689057 -0.717985 9.375514
0.566680 -0.605376 9.656062
0.546093 -0.586392 9.784040
0.426882 -0.476690 10.068331
0.387559 -0.394466 0.390631
0.597077 -0.561995 0.938621
0.768741 -0.699263 1.373483
0.712685 -0.654106 1.943074
0.688158 -0.634226 2.452287
0.665543 -0.615981 2.740902
0.602713 -0.565476 3.145996
0.503795 -0.486017 3.668521
0.654283 -0.606386 3.976295
0.865309 -0.775318 4.106999
0.743370 -0.677373 4.737318
0.630772 -0.587034 5.098820
0.627285 -0.584235 5.110248
0.286994 -0.311449 5.700167
0.290844 -0.314400 5.983338
0.296951 -0.319159 6.265589
0.408035 -0.407873 6.787170
0.776355 -0.702751 6.953100
0.883142 -0.788004 7.518131
0.914544 -0.813051 7.731530
0.821959 -0.738539 8.521998
0.859572 -0.768561 8.732476
0.767174 -0.694345 9.207814
0.809245 -0.728139 8.986874
0.720406 -0.656773 9.463325
0.561851 -0.529586 9.921093
0.504311 -0.483338 10.282986
0.358852 -0.366894 10.194309
0.201346 -0.220043 0.237630
0.919451 -0.719013 1.135900
0.684434 -0.555246 1.892075
0.825788 -0.653498 1.994718
0.774114 -0.617409 2.342089
0.703029 -0.567796 2.747519
0.548648 -0.460156 3.387699
0.693920 -0.561136 3.481845
0.684441 -0.554200 4.256807
0.732251 -0.587277 4.637363
0.843604 -0.664742 4.570682
0.723231 -0.580875 4.931502
0.493398 -0.420852 5.376346
0.399698 -0.355556 5.683618
0.420786 -0.370121 5.906977
0.266026 -0.262260 6.452024
0.828346 -0.652785 7.599616
0.876137 -0.685950 7.754631
1.017261 -0.784032 7.879170
0.907720 -0.707648 8.351390
0.884693 -0.691413 8.850545
0.950150 -0.736890 8.943292
0.776237 -0.615751 9.394163
0.720140 -0.576607 9.696139
0.617111 -0.504914 9.802366
0.555039 -0.461588 10.165308
0.231324 -0.236508 10.097003
0.462459 -0.354433 0.337486
0.644072 -0.463351 0.779229
0.799780 -0.556589 1.495774
0.740423 -0.520687 2.065689
0.838545 -0.579542 2.283440
0.716064 -0.505739 2.804138
0.765481 -0.535379 2.915781
0.608169 -0.440600 3.553436
0.729054 -0.513043 3.977665
0.939794 -0.639567 4.165104
0.868491 -0.596537 4.620129
0.665326 -0.474231 5.213874
0.681361 -0.483885 5.165588
0.327474 -0.271058 5.695753
0.350032 -0.284515 5.918333
0.356488 -0.288274 6.199441
0.511090 -0.380982 6.602130
0.770816 -0.536720 7.293554
1.029113 -0.691878 7.334980
1.003294 -0.676177 7.778211
1.011585 -0.681019 8.104835
1.036744 -0.696020 8.372562
0.939551 -0.637271 9.216659
0.890433 -0.607843 9.029258
0.771162 -0.535937 9.621370
0.769201 -0.534755 9.631626
0.608071 -0.437784 10.030750
0.427931 -0.329551 10.059859
0.429167 -0.293433 0.246038
0.636614 -0.399346 0.855819
0.909401 -0.538748 1.340120
0.924491 -0.546308 1.736332
0.840834 -0.503239 2.362791
0.813663 -0.489215 2.652447
0.667781 -0.414320 3.234169
0.672352 -0.416565 3.464230
0.818521 -0.491218 3.832872
0.837915 -0.500851 4.546044
0.915584 -0.540577 4.596762
0.743955 -0.452549 5.075512
0.615964 -0.387010 5.169088
0.415138 -0.283988 5.772274
0.317240 -0.233761 6.082111
0.379023 -0.265336 6.187146
0.489571 -0.321805 6.442310
0.788230 -0.474408 7.022504
1.011870 -0.588637 7.560817
1.058800 -0.612436 8.091757
1.070264 -0.618169 8.419423
1.081238 -0.623804 8.374139
1.043131 -0.604073 8.931334
0.940632 -0.551424 9.406835
0.781168 -0.469678 9.746543
0.745249 -0.451219 9.934427
0.667496 -0.411457 9.864237
0.375483 -0.261763 10.483555
0.335474 -0.215783 0.671638
0.586799 -0.323762 1.217518
0.818554 -0.423296 1.813572
0.948846 -0.479323 1.975208
0.759055 -0.397363 2.614801
0.836371 -0.430626 2.670446
0.736087 -0.387269 3.134555
0.619139 -0.336715 3.657715
0.772555 -0.402615 4.024711
0.845386 -0.433840 4.348834
0.880771 -0.449007 4.516012
0.873566 -0.445793 4.798949
0.593530 -0.325037 5.301746
0.447960 -0.262200 5.727585
0.395372 -0.239377 6.188538
0.478593 -0.275187 6.232539
0.555997 -0.308232 6.929563
0.889975 -0.451807 7.441825
1.040271 -0.516310 7.944610
1.140910 -0.559643 7.925744
1.284169 -0.621244 8.106967
1.296436 -0.626396 8.431119
1.134590 -0.556613 8.703493
0.999874 -0.498384 9.292465
0.888719 -0.450319 9.826327
0.831985 -0.425968 9.641198
0.648199 -0.346666 10.100078
0.444185 -0.258802 10.189910
0.237651 -0.153370 0.265878
0.611367 -0.284902 0.582009
0.777697 -0.343219 1.303965
0.820258 -0.357995 1.865362
0.815814 -0.356254 2.319061
0.868079 -0.374622 2.432690
0.867266 -0.374247 2.662471
0.713569 -0.319877 3.242649
0.755650 -0.334552 3.629270
0.889295 -0.381469 4.052964
0.828368 -0.359746 4.724702
0.867287 -0.373392 4.889795
0.841213 -0.364180 4.959094
0.641261 -0.293637 5.226765
0.479176 -0.236245 5.980972
0.564390 -0.266247 6.025433
0.463878 -0.230720 6.332247
1.172085 -0.479854 7.250755
1.152977 -0.472829 8.011078
1.272014 -0.514793 7.934587
1.267649 -0.513108 8.317056
1.177249 -0.481124 8.672883
1.012478 -0.422805 9.377382
1.022913 -0.426499 9.330273
0.957647 -0.403390 9.631378
0.791699 -0.344798 9.970986
0.597785 -0.276284 10.491006
0.297543 -0.148756 0.379697
0.703436 -0.258704 0.859491
0.965857 -0.329618 1.622605
0.900309 -0.311701 1.971765
0.981523 -0.333631 2.248690
0.978616 -0.332755 2.479595
0.738352 -0.267280 3.235544
0.755663 -0.271808 3.681928
0.828397 -0.291419 4.008492
1.024822 -0.344702 4.041844
1.028187 -0.345325 4.808338
1.112938 -0.368301 4.857905
0.751326 -0.270034 5.262424
0.639712 -0.239634 5.568456
0.601976 -0.229244 5.968502
0.459118 -0.190321 6.394773
0.359937 -0.163294 6.704172
0.742450 -0.266928 7.105575
1.188380 -0.387718 7.643422
1.147958 -0.376560 8.144980
1.191353 -0.388255 8.356797
1.329612 -0.425678 8.593372
1.362135 -0.434402 8.859758
1.209836 -0.392997 9.076983
1.032978 -0.344884 9.412500
0.800248 -0.281499 10.044136
0.680506 -0.248969 10.151754
0.549998 -0.213496 10.319516
0.446718 -0.156625 0.126058
0.750409 -0.217189 1.010090
1.057740 -0.278716 1.271424
1.013857 -0.269726 1.783968
0.948905 -0.256572 2.133089
0.860361 -0.238666 2.540332
1.053144 -0.277042 3.291687
1.314483 -0.329212 3.914801
1.219380 -0.310153 3.886841
1.108031 -0.287635 4.401312
1.303401 -0.326696 4.702609
1.410759 -0.348126 4.962968
1.180323 -0.301802 5.283423
0.798108 -0.224990 5.748774
0.597453 -0.184654 6.021744
0.472839 -0.159531 6.388749
0.503484 -0.165594 6.610352
0.742541 -0.213324 7.157841
1.136885 -0.292248 7.550200
1.172480 -0.299167 8.138213
1.295743 -0.323772 8.433725
1.372078 -0.339043 8.528886
1.390041 -0.342524 8.852377
1.316639 -0.327695 9.150746
1.074118 -0.278835 9.774539
0.988342 -0.261661 9.706776
0.781527 -0.220000 10.223526
0.598503 -0.183333 10.137251
0.334426 -0.110607 -0.062332
0.968140 -0.193838 1.471201
1.107435 -0.212197 1.633499
1.040602 -0.203232 1.980652
1.009985 -0.198997 2.488224
1.634275 -0.280910 4.218158
1.432121 -0.254283 3.937041
1.110260 -0.211444 4.696473
1.357677 -0.244092 4.878752
1.242394 -0.228640 5.444119
1.053089 -0.203631 5.383467
0.775856 -0.166908 5.557213
0.654781 -0.150666 6.190332
0.557254 -0.137778 6.168755
0.525876 -0.133361 6.894413
0.885808 -0.180766 7.408026
1.304936 -0.236066 7.737572
1.363119 -0.243703 7.891777
1.265032 -0.230465 8.619337
1.468874 -0.257417 8.624258
1.363619 -0.243348 9.035957
1.332819 -0.239229 9.161738
1.165675 -0.217026 9.437643
0.915446 -0.183685 10.124338
0.804257 -0.168964 10.174078
0.475540 -0.125450 10.303865
1.193203 -0.140437 1.282297
1.119130 -0.135575 1.850151
1.172071 -0.138860 1.965413
1.145128 -0.136902 2.689644
1.999860 -0.190254 3.683048
1.907435 -0.184283 4.128344
1.610122 -0.165439 4.563274
1.741762 -0.173638 4.765536
1.605804 -0.164772 5.645148
1.272643 -0.143925 5.398661
0.950240 -0.123558 5.687052
0.642445 -0.104008 6.251351
0.679300 -0.106363 6.145233
0.629158 -0.103045 6.601900
0.912971 -0.120607 7.353051
1.326553 -0.146593 7.367281
1.277023 -0.143161 8.240887
1.369984 -0.148989 8.279170
1.496952 -0.156861 8.572274
1.419101 -0.151860 8.869602
1.330683 -0.146173 9.225245
1.221629 -0.139148 9.695152
0.999143 -0.125136 9.777219
0.886963 -0.118069 9.823671
0.628198 -0.101711 10.085616
1.411315 -0.059599 1.312014
1.400539 -0.059559 1.542630
1.065109 -0.060681 2.188555
1.862290 -0.056967 3.522448
2.040845 -0.056036 4.092937
1.805852 -0.056791 4.631558
1.683900 -0.057081 5.189915
1.705064 -0.056916 5.407894
1.310738 -0.058443 5.596521
0.896556 -0.060027 5.849826
0.693920 -0.060749 6.119473
0.669774 -0.060821 6.188491
0.543674 -0.061079 6.880076
1.054075 -0.058996 6.926777
1.286192 -0.057840 7.519859
