3.726189 -2.790510 3.747819
3.689227 -2.762874 4.208104
3.666872 -2.746157 4.930550
3.716236 -2.783055 5.643575
3.701830 -2.772279 6.393148
3.513114 -3.155157 -0.173071
3.576630 -3.212099 0.847370
3.549820 -3.188057 1.286272
3.544962 -3.183694 2.136681
3.516494 -3.158165 2.652896
3.466793 -3.113597 3.312701
3.462642 -3.109868 4.165302
3.440131 -3.089680 4.700036
3.419579 -3.071248 5.359716
3.418545 -3.070315 6.095478
3.337309 -2.997468 7.098598
3.297883 -3.551730 0.118608
3.324437 -3.580274 0.972651
3.338597 -3.595495 1.526622
3.312822 -3.567774 2.193929
3.252358 -3.502754 2.988248
3.231732 -3.480571 3.691112
3.228619 -3.477216 4.478626
3.202101 -3.448698 5.089634
3.212812 -3.460208 5.808807
3.224665 -3.472946 6.589100
3.079549 -4.029479 0.000373
3.025270 -3.958562 0.842930
3.004639 -3.931605 1.333946
2.995116 -3.919157 2.016675
2.986341 -3.907686 2.847855
2.930801 -3.835126 3.222705
2.919981 -3.820983 3.988993
2.931073 -3.835465 4.885169
2.939812 -3.846874 5.619499
2.891537 -3.783804 6.036891
2.837898 -3.713723 6.773058
2.749757 -4.323832 0.415273
2.746283 -4.318369 1.182609
2.737002 -4.303791 1.888764
2.708598 -4.259200 2.245717
2.715933 -4.270704 3.045089
2.689054 -4.228504 3.552367
2.663961 -4.189106 4.228040
2.674563 -4.205738 5.251426
2.669344 -4.197538 5.802307
2.637087 -4.146895 6.309800
2.469983 -4.714244 0.197605
2.475742 -4.725208 0.923671
2.472474 -4.718973 1.426484
2.471308 -4.716741 2.271954
2.440466 -4.657975 2.719218
2.420720 -4.620347 3.348589
2.432142 -4.642096 4.220295
2.438315 -4.653847 5.033951
2.434316 -4.646219 5.754994
2.383665 -4.549713 6.137058
2.276399 -4.345340 6.782979
2.174419 -5.193232 0.746511
2.172858 -5.189502 1.386831
2.173671 -5.191432 1.921027
2.152128 -5.140070 2.567941
2.124930 -5.075229 3.193484
2.123218 -5.071134 4.060553
2.108928 -5.037062 4.546482
2.106496 -5.031253 5.341932
2.099603 -5.014815 5.832123
2.111408 -5.042941 6.659257
1.782192 -5.769485 1.044329
1.765740 -5.716338 1.530088
1.753516 -5.676834 2.476946
1.753527 -5.676860 3.061787
1.757228 -5.688797 3.878946
1.737118 -5.623835 4.334833
1.734905 -5.616674 4.983612
1.737105 -5.623763 5.788500
1.405736 -6.356184 0.916581
1.399261 -6.326971 1.454471
1.390938 -6.289428 2.107792
1.390306 -6.286554 3.005877
1.383069 -6.253912 3.420694
1.383109 -6.254070 4.256354
1.377985 -6.230951 4.799511
1.384906 -6.262132 5.613520
1.394455 -6.305166 6.385665
1.365918 -6.176486 6.856523
0.961551 -7.661748 0.141626
0.899707 -7.170950 0.591611
0.893233 -7.119540 1.337812
0.894216 -7.127305 1.956639
0.888161 -7.079244 2.342714
0.885634 -7.059155 2.984657
0.885642 -7.059185 3.687747
0.884993 -7.054007 4.239776
0.883066 -7.038680 4.987418
0.884142 -7.047187 5.631846
0.306033 -7.665966 0.183479
0.290607 -7.284284 1.071186
0.290565 -7.283161 1.620146
0.289516 -7.257144 2.027845
0.289652 -7.260411 2.723404
0.288835 -7.240077 3.518188
0.288327 -7.227410 4.222884
0.289196 -7.248804 4.883782
0.289826 -7.264280 5.575357
0.290055 -7.269874 6.142138
0.289778 -7.262909 6.839205
-0.360234 -6.890637 0.469801
-0.360220 -6.890469 1.332591
-0.362017 -6.925303 1.989431
-0.359142 -6.869744 2.276119
-0.360043 -6.887279 3.315994
-0.358522 -6.857915 3.725746
-0.359580 -6.878479 4.635834
-0.358672 -6.860958 5.014500
-0.355651 -6.802602 5.569628
-0.915458 -6.512314 0.552288
-0.914383 -6.504666 1.182555
-0.920096 -6.545515 2.001458
-0.917465 -6.526738 2.444416
-0.918618 -6.535019 3.356217
-0.911891 -6.486976 3.815910
-0.919987 -6.544861 4.800408
-0.910013 -6.473617 5.147541
-0.909308 -6.468618 5.985190
-0.914045 -6.502491 6.786692
-1.450076 -6.163274 0.799990
-1.462750 -6.217311 1.606538
-1.456775 -6.191858 2.025949
-1.462736 -6.217290 2.993239
-1.448746 -6.157674 3.385264
-1.444942 -6.141479 4.101139
-1.446025 -6.146117 4.854177
-1.444171 -6.138235 5.722251
-1.428922 -6.073251 6.049625
-1.418658 -6.029530 6.957907
-1.936850 -5.888362 0.375597
-1.935234 -5.883453 1.187839
-1.932612 -5.875482 2.019604
-1.924957 -5.852171 2.706329
-1.904233 -5.789042 3.082632
-1.899546 -5.774777 3.872775
-1.909849 -5.806181 4.688111
-1.892593 -5.753614 4.992003
-1.895944 -5.763841 5.810218
-1.908405 -5.801818 6.547164
-2.406239 -5.550639 0.456259
-2.409421 -5.558000 0.850715
-2.412720 -5.565635 1.693033
-2.395231 -5.525230 2.206139
-2.362705 -5.450074 2.769255
-2.375550 -5.479774 3.823239
-2.357146 -5.437251 4.257791
-2.346723 -5.413173 4.791114
-2.368537 -5.463595 5.603883
-2.374857 -5.478211 6.373931
-2.263426 -5.220721 6.993233
-2.821231 -5.214353 0.678040
-2.835116 -5.240066 1.531274
-2.829777 -5.230192 2.202475
-2.797078 -5.169666 2.623730
-2.807834 -5.189591 3.635434
-2.811045 -5.195543 4.305093
-2.811323 -5.196065 4.843952
-2.816199 -5.205100 5.537757
-2.785138 -5.147608 6.159310
-2.758898 -5.099042 6.776253
-3.283515 -4.940521 0.827627
-3.298440 -4.963016 1.557648
-3.287325 -4.946275 2.088129
-3.260405 -4.905719 2.773531
-3.257402 -4.901203 3.494482
-3.237780 -4.871640 3.846788
-3.238534 -4.872784 4.627247
-3.204806 -4.821970 5.223721
-3.195188 -4.807485 5.863605
-3.234098 -4.866123 6.748371
-3.714764 -4.656738 0.818194
-3.707171 -4.647211 1.223498
-3.675372 -4.607300 1.746290
-3.665052 -4.594354 2.614916
-3.678960 -4.611820 3.394925
-3.654409 -4.581008 3.934987
-3.646396 -4.570953 4.420891
-3.646818 -4.571494 5.422748
-3.607219 -4.521789 5.788457
-3.641362 -4.564656 6.730724
-4.136096 -4.310698 0.404600
-4.128404 -4.302676 1.029183
-4.097426 -4.270354 1.736138
-4.096772 -4.269679 2.487663
-4.141444 -4.316303 3.217597
-4.144542 -4.319542 3.937455
-4.077619 -4.249707 4.361265
-4.105897 -4.279225 5.309448
-4.091670 -4.264384 5.920622
-4.087212 -4.259738 6.671423
-4.517298 -3.956792 0.746696
-4.515061 -3.954835 1.405997
-4.532482 -3.970118 1.862382
-4.515766 -3.955463 2.622395
-4.504354 -3.945457 3.021930
-4.513765 -3.953717 3.846635
-4.478504 -3.922798 4.639466
-4.455099 -3.902273 5.103058
-4.430867 -3.881026 5.669595
-4.496841 -3.938896 6.537012
-5.032932 -3.666529 0.584556
-5.025944 -3.661436 1.178191
-5.038669 -3.670725 1.999023
-5.021740 -3.658379 2.421003
-4.982772 -3.629959 3.287569
-4.948628 -3.605056 3.814313
-5.025411 -3.661074 4.717261
-5.013822 -3.652624 5.273521
-4.938944 -3.598007 5.766324
-4.992118 -3.636802 6.633251
-5.511339 -3.310340 0.693526
-5.504157 -3.306024 1.240154
-5.505042 -3.306560 1.787275
-5.533112 -3.323449 2.620486
-5.508069 -3.308390 3.129555
-5.474761 -3.288361 3.703776
-5.452375 -3.274900 4.297719
-5.440452 -3.267735 5.062742
-5.437258 -3.265818 5.643939
-5.465231 -3.282648 6.483510
-6.065927 -2.929349 0.961554
-6.055122 -2.924129 1.821926
-6.060968 -2.926962 2.623604
-6.053264 -2.923239 3.082980
-6.058177 -2.925620 3.820707
-6.061048 -2.927013 4.422579
-6.062023 -2.927489 5.098283
-6.067622 -2.930201 5.724418
-6.049984 -2.921674 6.288509
-5.799836 -2.800700 7.031396
-7.082089 -2.678311 0.075510
-6.644900 -2.512721 0.687272
-6.635945 -2.509333 1.196867
-6.627017 -2.505956 1.988389
-6.643855 -2.512338 2.575487
-6.669518 -2.522063 3.385496
-6.625500 -2.505394 3.846410
-6.633445 -2.508407 4.475678
-6.617322 -2.502304 5.025328
-6.593199 -2.493171 5.755673
-6.634778 -2.508926 6.620424
-7.415037 -2.063670 0.141742
-7.087353 -1.972298 0.791086
-7.101468 -1.976237 1.236732
-7.062919 -1.965492 1.921943
-7.051771 -1.962388 2.761123
-7.061845 -1.965201 3.372247
-6.992794 -1.945947 3.627892
-6.954601 -1.935301 4.302306
-7.025237 -1.955005 5.267320
-7.028260 -1.955851 5.849676
-6.663827 -1.232963 0.583069
-6.631591 -1.226983 1.193171
-6.599642 -1.221055 1.590145
-6.618441 -1.224549 2.304155
-6.599415 -1.221021 2.971378
-6.591410 -1.219539 3.614663
-6.573141 -1.216152 4.271428
-6.550090 -1.211877 4.810096
-6.554643 -1.212728 5.746444
-6.537462 -1.209542 6.320409
-6.271922 -1.160256 6.863362
-6.199038 -0.619525 0.732761
-6.175997 -0.617212 1.501965
-6.168950 -0.616508 2.237799
-6.155618 -0.615170 2.712954
-6.152548 -0.614866 3.462225
-6.114442 -0.611037 3.997933
-6.127184 -0.612323 4.824337
-6.061487 -0.605718 5.211004
-6.114309 -0.611037 6.221534
-6.034853 -0.603049 6.711192
-5.848744 0.008050 0.379705
-5.823634 0.008026 1.325354
-5.863050 0.008050 2.075339
-5.825159 0.008020 2.592466
-5.795390 0.007994 3.361202
-5.819099 0.008007 4.011672
-5.731882 0.007942 4.499798
-5.660253 0.007888 5.044523
-5.666047 0.007887 5.837049
-5.657273 0.007877 6.463614
-5.453129 0.453602 0.169930
-5.493922 0.456961 1.034630
-5.462449 0.454363 1.509203
-5.427842 0.451505 2.218681
-5.438236 0.452357 2.981700
-5.434546 0.452049 3.685771
-5.414790 0.450414 4.532052
-5.360801 0.445960 4.859204
-5.419483 0.450793 5.841057
-5.382866 0.447770 6.458671
-5.211582 0.951337 0.278502
-5.194951 0.948310 0.781462
-5.139211 0.938174 1.349898
-5.115084 0.933783 2.271574
-5.143084 0.938869 2.948167
-5.133083 0.937048 3.366576
-5.128792 0.936263 4.205482
-5.084816 0.928264 4.973237
-5.078106 0.927040 5.713852
-5.032823 0.918805 6.299613
-4.838516 0.883480 6.846518
-4.903842 1.318848 0.659771
-4.874960 1.311100 1.329937
-4.849608 1.304300 1.829712
-4.881367 1.312809 2.681448
-4.897445 1.317116 3.408911
-4.836764 1.300843 3.974318
-4.787830 1.287719 4.560883
-4.764003 1.281326 5.250164
-4.712767 1.267584 5.987425
-4.715883 1.268415 6.673999
-4.609006 1.727377 0.190935
-4.598867 1.723581 0.990076
-4.598862 1.723575 1.626478
-4.595838 1.722440 2.401127
-4.548080 1.704580 3.008844
-4.518211 1.693408 3.691986
-4.492616 1.683835 4.304781
-4.513686 1.691707 5.174754
-4.484723 1.680875 5.759546
-4.504959 1.688435 6.565504
-4.335564 2.051057 1.285310
-4.321494 2.044410 1.989302
-4.303136 2.035740 2.439274
-4.294877 2.031837 3.220794
-4.282705 2.026085 4.025265
-4.218698 1.995865 4.461149
-4.219119 1.996058 5.329616
-4.186351 1.980585 5.871677
-4.213312 1.993308 6.709052
-4.117606 2.411163 0.082413
-4.079475 2.388873 0.630233
-4.055413 2.374804 1.371373
-4.040194 2.365905 2.013524
-4.039411 2.365442 2.711690
-4.025736 2.357445 3.367571
-4.013820 2.350474 4.342252
-3.964215 2.321477 4.844463
-3.997193 2.340746 5.730119
-3.991249 2.337268 6.260345
-3.655793 2.141196 7.006103
-3.845066 2.731124 1.151250
-3.851275 2.735521 1.873618
-3.855159 2.738269 2.680278
-3.840250 2.727693 3.316918
-3.808008 2.704828 3.884992
-3.774464 2.681038 4.559299
-3.768525 2.676821 5.364934
-3.702421 2.629947 5.792843
-3.715527 2.639233 6.701151
-3.527609 3.025189 0.201662
-3.532922 3.029734 0.713973
-3.539932 3.035727 1.675259
-3.539383 3.035254 2.106481
-3.504663 3.005523 2.845963
-3.506493 3.007084 3.649888
-3.487828 2.991100 4.293696
-3.485970 2.989502 5.172573
-3.475241 2.980312 5.711031
-3.447238 2.956334 6.219034
-3.399721 3.489133 -0.054153
-3.280005 3.366461 0.493687
-3.259877 3.345830 1.290117
-3.273245 3.359519 2.150602
-3.272450 3.358699 2.812217
-3.266088 3.352174 3.513846
-3.228600 3.313759 3.936525
-3.248762 3.334409 4.919666
-3.255056 3.340852 5.621141
-3.193860 3.278144 5.994653
-3.147414 3.230547 6.720106
-3.073130 3.780204 -0.126856
-3.013262 3.706674 0.601951
-3.007336 3.699391 1.185997
-2.974792 3.659415 2.158132
-2.960307 3.641623 2.545246
-2.981193 3.667264 3.472125
-2.937393 3.613470 3.979350
-2.931483 3.606205 4.687421
-2.961677 3.643276 5.653555
-2.919150 3.591045 6.136794
-2.883963 3.547825 7.022984
-2.756994 4.016318 0.027639
-2.789482 4.063557 0.699048
-2.773223 4.039905 1.381353
-2.787099 4.060075 2.281388
-2.759221 4.019525 2.933909
-2.716897 3.957968 3.464386
-2.724016 3.968313 4.228764
-2.726286 3.971607 4.988943
-2.696411 3.928154 5.613725
-2.467893 4.432004 0.289439
-2.471028 4.437619 0.713960
-2.474783 4.444340 1.635995
-2.461468 4.420466 2.045258
-2.451379 4.402370 2.791987
-2.435054 4.373098 3.498063
-2.401445 4.312843 4.001377
-2.404677 4.318626 4.812658
-2.407814 4.324240 5.657293
-2.388645 4.289871 6.150893
-2.268923 4.075244 6.975107
-2.131534 4.958150 -0.160637
-2.113972 4.917369 0.627423
-2.093277 4.869315 1.373744
-2.085001 4.850094 1.950612
-2.082667 4.844665 2.591482
-2.064892 4.803392 3.220218
-2.065676 4.805198 4.139397
-2.047566 4.763151 4.557305
-2.067316 4.808983 5.544056
-2.051086 4.771298 6.033390
-2.037719 4.740256 6.778121
-1.796344 5.380918 0.293066
-1.784467 5.345409 0.950761
-1.783918 5.343755 1.555573
-1.787340 5.353964 2.526549
-1.790944 5.364723 3.223275
-1.779513 5.330547 3.820060
-1.755468 5.258678 4.226716
-1.747547 5.234988 5.112067
-1.727601 5.175366 5.653793
-1.724793 5.166961 6.301343
-1.413993 5.966586 0.813754
-1.407211 5.938031 1.410386
-1.403253 5.921363 2.025901
-1.394628 5.885056 2.556970
-1.398250 5.900273 3.519483
-1.397161 5.895674 4.115502
-1.393877 5.881835 4.913106
-1.384280 5.841438 5.441850
-1.388640 5.859764 6.245353
-1.360797 5.742598 6.662617
-0.904755 6.622206 0.877147
-0.900389 6.590367 1.377637
-0.898209 6.574435 2.371711
-0.898052 6.573263 2.952604
-0.894677 6.548644 3.450987
-0.883891 6.470019 4.055167
-0.887647 6.497349 4.958408
-0.890642 6.519147 5.548598
-0.884671 6.475611 6.136679
-0.877367 6.422348 6.750543
-0.397042 7.711714 -0.157561
-0.382802 7.437778 0.260302
-0.382441 7.430739 1.082766
-0.381007 7.403110 1.596813
-0.380420 7.391745 2.221267
-0.379159 7.367414 2.840727
-0.378302 7.350868 3.419991
-0.377175 7.329131 3.874650
-0.377115 7.327884 4.767232
-0.377943 7.343712 5.473524
-0.376866 7.322934 6.043380
-0.373674 7.261489 6.494475
0.309822 7.890768 0.140812
0.310315 7.903582 0.892621
0.309129 7.873079 1.406873
0.309918 7.893555 2.177033
0.309353 7.879081 2.902312
0.307787 7.838790 3.475255
0.307602 7.834112 4.047382
0.308455 7.856177 4.559214
0.309775 7.890359 5.385684
0.308094 7.847061 5.838426
0.309231 7.876537 6.720791
0.881410 7.546620 0.292410
0.873492 7.478547 0.694607
0.872862 7.473155 1.297638
0.875651 7.497190 2.168688
0.872445 7.469632 2.465121
0.872700 7.471873 3.291976
0.868898 7.439197 3.872710
0.862257 7.382115 4.383886
0.860540 7.367388 5.107868
0.864186 7.398780 5.855319
1.470471 7.249106 -0.117245
1.436343 7.080420 0.439584
1.434224 7.069963 1.039988
1.432027 7.059129 1.870550
1.432531 7.061643 2.601039
1.421057 7.004939 3.066952
1.427291 7.035772 3.594337
1.430729 7.052790 4.322654
1.427609 7.037390 5.208014
1.413639 6.968347 5.534163
1.416091 6.980490 6.269477
1.385523 6.829400 6.753882
2.067705 6.644320 0.869495
2.077900 6.677163 1.703929
2.075952 6.670904 2.371018
2.069397 6.649807 2.715650
2.066505 6.640510 3.387416
2.064886 6.635311 4.174847
2.060889 6.622454 4.785680
2.062634 6.628085 5.441165
2.052922 6.596830 6.090922
2.059394 6.617686 6.931831
2.528629 6.350757 0.941394
2.529258 6.352350 1.600944
2.507967 6.298793 1.913289
2.518318 6.324852 2.927744
2.510145 6.304295 3.215192
2.521432 6.332703 4.122950
2.521901 6.333894 4.672493
2.501453 6.282459 5.128577
2.500585 6.280289 5.977696
2.480253 6.229149 6.595474
3.087206 6.011364 0.840766
3.114601 6.064793 1.704914
3.109878 6.055593 2.324358
3.075209 5.987997 2.917549
3.044365 5.927860 3.488555
3.053220 5.945135 4.070492
3.095494 6.027579 4.897867
3.080484 5.998316 5.466890
3.061243 5.960805 6.069027
3.059851 5.958102 6.803424
3.515701 5.647163 0.593991
3.512585 5.642158 1.248588
3.502114 5.625324 1.862145
3.491068 5.607562 2.304669
3.493344 5.611234 3.215784
3.490246 5.606256 3.626066
3.471212 5.575650 4.339976
3.449231 5.540304 4.919099
3.445029 5.533556 5.773339
3.426078 5.503081 6.254768
4.067225 5.239446 0.844108
4.046325 5.212496 1.310886
4.060140 5.230322 2.173706
4.079500 5.255299 2.881465
4.033093 5.195447 3.140720
4.012508 5.168902 3.755493
4.037764 5.201486 4.636676
4.048412 5.215227 5.384932
4.036791 5.200246 6.118544
3.979091 5.125828 6.415326
4.500431 4.895365 0.447744
4.494388 4.888790 1.102307
4.496893 4.891523 1.740223
4.506615 4.902120 2.664240
4.478157 4.871131 3.032450
4.480367 4.873544 3.763879
4.455487 4.846454 4.267618
4.469235 4.861434 5.242932
4.418735 4.806441 5.548605
4.441443 4.831179 6.400453
4.976209 4.534806 0.832854
5.014221 4.569492 1.534966
5.009438 4.565134 2.257664
4.966244 4.525730 2.780229
4.964322 4.523983 3.508813
4.948444 4.509499 3.964222
4.936010 4.498162 4.754761
4.950677 4.511551 5.643016
4.932253 4.494744 6.056564
4.929791 4.492504 6.791508
5.493880 4.226605 0.793458
5.466240 4.205320 1.255774
5.449009 4.192053 1.830341
5.474022 4.211324 2.626130
5.477457 4.213974 3.210995
5.471356 4.209281 4.016068
5.422866 4.171937 4.494184
5.433921 4.180457 5.236194
5.486155 4.220695 6.026453
5.446190 4.189918 6.658724
6.210335 3.878238 0.135065
6.107978 3.814245 0.532921
6.065589 3.787749 1.355822
6.035808 3.769131 1.663211
6.047960 3.776733 2.283414
6.075710 3.794090 3.219325
6.047569 3.776499 3.814860
5.997496 3.745195 4.141318
6.034513 3.768344 4.958033
6.033526 3.767732 5.551117
6.064910 3.787360 6.405002
5.853304 3.655062 6.795342
6.796106 3.504602 0.008675
6.622692 3.415068 0.545392
6.634023 3.420922 1.039982
6.626268 3.416920 1.443340
6.629317 3.418501 2.318271
6.641160 3.424619 2.781279
6.653393 3.430941 3.635190
6.643405 3.425788 4.326570
6.587444 3.396897 4.755781
6.588152 3.397267 5.376489
6.565192 3.385416 5.928175
6.592151 3.399342 6.815212
7.350034 2.889890 0.273018
7.307968 2.873328 0.604499
7.282441 2.863281 1.318089
7.333073 2.883224 2.244972
7.350660 2.890152 2.776015
7.334038 2.883611 3.345584
7.344599 2.887774 4.057304
7.287605 2.865334 4.344019
7.327205 2.880932 5.253424
7.259327 2.854208 5.556833
7.321861 2.204557 0.042000
7.329514 2.206869 0.700105
7.329734 2.206940 1.425632
7.335149 2.208577 1.976698
7.343431 2.211080 2.738274
7.319682 2.203920 3.253643
7.306878 2.200062 3.990474
7.288320 2.194467 4.400906
7.300761 2.198224 5.133495
7.217627 2.173149 5.509846
6.787709 1.416166 0.878716
6.806797 1.420166 1.885611
6.779338 1.414423 2.221330
6.836516 1.426392 3.186315
6.789166 1.416487 3.441266
6.795424 1.417801 4.306045
6.784599 1.415541 5.074821
6.701772 1.398214 5.475416
6.690227 1.395803 6.229814
6.619137 1.380934 6.861465
6.383917 0.774101 0.762830
6.351284 0.770127 1.293162
6.314122 0.765603 2.017267
6.338405 0.768566 2.687389
6.338435 0.768575 3.466748
6.269393 0.760163 3.950191
6.305379 0.764554 4.768506
6.267863 0.759984 5.174955
6.252268 0.758088 5.957402
6.292898 0.763045 6.799148
6.001425 0.155696 0.667685
5.964481 0.154717 1.134661
5.943538 0.154164 1.778772
5.949887 0.154338 2.608868
5.938683 0.154042 3.052991
5.947737 0.154289 4.049071
5.888336 0.152712 4.549696
5.875299 0.152369 5.137310
5.837485 0.151367 5.669414
5.852512 0.151773 6.681539
5.633438 -0.388154 0.133516
5.676671 -0.391097 1.100014
5.643572 -0.388837 1.518886
5.608494 -0.386440 2.215736
5.602167 -0.386004 3.065845
5.546745 -0.382221 3.511627
5.589910 -0.385159 4.481409
5.527905 -0.380927 4.926305
5.541788 -0.381869 5.783511
5.540763 -0.381795 6.456394
5.379343 -0.852920 0.036093
5.292865 -0.839267 0.905058
5.283397 -0.837770 1.353742
5.265002 -0.834863 1.974543
5.286534 -0.838255 2.937033
5.244624 -0.831639 3.284682
5.251726 -0.832754 4.228702
5.222813 -0.828188 4.753552
5.239993 -0.830895 5.513678
5.189385 -0.822904 6.087295
5.129257 -0.813409 6.940208
5.005745 -1.194674 1.280865
4.974879 -1.187329 1.688894
4.943067 -1.179758 2.379506
4.953629 -1.182266 3.115030
4.982154 -1.189046 3.869273
4.964677 -1.184885 4.522443
4.943996 -1.179961 5.393286
4.868624 -1.162030 5.834215
4.876354 -1.163863 6.685645
4.798404 -1.647341 0.343638
4.790151 -1.644511 1.094046
4.689049 -1.609885 1.551525
4.679609 -1.606648 2.252476
4.695073 -1.611938 3.081430
4.680115 -1.606811 3.889607
4.634249 -1.591100 4.504127
4.577104 -1.571527 5.134540
4.608658 -1.582328 5.801337
4.583240 -1.573620 6.351057
4.371775 -1.912117 0.091529
4.495429 -1.966075 0.817598
4.441086 -1.942356 1.310672
4.406468 -1.927244 2.051554
4.410498 -1.928998 2.801763
4.424511 -1.935107 3.728386
4.326126 -1.892169 4.101292
4.308133 -1.884311 4.894142
4.346919 -1.901233 5.645235
4.063626 -2.269271 0.723120
4.187908 -2.338535 1.294419
4.180355 -2.334319 2.107755
4.161596 -2.323861 2.521331
4.148916 -2.316788 3.478666
4.079951 -2.278348 3.903277
4.084829 -2.281061 4.729669
4.060047 -2.267245 5.219864
4.079122 -2.277871 6.100377
4.007641 -2.238028 6.608920
3.983744 -2.678771 1.394605
3.945567 -2.653141 1.972548
3.939323 -2.648945 2.596193
3.902156 -2.623992 3.234721
3.893103 -2.617909 4.058650
3.835972 -2.579555 4.690880
3.820210 -2.568971 5.245874
3.820003 -2.568827 5.857664
3.817508 -2.567146 6.787911
3.584864 -2.925332 0.604652
3.694626 -3.014741 1.213346
3.679786 -3.002647 1.881343
3.658705 -2.985469 2.598128
3.643325 -2.972935 3.234721
3.598840 -2.936691 3.878720
3.550777 -2.897534 4.397718
3.559090 -2.904300 5.181737
3.570338 -2.913457 5.885145
3.600017 -2.937629 6.635873
3.611427 -3.525476 -0.162351
3.454257 -3.372277 0.628350
3.432940 -3.351494 1.321743
3.394787 -3.314303 1.790123
3.389346 -3.308994 2.459343
3.390220 -3.309838 3.341828
3.341393 -3.262243 3.875849
3.346750 -3.267457 4.720528
3.327357 -3.248550 5.219864
3.318372 -3.239787 5.908288
3.307918 -3.229590 6.773804
3.243448 -3.767792 -0.035869
3.197094 -3.714025 0.517980
3.169755 -3.682306 1.574371
3.177850 -3.691689 2.230282
3.145283 -3.653914 2.581288
3.138812 -3.646400 3.564550
3.127724 -3.633533 4.277455
3.101640 -3.603274 4.905153
3.056312 -3.550699 5.280002
3.060713 -3.555796 6.068492
2.982703 -3.465311 6.774524
2.873885 -4.118692 0.217502
2.869180 -4.111951 1.077598
2.853473 -4.089472 1.631874
2.844400 -4.076481 2.569721
2.821107 -4.043150 2.983959
2.820978 -4.042954 3.946950
2.792393 -4.002050 4.543823
2.764369 -3.961948 5.079952
2.768739 -3.968194 5.751051
2.765920 -3.964152 6.551581
2.596827 -4.532604 0.387041
2.579184 -4.501855 1.053915
2.548396 -4.448205 1.408101
2.528074 -4.412787 2.061778
2.530728 -4.417404 2.814877
2.526661 -4.410309 3.517294
2.541734 -4.436560 4.401799
2.532669 -4.420757 5.150675
2.485722 -4.338951 5.508967
2.516905 -4.393275 6.422106
2.352953 -4.919448 0.661231
2.344245 -4.901263 1.547247
2.335767 -4.883562 2.095223
2.306951 -4.823420 2.567681
2.300364 -4.809663 3.246349
2.289121 -4.786190 3.929677
2.290080 -4.788181 4.714105
2.297204 -4.803038 5.473690
2.283969 -4.775410 6.024380
2.244134 -4.692267 6.732084
1.985148 -5.432483 0.893349
1.981291 -5.421944 1.300873
1.980485 -5.419726 2.187871
1.955076 -5.350333 2.549269
1.943264 -5.318061 3.285388
1.932730 -5.289284 3.917766
1.920932 -5.257052 4.618205
1.921321 -5.258103 5.291111
1.943656 -5.319081 6.232216
1.941978 -5.314488 6.842459
1.630717 -5.982542 0.523936
1.622224 -5.951445 1.188766
1.617112 -5.932722 1.837679
1.615471 -5.926700 2.487857
1.611433 -5.911908 3.167709
1.605774 -5.891183 3.887285
1.601885 -5.876931 4.717993
1.597356 -5.860344 5.258814
1.591264 -5.838036 5.858504
1.606723 -5.894587 6.802365
1.182206 -6.672858 0.574501
1.176386 -6.640097 1.176017
1.172331 -6.617268 1.753260
1.164201 -6.571505 2.541804
1.170177 -6.605094 3.431539
1.165883 -6.580928 3.660486
1.166161 -6.582457 4.630757
1.157835 -6.535602 5.140099
1.166373 -6.583603 5.991707
1.163732 -6.568731 6.432214
0.530539 -7.704748 0.299526
0.507482 -7.372282 1.059321
0.506451 -7.357397 1.320790
0.505849 -7.348662 2.071753
0.505887 -7.349152 2.723041
0.505740 -7.346958 3.453626
0.504920 -7.335085 4.172349
0.507948 -7.378674 4.818403
0.505774 -7.347301 5.246311
0.507298 -7.369199 6.058980
0.508125 -7.381066 6.731248
-0.123442 -7.595632 0.083793
-0.115772 -7.108581 0.899233
-0.115441 -7.087846 1.622132
-0.115431 -7.087352 2.039293
-0.115334 -7.081408 2.628464
-0.115871 -7.115906 3.489931
-0.116243 -7.139727 4.097552
-0.115685 -7.104500 4.568965
-0.115129 -7.069448 5.305124
-0.115054 -7.064948 5.981093
-0.114912 -7.056180 6.690290
-0.659237 -6.753314 0.934328
-0.658629 -6.747076 1.432160
-0.659197 -6.752963 1.998958
-0.661002 -6.771618 2.884942
-0.658494 -6.745805 3.380576
-0.660454 -6.766060 4.177587
-0.654644 -6.706205 4.474059
-0.648473 -6.642641 5.054709
-0.647740 -6.635143 5.888557
-0.645282 -6.609845 6.411398
-1.209575 -6.396668 0.925223
-1.208392 -6.390420 1.904077
-1.208425 -6.390611 2.286017
-1.207914 -6.387919 2.869181
-1.206379 -6.379793 3.533737
-1.198249 -6.336679 4.206433
-1.193264 -6.310257 4.899790
-1.193941 -6.313871 5.682847
-1.664195 -6.089747 1.026708
-1.670992 -6.114693 1.643813
-1.668631 -6.106049 2.307297
-1.655967 -6.059610 2.941690
-1.652913 -6.048419 3.567369
-1.640656 -6.003474 4.218549
-1.630857 -5.967546 4.846805
-1.630012 -5.964459 5.456339
-1.625766 -5.948898 6.072310
-1.623527 -5.940703 6.791995
-2.133545 -5.741538 0.481433
-2.123160 -5.713549 1.235321
-2.115857 -5.693868 1.841972
-2.120924 -5.707546 2.747668
-2.105338 -5.665530 3.335406
-2.104563 -5.663448 3.770562
-2.097171 -5.643529 4.397196
-2.084020 -5.608080 5.003514
-2.079676 -5.596379 5.691788
-2.084716 -5.609980 6.444221
-2.577851 -5.400542 0.905408
-2.601532 -5.450246 1.659272
-2.592581 -5.431471 2.153491
-2.553818 -5.350133 2.628484
-2.548521 -5.339028 3.313094
-2.561098 -5.365431 4.013893
-2.569658 -5.383405 4.889279
-2.539748 -5.320648 5.405673
-2.540951 -5.323181 6.132341
-2.551624 -5.345588 6.887855
-3.062378 -5.105649 0.677515
-3.062462 -5.105799 1.443351
-3.055751 -5.094601 2.114519
-3.024906 -5.043106 2.658982
-3.012479 -5.022363 3.221200
-3.040609 -5.069343 4.143360
-3.021400 -5.037276 4.785968
-2.977459 -4.963914 5.214883
-2.989327 -4.983740 6.075693
-2.994149 -4.991798 6.642458
-3.446644 -4.785924 0.291039
-3.437225 -4.772831 0.811284
-3.444777 -4.783342 1.763908
-3.459158 -4.803347 2.514071
-3.448127 -4.788013 2.888046
-3.457020 -4.800386 3.767514
-3.443190 -4.781162 4.378885
-3.432985 -4.766980 5.119682
-3.402686 -4.724856 5.717877
-3.389183 -4.706085 6.279393
-3.235336 -4.492166 6.989159
-3.983620 -4.459662 0.729705
-3.961869 -4.435286 1.285063
-3.971593 -4.446193 2.051353
-3.964963 -4.438769 2.901179
-3.947923 -4.419672 3.409913
-3.941041 -4.411964 4.178575
-3.928728 -4.398167 4.773498
-3.913197 -4.380763 5.427429
-3.924378 -4.393304 6.225128
-3.946025 -4.417576 6.887855
-4.301602 -4.150855 0.633058
-4.303495 -4.152692 1.477376
-4.290080 -4.139735 2.051353
-4.295226 -4.144713 2.811062
-4.301607 -4.150884 3.422232
-4.250351 -4.101363 3.902531
-4.248477 -4.099560 4.817534
-4.236646 -4.088134 5.506744
-4.249166 -4.100236 6.030837
-4.246338 -4.097508 6.534312
-4.819629 -3.823188 0.585927
-4.794871 -3.803528 1.234359
-4.787512 -3.797689 2.033077
-4.776802 -3.789187 2.544252
-4.765738 -3.780404 3.225174
-4.772339 -3.785651 3.764739
-4.765074 -3.779886 4.478021
-4.735570 -3.756456 5.074768
-4.736885 -3.757506 5.832203
-4.686219 -3.717266 6.298813
-5.224938 -3.495587 0.975301
-5.225941 -3.496263 1.620284
-5.273633 -3.528219 2.507127
-5.229237 -3.498481 3.046114
-5.182827 -3.467394 3.482998
-5.205925 -3.482874 4.328515
-5.282819 -3.534392 5.123534
-5.244820 -3.508939 5.604828
-5.161393 -3.453055 6.163633
-4.992273 -3.339764 7.035516
-5.754289 -3.157119 1.035915
-5.766172 -3.163650 1.389532
-5.749310 -3.154390 1.970109
-5.723042 -3.139961 2.597044
-5.760247 -3.160409 3.551305
-5.765546 -3.163326 4.215886
-5.736305 -3.147264 4.863476
-5.675106 -3.113643 5.220145
-5.691378 -3.122589 6.172134
-5.678764 -3.115662 6.607000
-6.294134 -2.765580 0.461635
-6.296148 -2.766473 1.384903
-6.305232 -2.770475 2.026761
-6.308284 -2.771822 2.730684
-6.341800 -2.786576 3.364529
-6.267211 -2.753754 3.754348
-6.275286 -2.757313 4.579673
-6.300611 -2.768462 5.240614
-6.219483 -2.732763 5.608255
-6.295155 -2.766070 6.559601
-7.081656 -2.382057 0.042241
-6.969457 -2.344256 0.639692
-6.929456 -2.330779 0.943988
-6.921194 -2.328001 1.856101
-6.909730 -2.324142 2.407295
-6.922524 -2.328457 3.119612
-6.931369 -2.331442 3.869342
-6.902592 -2.321749 4.396617
-6.905632 -2.322778 5.077762
-6.898314 -2.320315 5.478198
-6.919245 -2.327371 6.137267
-6.945238 -2.336136 7.100420
-6.867401 -1.643490 0.960116
-6.869400 -1.643973 1.614944
-6.823038 -1.632854 2.078213
-6.797333 -1.626691 2.713484
-6.800601 -1.627480 3.503880
-6.782771 -1.623206 3.980979
-6.744377 -1.613999 4.611460
-6.743059 -1.613689 5.539260
-6.707910 -1.605259 6.031184
-6.756799 -1.616993 6.892336
-6.463690 -0.949611 0.855416
-6.428026 -0.944352 1.271809
-6.422920 -0.943604 2.113127
-6.465624 -0.949907 2.683397
-6.417279 -0.942780 3.473210
-6.397649 -0.939887 3.949053
-6.469552 -0.950500 4.837578
-6.389049 -0.938626 5.124958
-6.407877 -0.941409 6.094300
-6.424128 -0.943811 6.802426
-6.072471 -0.317767 0.771232
-6.059388 -0.317077 1.166190
-6.030011 -0.315526 2.072900
-6.004053 -0.314153 2.418545
-5.987050 -0.313258 3.349347
-5.969698 -0.312343 4.072317
-5.918252 -0.309620 4.445940
-5.931230 -0.310312 5.208647
-5.926370 -0.310059 5.916112
-5.861297 -0.306616 6.504010
-5.669081 0.227860 0.372890
-5.706547 0.229336 0.975149
-5.654914 0.227293 1.572127
-5.650225 0.227103 2.329421
-5.658996 0.227445 3.043418
-5.624678 0.226086 3.683959
-5.558523 0.223469 4.179013
-5.585780 0.224541 5.082692
-5.536431 0.222588 5.556645
-5.582745 0.224412 6.496013
-5.246077 0.211109 7.087878
-5.522466 0.739779 0.133823
-5.353381 0.717247 0.554921
-5.327893 0.713846 1.379565
-5.330404 0.714177 1.926797
-5.333290 0.714557 2.682087
-5.289553 0.708725 3.300120
-5.259510 0.704718 3.938647
-5.270063 0.706120 4.602985
-5.221109 0.699594 5.123769
-5.175258 0.693480 5.907533
-5.147961 0.689838 6.696088
-5.056045 1.093908 0.315583
-5.074251 1.097828 1.152927
-5.022446 1.086657 1.669589
-5.015720 1.085203 2.375923
-5.035510 1.089464 3.209487
-4.979270 1.077338 3.625640
-4.987477 1.079101 4.513419
-4.936480 1.068105 5.028009
-4.885635 1.057140 5.648906
-4.887022 1.057434 6.490704
-4.766945 1.498643 0.172397
-4.759651 1.496350 1.087465
-4.760518 1.496618 1.704323
-4.733607 1.488178 2.087673
-4.730796 1.487291 3.027049
-4.660924 1.465381 3.556588
-4.654634 1.463404 4.349714
-4.676723 1.470325 5.050505
-4.623084 1.453504 5.646785
-4.646138 1.460727 6.478341
-4.547552 1.889562 0.445004
-4.540170 1.886497 1.153452
-4.486751 1.864348 1.574371
-4.426839 1.839505 2.198855
-4.476248 1.859983 3.174832
-4.442235 1.845878 3.785795
-4.353189 1.808958 4.241331
-4.362639 1.812869 5.208332
-4.359773 1.811676 5.950065
-4.340415 1.803648 6.388253
-4.223949 2.220353 0.173565
-4.211786 2.213967 0.885114
-4.237510 2.227458 1.650801
-4.260818 2.239680 2.481157
-4.192699 2.203939 3.065706
-4.167329 2.190625 3.769666
-4.163195 2.188452 4.354102
-4.157369 2.185390 5.193906
-4.127503 2.169718 5.762494
-4.161997 2.187810 6.397387
-3.944867 2.548597 0.009513
-3.952262 2.553361 0.767709
-3.935337 2.542440 1.610043
-3.933556 2.541289 2.031803
-3.931900 2.540214 3.006295
-3.886971 2.511237 3.491598
-3.872382 2.501823 4.217263
-3.853144 2.489413 4.798640
-3.858318 2.492743 5.651869
-3.702371 2.891674 0.292716
-3.690906 2.882731 0.887099
-3.691051 2.882838 1.573487
-3.706743 2.895067 2.342451
-3.677876 2.872556 2.841740
-3.664828 2.862376 3.702081
-3.646612 2.848170 4.150074
-3.621522 2.828601 4.853627
-3.616688 2.824825 5.775196
-3.604828 2.815572 6.526418
-3.509926 3.270246 0.228085
-3.462164 3.225813 0.840146
-3.435990 3.201463 1.289156
-3.406802 3.174306 2.005877
-3.413201 3.180251 2.823452
-3.372781 3.142649 3.317616
-3.364659 3.135087 4.125655
-3.387934 3.156731 4.923294
-3.355117 3.126199 5.606045
-3.321263 3.094703 6.209856
-3.164484 2.948861 7.064861
-3.225417 3.550721 0.173435
-3.182370 3.503403 0.876650
-3.164402 3.483650 1.526651
-3.149888 3.467693 2.059221
-3.142998 3.460115 2.629423
-3.130122 3.445956 3.516453
-3.105059 3.418405 4.076827
-3.101029 3.413970 4.795107
-3.082712 3.393833 5.446166
-2.924870 3.864448 0.018565
-2.899350 3.830780 0.719887
-2.904443 3.837487 1.658671
-2.875817 3.799724 2.145798
-2.835101 3.746011 2.912719
-2.836291 3.747572 3.696596
-2.807302 3.709330 4.147006
-2.827623 3.736125 5.120808
-2.855302 3.772627 5.863572
-2.860891 3.779994 6.465702
-2.716049 4.342380 -0.143944
-2.639557 4.220284 0.643644
-2.641511 4.223393 1.523186
-2.643560 4.226657 2.058936
-2.645153 4.229192 2.787127
-2.637503 4.216974 3.437269
-2.599815 4.156816 3.931737
-2.560027 4.093303 4.532381
-2.580630 4.126177 5.465816
-2.564303 4.100112 6.023564
-2.553153 4.082307 6.839362
-2.348081 4.609893 1.333932
-2.338980 4.592050 1.939984
-2.334626 4.583510 2.538200
-2.316695 4.548367 2.968325
-2.329597 4.573635 3.959455
-2.321745 4.558243 4.419842
-2.320427 4.555651 5.101725
-2.293372 4.502624 5.816521
-2.281516 4.479380 6.626443
-2.026516 5.084007 0.312716
-2.020772 5.069617 0.848735
-2.012167 5.048062 1.574051
-2.006360 5.033515 2.175679
-1.985896 4.982271 2.773672
-1.981993 4.972486 3.688001
-1.979707 4.966754 4.261349
-1.970015 4.942481 4.803777
-1.975731 4.956775 5.692988
-1.977900 4.962195 6.414582
-1.879521 4.715889 6.870492
-1.655297 5.609411 0.362062
-1.652974 5.601542 1.103764
-1.646867 5.580882 1.750338
-1.634648 5.539567 2.267450
-1.628315 5.518144 2.927949
-1.619876 5.489600 3.628444
-1.618472 5.484841 4.213107
-1.608531 5.451221 5.031827
-1.613262 5.467193 5.885814
-1.607533 5.447815 6.449876
-1.273672 6.201048 0.756540
-1.271784 6.191868 1.252747
-1.261968 6.144214 1.804405
-1.254476 6.107832 2.384253
-1.260501 6.137049 3.286067
-1.262148 6.145020 4.017286
-1.245663 6.065002 4.356045
-1.247152 6.072195 5.399790
-1.239742 6.036216 5.910477
-1.234688 6.011670 6.441026
-0.761545 7.461343 0.469166
-0.708563 6.944881 0.766651
-0.702994 6.890559 1.365639
-0.704716 6.907302 2.117294
-0.700618 6.867333 2.583462
-0.699159 6.853067 3.239163
-0.702814 6.888641 4.178158
-0.699062 6.852033 4.801785
-0.690502 6.768554 5.377014
-0.685741 6.722124 5.827335
-0.690494 6.768399 6.700004
-0.177137 7.894647 0.082971
-0.175465 7.821645 0.356524
-0.174769 7.791116 1.145076
-0.174603 7.783744 1.544215
-0.174810 7.792565 2.443093
-0.174701 7.787646 2.953308
-0.174003 7.757062 3.602864
-0.173283 7.725498 4.147009
-0.173202 7.721820 4.809727
-0.174291 7.769061 5.673725
-0.172605 7.695449 5.954687
-0.171626 7.652587 6.614239
0.519064 7.755895 0.323924
0.520156 7.772392 1.053867
0.519114 7.756735 1.295368
0.517917 7.738791 2.270806
0.514724 7.690751 2.609112
0.514814 7.692178 3.389724
0.517349 7.730419 4.110425
0.515941 7.709258 4.664620
0.512505 7.657590 5.279242
0.510149 7.622166 5.784576
0.512658 7.660008 6.600625
1.213650 7.651051 -0.107608
1.163309 7.332682 0.419962
1.161240 7.319613 0.949328
1.158096 7.299754 1.656917
1.159353 7.307730 2.187674
1.160172 7.312934 2.863625
1.154803 7.279002 3.504070
1.152102 7.261938 3.984022
1.154400 7.276501 4.797047
1.139236 7.180612 5.288389
1.147456 7.232627 5.861865
1.162991 7.330916 6.840391
1.827004 7.218956 -0.049968
1.748044 6.906289 0.398635
1.741465 6.880256 1.264718
1.743277 6.887448 1.902012
1.741514 6.880482 2.507645
1.744113 6.890790 3.173620
1.731092 6.839236 3.608726
1.729656 6.833568 4.351864
1.719733 6.794286 4.765826
1.728442 6.828796 5.730189
1.712942 6.767424 6.068077
1.704795 6.735182 6.892336
2.301388 6.542917 0.946919
2.297740 6.532535 1.331528
2.301559 6.543426 2.015007
2.291662 6.515248 2.626130
2.272069 6.459453 3.079344
2.280881 6.484565 3.985085
2.278462 6.477685 4.490637
2.271591 6.458128 5.176357
2.283179 6.491148 5.945806
2.256516 6.415215 6.441476
2.820453 6.176590 1.079941
2.817072 6.169180 1.492132
2.817051 6.169146 2.317637
2.814186 6.162871 2.844388
2.792469 6.115247 3.334431
2.791720 6.113613 3.969684
2.806562 6.146176 4.602706
2.811149 6.156248 5.462609
2.777437 6.082315 5.858190
2.763056 6.050783 6.463021
3.291186 5.900627 0.789324
3.252504 5.831189 1.385142
3.231212 5.792970 1.974055
3.239256 5.807422 2.847054
3.229033 5.789076 3.396623
3.258856 5.842626 4.122050
3.244352 5.816594 4.634392
3.209898 5.754744 5.156756
3.225094 5.782037 6.048777
3.204728 5.745482 6.603854
3.750074 5.449553 1.085955
3.741995 5.437806 1.855000
3.758649 5.462046 2.623305
3.744544 5.441528 3.172712
3.764711 5.470881 3.936045
3.738641 5.432952 4.353814
3.706583 5.386315 4.996815
3.677617 5.344174 5.600476
4.225609 5.133163 0.370316
4.220381 5.126812 1.093701
4.233679 5.142994 2.024096
4.210353 5.114630 2.554432
4.207681 5.111387 3.319134
4.214664 5.119886 3.858585
4.188503 5.088072 4.319340
4.168358 5.063581 5.277003
4.132857 5.020407 5.686928
4.195601 5.096727 6.590127
4.705293 4.740219 0.688069
4.696584 4.731439 1.127230
4.708908 4.743877 1.988122
4.689047 4.723849 2.629836
4.654588 4.689097 2.929090
4.678359 4.713079 3.726501
4.668427 4.703069 4.577770
4.611103 4.645256 5.039977
4.585467 4.619405 5.578846
5.300499 4.322850 1.069671
5.261674 4.291154 1.646319
5.261999 4.291423 2.076047
5.263121 4.292344 2.747938
5.229745 4.265097 3.340373
5.216958 4.254663 4.247551
5.261510 4.291046 4.983535
5.245490 4.277970 5.612650
5.191691 4.234045 5.926921
5.183956 4.227735 6.643566
5.740214 3.924921 0.673547
5.737255 3.922900 1.338985
5.744655 3.927970 1.979325
5.742333 3.926385 2.621948
5.753890 3.934302 3.299577
5.734487 3.921023 3.759502
5.701190 3.898233 4.415289
5.726395 3.915494 5.266463
5.747624 3.930032 5.974410
5.648622 3.862260 6.272571
6.297370 3.647930 0.615952
6.314155 3.657670 1.256591
6.297915 3.648255 1.874464
6.275100 3.635025 2.232059
6.262458 3.627697 2.955824
6.240955 3.615229 3.444976
6.233470 3.610893 4.192457
6.228485 3.608008 5.005402
6.270901 3.632614 5.727772
6.315796 3.658657 6.383121
6.193851 3.587932 6.801558
6.937795 3.094389 0.067103
6.948332 3.099100 0.843068
6.973676 3.110424 1.551822
6.967360 3.107608 2.246762
6.966851 3.107384 2.842790
6.940837 3.095769 3.309006
6.951475 3.100526 4.222260
6.898090 3.076685 4.520253
6.888096 3.072224 5.095764
6.929833 3.090871 5.915430
6.944394 3.097379 6.616479
7.522687 2.711792 0.033283
7.430667 2.678572 0.363906
7.456775 2.688004 1.346773
7.483218 2.697554 1.874853
7.463012 2.690261 2.290801
7.457408 2.688243 3.073328
7.443026 2.683053 3.400660
7.431612 2.678937 4.115146
7.404588 2.669183 4.617112
7.469475 2.692616 5.625142
7.480338 2.696542 6.205322
7.466298 2.691477 6.847479
7.475623 1.937197 0.249663
7.117118 1.844104 0.589224
7.085710 1.835952 1.196635
7.105883 1.841196 2.065014
7.098471 1.839275 2.624254
7.084475 1.835645 3.262798
7.032260 1.822088 3.678509
6.986963 1.810330 4.293858
7.002468 1.814361 5.068980
7.029105 1.821282 5.803716
7.043812 1.825106 6.519773
6.714319 1.146137 0.967822
6.669115 1.138398 1.664771
6.675527 1.139500 2.180544
6.621777 1.130296 2.763060
6.590595 1.124959 3.460028
6.563829 1.120380 4.266185
6.504966 1.110301 4.898971
6.560206 1.119767 5.544236
6.513343 1.111742 5.979875
6.480088 1.106052 6.938615
6.265095 0.405518 0.653278
6.231137 0.403302 1.203412
6.200646 0.401312 1.641532
6.164926 0.398982 2.283204
6.145286 0.397702 2.961900
6.157225 0.398488 3.790942
6.095089 0.394430 4.296164
6.078466 0.393348 5.049463
6.119997 0.396068 5.888783
6.056257 0.391905 6.354528
5.878233 -0.052853 0.670277
5.847310 -0.052592 1.297867
5.803111 -0.052220 1.919556
5.765413 -0.051903 2.472657
5.794245 -0.052137 3.352366
5.787534 -0.052078 3.961723
5.740304 -0.051681 4.561764
5.705623 -0.051388 5.173643
5.716187 -0.051472 5.974411
5.692180 -0.051268 6.511937
5.544236 -0.551520 0.071544
5.500502 -0.547197 0.632990
5.502078 -0.547347 1.462357
5.449400 -0.542142 1.894168
5.410737 -0.538318 2.758425
5.362799 -0.533579 3.321965
5.346122 -0.531928 4.067006
5.339823 -0.531301 4.769691
5.371587 -0.534435 5.461371
5.357328 -0.533022 6.100378
5.252513 -0.522666 6.735045
5.171909 -1.021783 0.153011
5.156562 -1.018758 0.800021
5.135704 -1.014649 1.592638
5.125485 -1.012634 2.269857
5.110090 -1.009599 3.013371
5.080228 -1.003720 3.470717
5.067147 -1.001141 4.220814
5.062888 -1.000298 4.919189
5.056523 -0.999041 5.668803
5.038033 -0.995399 6.267890
4.901584 -1.396830 0.117718
4.961549 -1.413863 0.910569
4.973238 -1.417179 1.812445
4.942947 -1.408568 2.484114
4.906624 -1.398244 2.941251
4.848257 -1.381654 3.823742
4.790458 -1.365228 4.161485
4.772896 -1.360233 4.948645
4.767329 -1.358646 5.702622
4.719570 -1.345072 6.273491
4.616300 -1.766553 1.188861
4.589802 -1.756433 1.690015
4.579009 -1.752309 2.328497
4.581812 -1.753373 3.260891
4.543978 -1.738925 3.825613
4.459912 -1.706827 4.326205
4.490780 -1.718606 5.260547
4.447056 -1.701910 5.745558
4.503265 -1.723364 6.620122
4.197931 -2.049519 -0.017908
4.322157 -2.110034 0.938421
4.354036 -2.125563 1.256102
4.320966 -2.109447 2.033344
4.268462 -2.083863 2.632679
4.281514 -2.090216 3.597211
4.267940 -2.083598 4.320294
4.210106 -2.055419 4.775367
4.193306 -2.047229 5.479895
3.956418 -2.394131 0.439861
4.076293 -2.466527 1.094830
4.057470 -2.455155 1.753631
4.036535 -2.442504 2.543352
4.006350 -2.424270 3.024574
3.993492 -2.416499 3.857562
3.946313 -2.387999 4.431112
3.914607 -2.368845 5.062576
3.928391 -2.377164 5.935287
3.942696 -2.385799 6.700542
3.685661 -2.704574 0.009548
3.753968 -2.754603 0.805442
3.810348 -2.795896 1.406862
3.790979 -2.781702 2.324183
3.770774 -2.766897 2.960592
3.790036 -2.781000 3.705731
3.745973 -2.748722 4.101263
3.679549 -2.700060 4.811346
3.662672 -2.687693 5.500056
3.715942 -2.726706 6.443629
3.508763 -3.085384 0.238081
3.628930 -3.190869 0.846735
3.627799 -3.189871 1.511860
3.572235 -3.141090 2.009027
3.536819 -3.109993 2.755337
3.568316 -3.137636 3.709354
3.483325 -3.063023 4.037210
3.495022 -3.073285 4.910519
3.490060 -3.068922 5.671025
3.430034 -3.016224 6.223663
3.344672 -3.516800 0.673345
3.318891 -3.489731 1.138710
3.330132 -3.501524 2.013628
3.308276 -3.478575 2.637863
3.276104 -3.444797 3.248155
3.241127 -3.408072 3.946059
3.244151 -3.411238 4.930676
3.246297 -3.413486 5.594611
3.208270 -3.373562 6.008930
3.150792 -3.313217 6.774524
3.076767 -3.877797 0.490003
3.068632 -3.867555 1.016543
3.054257 -3.849460 1.680939
3.038786 -3.829984 2.484682
3.001130 -3.782594 3.240905
2.966156 -3.738580 3.891711
2.981655 -3.758075 4.675773
2.941174 -3.707134 5.095004
2.980287 -3.756340 6.077998
2.967540 -3.740295 6.638965
2.801744 -4.257356 0.045506
2.779234 -4.223200 0.777764
2.780315 -4.224832 1.546863
2.763426 -4.199204 2.310731
2.768114 -4.206307 3.038334
2.766797 -4.204302 3.751400
2.754977 -4.186363 4.396889
2.726009 -4.142413 4.921454
2.711817 -4.120873 5.856271
2.692741 -4.091928 6.359866
2.535047 -4.707385 0.063079
2.515888 -4.671860 0.798807
2.501348 -4.644901 1.383764
2.491501 -4.626640 1.961075
2.473650 -4.593543 2.514470
2.472240 -4.590918 3.330600
2.460728 -4.569571 4.016525
2.446704 -4.543566 4.744397
2.441744 -4.534361 5.493422
2.444868 -4.540143 6.245214
2.410584 -4.476585 6.784165
2.204023 -5.152283 0.693756
2.199103 -5.140797 1.138963
2.184078 -5.105729 1.925443
2.185776 -5.109679 2.694535
2.164282 -5.059521 3.202400
2.155058 -5.037986 4.117172
2.136083 -4.993706 4.696369
2.122294 -4.961525 5.296322
2.158689 -5.046427 6.117782
2.153037 -5.033232 6.694956
1.857503 -5.684179 0.738491
1.849239 -5.658932 1.434558
1.838568 -5.626345 1.753742
1.844422 -5.644201 2.742864
1.819647 -5.568543 3.238839
1.798849 -5.505026 3.782005
1.796486 -5.497798 4.510613
1.790486 -5.479468 5.064583
1.804585 -5.522496 6.066861
1.787730 -5.471023 6.572905
1.454154 -6.325875 1.107543
1.443069 -6.277769 1.690621
1.429644 -6.219509 2.329716
1.422562 -6.188772 2.865335
1.424228 -6.195979 3.671938
1.425374 -6.200932 4.315082
1.413842 -6.150888 4.836787
1.412748 -6.146126 5.435337
1.422722 -6.189372 6.361973
1.380360 -6.005577 6.928278
0.962109 -7.007830 0.356840
0.959011 -6.985314 1.351691
0.958126 -6.978874 1.726690
0.953453 -6.944952 2.352115
0.954214 -6.950430 3.251810
0.953593 -6.945899 3.872621
0.955168 -6.957292 4.520368
0.950312 -6.922046 4.952192
0.944042 -6.876541 5.581884
0.950185 -6.921063 6.474410
0.926224 -6.747226 6.850802
0.353164 -7.413123 -0.024831
0.352258 -7.394245 0.613462
0.350772 -7.363308 1.245138
0.349885 -7.344823 1.869925
0.349223 -7.331013 2.394998
0.347186 -7.288636 3.052207
0.347412 -7.293230 3.776681
0.348873 -7.323468 4.561505
0.346995 -7.284428 4.964180
0.350732 -7.361881 5.974937
-0.286481 -6.996848 0.621429
-0.285862 -6.981575 0.996472
-0.285722 -6.978270 1.977744
-0.284730 -6.953768 2.347357
-0.283432 -6.921695 2.864976
-0.284721 -6.953721 3.654313
-0.284530 -6.949080 4.217450
-0.285651 -6.976973 5.083835
-0.283353 -6.920135 5.496627
-0.282962 -6.910557 6.257859
-0.272783 -6.658609 6.765713
-0.871110 -6.623158 0.739638
-0.872349 -6.632657 1.651554
-0.873010 -6.637734 2.151374
-0.872130 -6.631051 2.990913
-0.864293 -6.571209 3.388014
-0.860978 -6.545927 4.028409
-0.866618 -6.589042 4.874103
-0.855669 -6.505437 5.294258
-0.859025 -6.531111 6.269902
-0.864338 -6.571723 6.953728
-1.396377 -6.280462 0.884103
-1.395186 -6.275106 1.422109
-1.405462 -6.321480 2.244565
-1.390681 -6.254821 2.659278
-1.386794 -6.237309 3.510121
-1.375960 -6.188461 4.141392
-1.370684 -6.164678 4.693974
-1.356498 -6.100708 5.247966
-1.362700 -6.128704 5.988107
-1.373753 -6.178583 6.873905
-1.881768 -5.912083 0.707161
-1.887724 -5.930849 1.326430
-1.886446 -5.926840 2.166298
-1.868975 -5.871844 2.723802
-1.868403 -5.870057 3.482387
-1.868448 -5.870211 4.120274
-1.856008 -5.831052 4.562062
-1.859348 -5.841587 5.591406
-1.852465 -5.819930 6.292329
-1.843629 -5.792115 6.653537
-2.336770 -5.589442 0.868244
-2.331403 -5.576587 1.210939
-2.330166 -5.573636 2.116747
-2.307055 -5.518265 2.659568
-2.306120 -5.516035 3.431018
-2.318185 -5.544955 3.925645
-2.324413 -5.559891 4.790318
-2.290406 -5.478409 5.199850
-2.282725 -5.460014 5.964640
-2.317424 -5.543176 6.805549
-2.777598 -5.258228 1.276268
-2.780300 -5.263358 1.901890
-2.761939 -5.228551 2.434843
-2.759532 -5.223999 3.233856
-2.762583 -5.229789 3.758711
-2.752010 -5.209751 4.378885
-2.750847 -5.207554 5.054107
-2.760369 -5.225620 5.920622
-2.723508 -5.155732 6.309945
-3.198236 -4.986972 0.431631
-3.193647 -4.979813 1.118814
-3.187150 -4.969672 1.445587
-3.189713 -4.973684 2.373211
-3.164405 -4.934168 2.731583
-3.148587 -4.909477 3.473382
-3.152873 -4.916177 4.179380
-3.166920 -4.938120 4.904277
-3.167340 -4.938785 5.682733
-3.119622 -4.864274 6.036105
-3.065819 -4.780268 6.819579
-3.654274 -4.675343 0.898015
-3.659884 -4.682540 1.734795
-3.656312 -4.677966 2.061738
-3.637997 -4.654511 2.967303
-3.633023 -4.648144 3.626627
-3.608380 -4.616579 4.132088
-3.598862 -4.604391 4.754341
-3.555641 -4.549023 5.280758
-3.550619 -4.542596 5.965366
-3.571424 -4.569259 6.785088
-4.117634 -4.406023 0.763661
-4.124831 -4.413736 1.123253
-4.104312 -4.391761 2.039400
-4.055915 -4.339910 2.459353
-4.058329 -4.342504 3.336929
-4.075638 -4.361056 4.002017
-4.060099 -4.344410 4.407351
-4.039489 -4.322335 5.221436
-4.034155 -4.316627 5.911817
-4.056862 -4.340962 6.608539
-4.519452 -4.040611 1.008465
-4.493439 -4.017331 1.897474
-4.494979 -4.018715 2.637910
-4.481927 -4.007036 3.267778
-4.412965 -3.945304 3.579829
-4.412724 -3.945095 4.393132
-4.419290 -3.950977 4.975992
-4.428200 -3.958960 5.806075
-4.408236 -3.941093 6.339619
-4.910494 -3.687287 1.111020
-4.925661 -3.698694 1.565470
-4.922690 -3.696466 2.328673
-4.932926 -3.704168 3.075464
-4.937253 -3.707428 3.825875
-4.920149 -3.694571 4.441449
-4.880764 -3.664962 4.966826
-4.907248 -3.684882 5.770645
-5.458384 -3.356642 0.850123
-5.458286 -3.356586 1.518593
-5.484494 -3.372729 2.064491
-5.441260 -3.346111 2.722089
-5.435820 -3.342767 3.660398
-5.409938 -3.326832 4.033977
-5.403936 -3.323142 4.885162
-5.385962 -3.312079 5.530976
-5.374583 -3.305075 6.018284
-5.364743 -3.299021 6.726095
-5.988230 -2.989306 1.160702
-5.975220 -2.982807 1.893583
-5.973673 -2.982038 2.576188
-5.960270 -2.975340 2.976076
-5.922997 -2.956710 3.545725
-5.967718 -2.979074 4.527611
-5.932366 -2.961403 4.938187
-5.899584 -2.945019 5.483958
-5.911180 -2.950821 6.239196
-5.747646 -2.869072 7.071463
-6.568775 -2.571365 0.688377
-6.546000 -2.562440 1.437775
-6.517218 -2.551158 1.806033
-6.541436 -2.560658 2.539176
-6.537916 -2.559283 3.302825
-6.554958 -2.565970 4.093640
-6.518638 -2.551732 4.540972
-6.527289 -2.555129 5.245498
-6.480642 -2.536842 5.684137
-6.548788 -2.563568 6.695541
-7.170393 -2.011072 0.184832
-7.177632 -2.013109 0.704688
-7.184735 -2.015111 1.577460
-7.201492 -2.019824 2.257758
-7.187335 -2.015849 2.697482
-7.165357 -2.009675 3.241276
-7.173594 -2.011996 4.150560
-7.147751 -2.004737 4.668062
-7.089047 -1.988241 5.082422
-7.131058 -2.000054 6.028968
-7.038051 -1.973917 6.310693
-6.704232 -1.290169 0.599251
-6.694969 -1.288384 1.156100
-6.706577 -1.290630 1.910249
-6.714976 -1.292254 2.399484
-6.686943 -1.286848 3.204087
-6.630320 -1.275920 3.600387
-6.608366 -1.271686 4.230389
-6.539226 -1.258344 4.960126
-6.569133 -1.264123 5.875375
-6.254601 -0.645109 1.018811
-6.255336 -0.645189 1.637688
-6.245937 -0.644215 1.917571
