0.082681 0.668086 9.381495
-0.312143 1.555905 -0.670534
-0.457425 1.795694 -0.270047
-0.404062 1.686253 0.287184
-0.354593 1.583472 0.847434
-0.307233 1.489647 1.233034
-0.530092 1.835776 2.562698
-0.690449 2.102537 2.935787
-0.705962 2.115284 3.402364
-0.532593 1.794459 4.067722
-0.256438 1.299957 4.582495
-0.232065 1.242958 5.068144
-0.225920 1.188142 6.523882
-0.213204 1.151183 7.015349
-0.358863 1.387424 7.554316
-0.344141 1.349695 7.956458
-0.340049 1.327659 8.448967
-0.210938 1.081722 9.175596
-0.325431 1.420346 -1.551243
-0.201481 1.222693 -1.086795
-0.301705 1.356506 -0.507130
-0.519337 1.670312 -0.101839
-0.460068 1.566624 0.457292
-0.460820 1.552405 1.020738
-0.463853 1.546412 1.407158
-0.659511 1.799917 2.822550
-0.727606 1.891232 3.201793
-0.519093 1.538212 4.736740
-0.226849 1.082737 5.444482
0.029097 0.691118 5.796719
0.055794 0.640199 6.203411
-0.147428 0.931275 6.653537
-0.298140 1.143847 7.108355
-0.388296 1.268208 7.483201
-0.452347 1.345988 8.137881
-0.413057 1.268611 8.825886
-0.065516 0.738266 9.252012
-0.366522 1.251691 -0.644064
-0.613143 1.546760 -0.325760
-0.606543 1.527290 0.148155
-0.603186 1.507546 0.799354
-0.540676 1.423718 1.095357
-0.815414 1.726942 2.512233
-0.899005 1.814133 3.154560
-0.657216 1.480593 4.686949
-0.379695 1.125382 5.294548
-0.219677 0.918905 5.714239
-0.077439 0.729776 6.320450
-0.166282 0.831824 6.612174
-0.398377 1.106063 7.055562
-0.508668 1.230290 7.520117
-0.550169 1.271920 7.908127
-0.542279 1.250412 8.400958
-0.301653 0.939354 9.055808
-0.139735 0.897000 -1.366583
-0.680189 1.456750 -1.012584
-0.869288 1.640675 -0.346046
-0.859877 1.618487 0.213941
-0.719817 1.466968 0.416139
-0.649242 1.376614 1.155351
-0.719444 1.445719 1.365298
-0.590162 1.295589 2.019326
-0.741304 1.441978 2.580194
-1.094929 1.807140 2.861364
-0.971189 1.668642 3.250825
-0.785477 1.462932 3.737524
-0.682899 1.340614 4.401995
-0.587927 1.226159 5.072139
-0.432603 1.030565 6.550611
-0.384739 0.975382 6.774632
-0.521503 1.104799 7.420726
-0.497494 1.070698 7.825283
-0.623080 1.192402 8.288205
-0.573082 1.124725 8.978768
-0.560411 1.190208 -0.839749
-0.837620 1.424227 -0.073794
-0.830263 1.407864 0.403689
-0.827084 1.395262 0.881333
-0.753772 1.319508 1.358576
-0.830857 1.382786 1.659707
-0.471235 1.045387 2.323859
-1.160209 1.652366 2.984433
-1.253586 1.726969 3.449637
-0.985153 1.473402 4.029840
-0.649095 1.158566 4.628136
-0.474572 0.987461 5.311675
-0.269898 0.798233 5.552451
-0.164097 0.692642 6.058143
-0.292965 0.797186 6.622402
-0.554780 1.025733 6.976880
-0.692761 1.138678 7.531608
-0.605136 1.049390 8.040533
-0.680697 1.105845 8.608879
-0.397796 0.837648 9.267629
-0.273579 0.856282 -1.230407
-0.900052 1.328518 -0.965511
-1.121542 1.487884 -0.473268
-1.027769 1.405806 0.085068
-0.941035 1.330719 0.557932
-0.858730 1.258958 1.033282
-0.939327 1.312942 1.422726
-0.551941 1.003525 2.172586
-1.286564 1.550487 2.839959
-1.225631 1.494996 3.316012
-1.020196 1.325796 3.982068
-0.817550 1.160243 4.568171
-0.535582 0.935654 5.081009
-0.401700 0.827519 5.403088
-0.286295 0.729962 5.908875
-0.333634 0.756763 6.395187
-0.631906 0.973774 6.932110
-0.688728 1.007896 7.413392
-0.738297 1.038207 7.804606
-0.724904 1.018554 8.300619
-0.601014 0.908900 9.102038
-0.602285 1.005700 -1.431921
-0.739595 1.082180 -0.758831
-0.899596 1.181429 -0.536103
-1.049068 1.265938 0.127064
-0.961003 1.205357 0.334630
-0.954009 1.187429 1.078364
-0.954901 1.180993 1.467127
-0.790889 1.068101 1.857355
-0.966046 1.174163 2.244644
-1.324150 1.392126 2.974250
-1.340210 1.395554 3.358895
-1.359357 1.400977 3.743377
-1.141458 1.249880 4.323521
-0.672837 0.937998 4.846465
-0.552159 0.849472 5.436327
-0.346343 0.707350 5.951280
-0.312694 0.676652 6.449234
-0.627565 0.870169 6.987160
-0.759014 0.948176 7.365893
-0.798397 0.968148 7.667866
-0.725377 0.908558 8.358832
-0.702136 0.886182 8.767828
-0.780631 1.006175 -1.573439
-0.842241 1.030667 -1.086632
-0.725879 0.957398 -0.433287
-0.804270 0.993943 -0.127238
-1.054390 1.115871 0.539170
-1.050201 1.106974 0.927169
-1.049526 1.098425 1.404008
-0.966892 1.044630 1.970656
-1.065224 1.088893 2.446449
-1.512191 1.323849 2.643421
-1.529189 1.324828 3.114170
-1.477325 1.284483 3.853096
-1.148988 1.102359 4.263200
-0.750150 0.879307 4.867462
-0.614673 0.798491 5.366779
-0.379331 0.667282 5.699612
-0.428119 0.684953 6.185483
-0.765543 0.854100 6.813159
-0.814192 0.873321 7.204477
-0.953320 0.941048 7.580704
-0.934441 0.922496 8.074739
-0.775898 0.825789 8.783227
-0.587118 0.818678 -1.587163
-1.095750 1.023966 -0.797502
-1.174399 1.052688 -0.492174
-1.068570 1.000928 -0.107894
-1.054261 0.985430 0.459508
-1.047838 0.974780 0.938129
-0.954683 0.926908 1.416487
-0.959893 0.919759 1.985603
-1.243221 1.035057 2.368176
-1.621614 1.191302 2.742036
-1.639635 1.191297 3.211377
-1.484114 1.115185 3.779045
-1.067387 0.925068 4.461457
-0.554773 0.696376 4.987415
-0.414204 0.627768 5.489182
-0.380089 0.603463 6.075140
-0.605978 0.694296 6.446257
-0.846017 0.789796 6.902726
-0.884770 0.801476 7.203079
-0.938081 0.817936 7.592490
-0.945229 0.809913 8.265026
-0.826932 0.752163 8.688019
-0.701631 0.771162 -0.798282
-0.866641 0.817064 -0.217080
-1.138638 0.901630 0.183939
-1.033488 0.858871 0.658889
-1.123282 0.881243 1.138366
-0.935342 0.807894 1.794849
-0.753292 0.739285 2.277981
-1.232350 0.896299 2.479041
-1.633464 1.020263 3.117008
-1.565655 0.988571 3.681074
-1.499476 0.958794 4.159346
-1.040827 0.801509 4.402335
-0.620053 0.649603 5.101585
-0.561336 0.623526 5.504461
-0.619822 0.633909 6.078907
-0.873861 0.710118 6.626946
-1.005462 0.749543 6.914248
-1.082288 0.766181 7.481111
-1.086945 0.757023 8.151719
-1.027071 0.733386 8.377721
-0.782272 0.638447 9.195220
-0.498816 0.658871 -1.350650
-0.650612 0.685108 -0.584186
-1.202893 0.811576 0.220076
-1.092600 0.773620 0.872139
-1.186259 0.789736 1.349739
-0.992983 0.736416 1.648116
-0.806172 0.680465 2.219009
-1.302763 0.798189 2.685675
-1.607004 0.868927 3.060327
-1.531550 0.842497 3.536052
-1.467166 0.817441 4.102236
-1.120508 0.720929 4.693628
-0.654265 0.599645 4.943713
-0.609181 0.579201 5.525634
-0.745325 0.607505 5.907710
-1.012948 0.664928 6.544495
-1.181852 0.698796 7.098248
-1.223241 0.704559 7.396234
-1.211770 0.692612 7.975927
-1.128059 0.660798 8.663237
-0.799125 0.572211 9.032974
-0.804581 0.638532 -0.514338
-1.263831 0.696460 0.461940
-1.157526 0.673674 0.847050
-1.251760 0.679940 1.413708
-1.153728 0.659800 1.712026
-0.766056 0.589459 2.285354
-1.071782 0.632109 2.668830
-1.581854 0.706047 3.127495
-1.406510 0.670815 3.609547
-1.248612 0.635552 4.274051
-0.981393 0.586844 4.683712
-0.734333 0.538487 5.279130
-0.664695 0.522653 5.590556
-1.019503 0.570699 6.130268
-1.163092 0.587708 6.507332
-1.223989 0.590060 6.984121
-1.303396 0.593998 7.549106
-1.293054 0.583460 8.128847
-1.065392 0.540614 8.565773
-0.664475 0.468255 9.133586
-0.711418 0.575571 -1.473808
-1.182473 0.605509 -1.047583
-1.341898 0.606339 -0.291289
-1.329786 0.600851 0.008135
-1.217680 0.586324 0.393754
-1.205027 0.575357 1.050908
-1.202578 0.566534 1.618973
-1.205448 0.560834 2.008604
-1.016926 0.537551 2.581559
-1.125481 0.541422 2.879056
-1.650525 0.572387 3.512268
-1.477545 0.551652 3.996690
-1.092875 0.518346 4.231410
-0.751713 0.480112 5.011731
-0.605630 0.459815 5.604136
-0.636616 0.457594 5.907815
-0.977268 0.478462 6.267532
-1.233279 0.491336 6.722653
-1.321902 0.488229 7.377814
-1.182222 0.471087 7.795190
-1.174687 0.461640 8.378419
-0.963085 0.437219 8.908920
-0.433837 0.516100 -1.217170
-0.803556 0.509176 -0.706073
-1.079565 0.502247 -0.208333
-1.467414 0.498310 0.108286
-1.253263 0.490678 0.580494
-1.242822 0.480685 1.238399
-1.241575 0.476120 1.539512
-1.243259 0.470208 1.929843
-1.150450 0.462704 2.411421
-1.266221 0.454377 2.977896
-1.394225 0.444776 3.630208
-1.316041 0.438620 4.025016
-0.955404 0.428770 4.622161
-0.802781 0.419489 5.212206
-0.822270 0.416288 5.426327
-1.088662 0.407145 6.068705
-1.332173 0.402111 6.436559
-1.403787 0.393699 7.002199
-1.358422 0.387516 7.403532
-1.317015 0.381322 7.806220
-1.210377 0.372012 8.404927
-0.997947 0.363494 8.935918
-0.267756 0.493002 -1.093316
-0.641981 0.455866 -0.671712
-1.020396 0.418499 -0.257529
-1.499419 0.371583 0.241384
-1.390842 0.375981 0.538400
-1.280255 0.376452 1.104575
-1.277184 0.368056 1.673341
-1.281997 0.359013 2.242086
-1.292181 0.350888 2.721517
-1.301439 0.345551 3.022478
-1.329356 0.333264 3.679834
-1.251413 0.333645 4.075680
-1.084216 0.339858 4.569931
-0.816231 0.355523 4.986710
-0.767801 0.350613 5.571151
-1.005589 0.325406 5.944943
-1.366526 0.287620 6.481067
-1.426251 0.275447 6.959151
-1.405701 0.268307 7.539727
-1.351800 0.267940 7.854917
-1.260682 0.264937 8.544400
-0.968658 0.279168 9.185391
-0.322217 0.469513 -1.299015
-0.886802 0.368054 -0.863863
-1.250100 0.297962 -0.271045
-1.523163 0.243229 0.307938
-1.418194 0.257649 0.516157
-1.309084 0.268637 0.993059
-1.303731 0.258054 1.740256
-1.307390 0.250071 2.219784
-1.316595 0.241159 2.699221
-1.429898 0.214836 3.174543
-1.343439 0.224666 3.479335
-1.279029 0.225286 4.142628
-1.015384 0.261828 4.644622
-0.856100 0.280883 5.144568
-0.882476 0.271780 5.448860
-1.143906 0.218028 6.091093
-1.373097 0.175273 6.369786
-1.539355 0.138851 6.923847
-1.493027 0.140455 7.325552
-1.379620 0.150332 7.921688
-1.289686 0.154831 8.611319
-0.952819 0.205666 8.983083
-0.665003 0.356293 -1.409040
-1.065320 0.224327 0.075720
-1.432856 0.115429 0.657963
-1.426311 0.112479 0.958987
-1.323292 0.131521 1.526966
-1.323242 0.125395 1.917994
-1.329625 0.114722 2.487392
-1.529038 0.055971 2.782048
-1.447226 0.070628 3.262776
-1.283406 0.104621 3.929555
-1.033863 0.161674 4.609527
-0.862941 0.203055 4.928557
-0.894199 0.188381 5.322801
-1.243128 0.083752 5.954827
-1.466050 0.018877 6.233152
-1.605132 -0.024773 6.608981
-1.793319 -0.087252 7.335094
-1.560336 -0.030771 7.765238
-1.250169 0.044925 8.305853
-1.072283 0.082041 9.016890
-0.788866 0.282691 -1.526367
-1.176655 0.128345 -0.047018
-1.438185 0.029534 0.620425
-1.429572 0.026216 1.009393
-1.425330 0.022848 1.309410
-1.328577 0.044948 1.966436
-1.333436 0.035649 2.445580
-1.533070 -0.039184 2.917929
-1.450525 -0.017635 3.310016
-1.294429 0.022878 4.066265
-1.027771 0.107604 4.387676
-0.877063 0.148978 4.976490
-0.915355 0.128328 5.460830
-1.217003 0.023729 5.644732
-1.460234 -0.066986 6.191499
-1.511935 -0.092026 6.667780
-1.580125 -0.124029 7.231953
-1.455834 -0.090211 7.736605
-1.350958 -0.064423 8.334148
-1.131696 0.002430 8.774477
-0.605205 0.300321 -1.242758
-1.232511 0.025404 -0.986483
-1.558534 -0.127889 -0.222309
-1.539160 -0.127348 0.251436
-1.440501 -0.088158 0.456380
-1.336591 -0.051137 0.929985
-1.328215 -0.058331 1.584819
-1.328172 -0.066175 2.061226
-1.334738 -0.078342 2.626756
-1.341086 -0.085997 2.924604
-1.362040 -0.105838 3.578895
-1.099650 0.002194 3.893448
-0.854596 0.098202 4.483214
-0.879366 0.081048 4.874981
-0.929009 0.048703 5.536869
-1.237049 -0.090149 5.896179
-1.465644 -0.196275 6.349755
-1.536959 -0.237798 7.001076
-1.470683 -0.212849 7.222201
-1.337466 -0.162207 7.636752
-1.363341 -0.187363 8.484446
-1.137345 -0.095613 8.833965
-0.638477 0.246604 -1.399106
-1.223454 -0.074178 -0.871473
-1.545694 -0.255956 -0.285366
-1.525769 -0.253479 0.188697
-1.427580 -0.206206 0.482793
-1.415557 -0.207964 0.958292
-1.318764 -0.167610 1.612003
-1.318827 -0.177362 2.177967
-1.322858 -0.186163 2.565437
-1.422782 -0.249058 3.127297
-1.349794 -0.218409 3.607437
-1.281795 -0.190454 4.089628
-1.130750 -0.118405 4.581135
-0.972989 -0.039760 4.896881
-0.932237 -0.029553 5.567140
-1.228095 -0.193381 5.926551
-1.465173 -0.330555 6.557876
-1.486718 -0.345607 6.765865
-1.451851 -0.335399 7.253418
-1.456728 -0.350971 8.008940
-1.322740 -0.285228 8.338324
-1.130516 -0.191865 8.866502
-0.817803 0.087409 -1.288765
-1.296627 -0.228659 -0.857885
-1.607035 -0.437504 -0.359627
-1.590036 -0.433523 0.026803
-1.408088 -0.323237 0.407726
-1.395179 -0.323532 0.885291
-1.385962 -0.327811 1.451951
-1.215394 -0.229853 2.110311
-1.385411 -0.344674 2.407266
-1.476231 -0.411681 2.880494
-1.322240 -0.322858 3.453573
-1.426953 -0.400378 4.013783
-1.197737 -0.261751 4.510928
-0.973596 -0.126511 5.014662
-0.999553 -0.150286 5.406472
-1.189163 -0.277446 5.688048
-1.419214 -0.438597 6.410817
-1.465311 -0.476844 6.886091
-1.506247 -0.510158 7.272087
-1.405088 -0.455711 7.865002
-1.287652 -0.387649 8.284028
-1.115984 -0.288264 8.902532
-0.896205 -0.041659 -1.202886
-1.351847 -0.400161 -0.862774
-1.568404 -0.575196 -0.458454
-1.547488 -0.568139 0.016778
-1.451894 -0.503345 0.489592
-1.358875 -0.442292 1.053890
-1.354024 -0.444290 1.353910
-1.428769 -0.512872 1.920057
-1.587639 -0.642962 2.304422
-1.516109 -0.600235 2.958849
-1.366344 -0.492116 3.354475
-1.542073 -0.638491 3.909197
-1.249804 -0.424042 4.500960
-0.949166 -0.198158 4.833233
-0.983022 -0.235289 5.406472
-1.108829 -0.344950 6.057861
-1.290511 -0.490635 6.336394
-1.411110 -0.592687 6.800517
-1.388062 -0.585945 7.378254
-1.341524 -0.555985 7.691131
-1.261122 -0.507013 8.377298
-1.064413 -0.361767 8.727927
-0.966771 -0.177254 -1.232835
-1.319888 -0.502124 -0.901042
-1.518273 -0.690852 -0.410079
-1.572659 -0.749571 0.066790
-1.405985 -0.610763 0.622727
-1.396827 -0.610385 1.008661
-1.238931 -0.481461 1.661492
-1.386201 -0.618368 1.869424
-1.757649 -0.962471 2.334524
-1.465678 -0.711070 2.904219
-1.474585 -0.728747 3.377473
-1.713176 -0.954772 3.921319
-1.285809 -0.580210 4.432602
-0.932785 -0.270892 4.859256
-0.969321 -0.317288 5.520262
-1.136596 -0.473692 5.800508
-1.325221 -0.654702 6.344203
-1.371641 -0.708010 6.907568
-1.341562 -0.690867 7.395588
-1.380142 -0.733487 7.781163
-1.304685 -0.679458 8.464944
-1.035799 -0.442890 8.742278
-0.954693 -0.269964 -1.370792
-1.257690 -0.612904 -0.679753
-1.439871 -0.820783 -0.188898
-1.499607 -0.890104 0.024026
-1.341189 -0.735258 0.758646
-1.332953 -0.735000 1.145988
-1.192503 -0.589833 1.444019
-1.391526 -0.817558 2.008424
-1.664384 -1.126806 2.649584
-1.398080 -0.849785 3.135169
-1.269452 -0.719578 3.530899
-1.485270 -0.963097 3.989537
-1.297757 -0.771438 4.483838
-0.906954 -0.358734 4.919736
-0.939860 -0.409083 5.582061
-1.030413 -0.515474 5.963395
-1.203382 -0.714614 6.508882
-1.306764 -0.836713 6.972680
-1.256336 -0.787183 7.195837
-1.305859 -0.853313 7.760391
-1.217365 -0.768979 8.267786
-1.018770 -0.570489 8.992756
-1.678952 -1.290311 -1.418412
-1.220952 -0.720678 -0.990442
-1.136577 -0.625429 -0.515323
-1.306355 -0.850362 -0.110737
-1.349539 -0.918992 0.459021
-1.405732 -0.995395 0.672874
-1.203977 -0.760131 1.502014
-1.325545 -0.919293 1.714022
-1.694462 -1.400138 2.269327
-1.696372 -1.416190 2.826776
-1.514583 -1.195595 3.221662
-1.338872 -0.987161 3.799013
-1.351253 -1.014487 4.275198
-1.119630 -0.733521 4.782449
-0.887933 -0.450479 5.208676
-0.910513 -0.490923 5.692996
-0.988255 -0.596568 5.986489
-1.218664 -0.905833 6.699323
-1.233073 -0.929261 6.911031
-1.220533 -0.929737 7.579956
-1.260442 -0.991957 8.057270
-1.067275 -0.762787 8.690759
-0.809585 -0.450377 9.262352
-1.138919 -0.758107 -1.606223
-1.447640 -1.230511 -1.085693
-1.537283 -1.376747 -0.600380
-1.401024 -1.191840 0.039858
-1.330801 -1.100415 0.512445
-1.373591 -1.179288 1.078469
-1.143716 -0.848525 1.464814
-1.639787 -1.608090 2.318884
-1.529119 -1.459078 2.881855
-1.420657 -1.308720 3.274499
-1.542577 -1.506997 3.911986
-1.330397 -1.205560 4.411046
-0.951303 -0.654827 4.854164
-0.856987 -0.528416 5.355538
-0.770213 -0.415763 5.951324
-0.905842 -0.629659 6.414356
-1.150268 -1.001809 6.757548
-1.174238 -1.047950 7.146823
-1.163892 -1.050746 7.816125
-1.075889 -0.929118 8.148303
-0.948958 -0.755077 8.678608
-1.110221 -0.929248 -1.426822
-1.189004 -1.083353 -1.025045
-1.269748 -1.240871 -0.626838
-1.349410 -1.399071 -0.144413
-1.235239 -1.211158 0.409641
-1.353230 -1.472968 2.006400
-1.498287 -1.737270 2.122395
-1.448233 -1.670119 2.854030
-1.402107 -1.601957 3.326754
-1.455921 -1.713120 3.790422
-1.314707 -1.469079 4.102984
-1.034902 -0.985082 4.707876
-0.859265 -0.691018 5.400334
-0.734133 -0.484937 6.003490
-0.847330 -0.699928 6.374414
-1.058992 -1.090959 6.715960
-1.083426 -1.149711 7.192159
-1.067672 -1.139443 7.771123
-1.049934 -1.122894 8.262974
-0.952006 -0.840719 -1.528391
-1.212569 -1.441093 -0.827317
-1.287087 -1.613536 -0.606537
-1.219666 -1.494900 0.212467
-1.170656 -1.397637 0.507460
-1.269134 -1.670187 2.016223
-1.390350 -1.951365 2.393611
-1.223818 -1.604946 2.961839
-1.183136 -1.526271 3.262834
-1.269428 -1.736747 3.812375
-1.193719 -1.590751 4.383948
-0.916906 -1.006236 5.091631
-0.798047 -0.752911 5.331651
-0.731074 -0.626994 5.925294
-0.791089 -0.779996 6.487919
-0.970444 -1.188085 6.829622
-0.990593 -1.250040 7.307026
-0.972041 -1.227172 7.798817
-0.960815 -1.223769 8.380719
-0.865835 -1.033752 8.910822
-0.942626 -1.100071 -1.438987
-1.025199 -1.354142 -0.941696
-1.076422 -1.519742 -0.456077
-1.098565 -1.599435 -0.066528
-1.052817 -1.492305 0.403190
-1.077765 -1.579783 0.790895
-0.933192 -1.199453 1.349559
-1.256993 -2.153934 2.372914
-1.221192 -2.070752 2.755017
-1.085723 -1.712561 3.238415
-1.153756 -1.924165 3.698532
-1.122818 -1.858802 4.173224
-0.927989 -1.343521 4.865343
-0.796617 -0.986049 5.110015
-0.737580 -0.842982 5.609471
-0.754024 -0.922965 6.359639
-0.826537 -1.134865 6.547819
-0.848804 -1.230921 7.292262
-0.828844 -1.193120 7.695297
-0.847134 -1.265964 8.172550
-0.888275 -1.325296 -0.816307
-0.924730 -1.492314 -0.243203
-0.965392 -1.669417 0.236835
-0.958806 -1.662273 0.532378
-0.972620 -1.750429 1.180528
-0.860243 -1.364719 1.651750
-1.112083 -2.348361 2.662325
-1.006094 -1.966435 2.792367
-0.898287 -1.603371 3.365080
-0.950305 -1.826141 3.913407
-0.925878 -1.773996 4.565131
-0.771229 -1.235878 5.086836
-0.668813 -0.878982 5.423109
-0.598067 -0.659018 6.115905
-0.630447 -0.800003 6.497365
-0.744226 -1.242841 6.926861
-0.778669 -1.390952 7.300454
-0.768555 -1.392232 7.966651
-0.782014 -1.469029 8.440481
-0.718644 -1.266575 8.967049
-0.755802 -1.293922 -0.776677
-0.810536 -1.653849 -0.018622
-0.820529 -1.740261 0.367608
-0.811492 -1.730566 0.837933
-0.865156 -2.124142 2.068341
-0.913430 -2.431254 2.613078
-0.836508 -2.054244 3.090428
-0.778700 -1.781173 3.571909
-0.776154 -1.813929 4.129373
-0.738810 -1.644643 4.525669
-0.647536 -1.192895 5.039418
-0.575751 -0.854399 5.644553
-0.559553 -0.807677 6.136235
-0.580781 -0.961889 6.605238
-0.621202 -1.218744 7.057891
-0.662599 -1.480444 7.505167
-0.667439 -1.538813 7.889973
-0.657571 -1.533555 8.467411
-0.575074 -1.133430 9.029686
-0.638001 -1.199223 -1.477328
-0.684917 -1.763334 -0.959954
-0.705679 -2.039971 -0.558839
-0.686856 -1.919204 -0.092954
-0.657367 -1.702056 0.458593
-0.660383 -1.793537 0.844113
-0.661033 -1.887866 1.403180
-0.673396 -2.088520 1.871254
-0.698372 -2.390841 2.159488
-0.699902 -2.505921 2.793194
-0.645794 -2.183934 4.292878
-0.592695 -1.730370 4.886934
-0.551645 -1.359647 5.218065
-0.499557 -0.919941 5.834078
-0.487288 -0.884880 6.416248
-0.515133 -1.240926 6.858811
-0.533894 -1.490569 7.219150
-0.533376 -1.573389 7.781565
-0.533413 -1.620243 8.078025
-0.524350 -1.289953 -0.559687
-0.528072 -1.779070 -0.326789
-0.522074 -1.859830 0.147946
-0.514745 -1.846198 0.618203
-0.500737 -2.338165 2.023659
-0.498371 -2.646282 2.481209
-0.487252 -2.463127 3.035677
-0.477728 -2.387654 3.590298
-0.469526 -2.314341 4.059756
-0.460658 -2.034476 4.371131
-0.449302 -1.771120 4.862857
-0.433880 -1.431325 5.548049
-0.419231 -0.983747 6.076818
-0.411594 -1.050331 6.645852
-0.413798 -1.374416 6.817468
-0.405776 -1.575954 7.543880
-0.400824 -1.634571 7.927940
-0.393705 -1.726709 8.487796
-0.380888 -1.416957 9.030556
-0.453827 -1.082131 -1.448378
-0.394188 -1.951565 -1.000670
-0.369267 -2.218537 -0.427949
-0.368442 -2.094602 0.122511
-0.374415 -1.880570 0.585932
-0.361733 -1.971332 1.057902
-0.318710 -2.372925 2.284090
-0.291480 -2.685565 2.826076
-0.298487 -2.496126 3.122892
-0.287031 -2.525680 3.759168
-0.290209 -2.354415 4.235502
-0.304830 -1.989856 4.731876
-0.310457 -1.529091 6.205826
-0.315270 -1.299737 6.806932
-0.290472 -1.573425 7.344729
-0.279693 -1.702253 7.538938
-0.269481 -1.704182 8.203890
-0.271156 -1.572029 8.622608
-0.273453 -1.659584 -0.667818
-0.212527 -2.031015 -0.175778
-0.222241 -1.913684 0.291408
-0.215801 -1.898884 0.850980
-0.125079 -2.389428 2.170833
-0.063138 -2.790152 2.454039
-0.066789 -2.706109 3.004697
-0.071206 -2.625664 3.471573
-0.088916 -2.451877 3.946523
-0.113109 -2.203906 4.694672
-0.147420 -1.931224 5.013877
-0.185096 -1.595962 5.700888
-0.243295 -1.144036 6.142859
-0.239058 -1.111515 6.724966
-0.181168 -1.467399 7.164613
-0.146072 -1.692173 7.346490
-0.119011 -1.801825 8.084491
-0.124665 -1.699149 8.679290
-0.177549 -1.280500 9.155886
-0.268937 -1.138872 -1.403209
-0.111455 -1.792313 -0.965502
-0.020697 -2.158480 -0.558839
-0.041239 -2.038022 -0.093639
-0.061219 -1.925749 0.286260
-0.055085 -1.908663 0.934072
0.054580 -2.295119 2.255655
0.133041 -2.598632 2.800614
0.145897 -2.617294 3.350566
0.135716 -2.541509 3.819626
0.099340 -2.363233 4.123885
0.049525 -2.108315 4.700441
-0.001393 -1.854025 5.196722
-0.117439 -1.314800 5.729944
-0.187389 -0.976104 6.253958
-0.078825 -1.417720 6.686841
-0.039616 -1.562460 7.062015
0.017410 -1.760822 7.787746
0.014922 -1.722966 8.189065
-0.008536 -1.592927 8.608773
0.043654 -1.784286 -0.789128
0.135458 -2.043523 -0.301025
0.136728 -2.019988 0.257579
0.108129 -1.913021 0.638801
0.142379 -1.999721 1.024678
0.287810 -2.379331 2.429891
0.392986 -2.677161 2.972069
0.369958 -2.591644 3.266626
0.364241 -2.533966 4.081324
0.310055 -2.356053 4.299951
0.212046 -2.020584 4.973506
0.052661 -1.498548 5.590363
0.035946 -1.431758 5.900142
0.146270 -1.754724 6.254080
0.180523 -1.828481 6.903507
0.177185 -1.794264 7.390155
0.200444 -1.847110 7.774924
0.170198 -1.728991 8.279723
0.100521 -1.474215 9.089882
-0.195039 -0.890902 -1.428663
0.216155 -1.868594 -0.789171
0.403911 -2.313817 -0.467123
0.326590 -2.099832 0.166904
0.289654 -1.994546 0.546570
0.292057 -1.985094 0.929802
0.335969 -2.069903 1.488652
0.303853 -1.976235 1.871784
0.428460 -2.258193 2.423920
0.593653 -2.639655 2.963996
0.523799 -2.460741 3.176299
0.538532 -2.478120 3.640939
0.490140 -2.330574 4.378638
0.397199 -2.084203 4.869456
0.269032 -1.751247 5.376226
0.246672 -1.684414 5.683492
0.325639 -1.848044 6.410205
0.306275 -1.788467 6.718827
0.342789 -1.855170 7.279051
0.325985 -1.801758 7.589657
0.306260 -1.722921 8.358288
0.262737 -1.599953 8.778198
-0.031485 -1.080732 -1.403029
0.324492 -1.765990 -0.962058
0.500998 -2.099538 -0.557133
0.497348 -2.076727 -0.089526
0.450827 -1.969706 0.375359
0.452657 -1.954690 0.932199
0.455932 -1.948374 1.313776
0.554295 -2.123228 1.869209
0.382299 -1.769142 2.343886
0.767368 -2.498861 3.166158
0.741396 -2.429285 3.719648
0.673843 -2.277637 4.282313
0.560529 -2.038483 4.770786
0.450032 -1.804652 5.265802
0.437676 -1.761335 5.834746
0.456322 -1.788137 6.129811
0.481985 -1.825806 6.512546
0.471052 -1.788145 6.995977
0.484301 -1.789157 7.745029
0.472392 -1.752413 8.143660
0.221674 -1.351260 -1.621201
0.365421 -1.567197 -1.035774
0.513438 -1.790275 -0.458140
0.613674 -1.938822 0.020340
0.611719 -1.922135 0.489041
0.611958 -1.914056 0.782528
0.615505 -1.903746 1.339124
0.675625 -1.985088 1.894926
0.628741 -1.900660 2.189305
0.694996 -1.992005 2.742852
0.867021 -2.257499 3.197991
0.880987 -2.269244 3.575056
0.860740 -2.215384 4.305378
0.728197 -1.986622 4.793663
0.588283 -1.750811 5.112505
0.623364 -1.791526 5.670781
0.662494 -1.838823 6.228269
0.639664 -1.790486 6.622064
0.626321 -1.754936 7.105254
0.616048 -1.724315 7.590000
0.617517 -1.710128 8.164298
0.510951 -1.522461 8.686586
0.212489 -1.019093 9.378395
0.328433 -1.306506 -1.322963
0.556567 -1.602412 -0.907856
0.727397 -1.821664 -0.505276
0.840815 -1.964043 -0.112400
0.836460 -1.946260 0.357812
0.776124 -1.848874 1.001729
0.778704 -1.842595 1.385710
0.847704 -1.918889 2.031598
0.856145 -1.920508 2.414587
0.864071 -1.923725 2.707330
0.876269 -1.930465 3.087426
1.013384 -2.103038 3.544805
0.992897 -2.054732 4.363943
0.830979 -1.829253 4.678469
0.794971 -1.770999 5.068066
0.826756 -1.801785 5.537320
0.816561 -1.771462 6.192615
0.789416 -1.725007 6.586363
0.781090 -1.699330 7.157473
0.777628 -1.680145 7.730252
0.769253 -1.656554 8.216571
0.296958 -1.139312 -1.502296
0.931087 -1.859589 -0.870895
1.119401 -2.070627 -0.560156
0.975218 -1.884784 0.247840
0.907025 -1.794913 0.715059
0.906906 -1.789962 0.922609
0.911020 -1.779744 1.568631
0.983599 -1.852969 2.038090
0.989981 -1.853534 2.332597
1.005911 -1.859080 2.889368
1.019756 -1.866271 3.271109
1.052913 -1.887744 4.002033
0.933655 -1.744430 4.221896
0.907401 -1.698830 4.875974
0.992383 -1.790669 5.162686
0.976157 -1.756667 5.817794
0.886436 -1.641238 6.311268
0.921516 -1.673013 6.694140
0.912436 -1.649225 7.266003
0.908690 -1.631580 7.839514
0.868184 -1.579463 8.062471
0.777630 -1.454186 8.938863
0.393678 -1.110267 -1.510698
1.012736 -1.699399 -0.799127
1.286110 -1.955873 -0.310913
1.205797 -1.867714 0.150620
1.130719 -1.788315 0.439785
1.056698 -1.706202 0.905826
1.131277 -1.765347 1.550157
1.138101 -1.762103 2.017931
1.148831 -1.762672 2.485643
1.229034 -1.834815 2.775333
1.246068 -1.841566 3.241642
1.195588 -1.782315 3.713091
1.088133 -1.663559 4.368533
1.106689 -1.675455 4.662034
1.223944 -1.776464 5.296335
1.127504 -1.670159 5.871537
1.082936 -1.620210 6.176159
1.048721 -1.578479 6.569885
1.116734 -1.631200 7.214985
1.089842 -1.596570 7.610890
1.006355 -1.504475 8.112013
0.857055 -1.347705 8.634022
0.470482 -1.053622 -1.166101
1.072744 -1.540925 -0.730401
1.290257 -1.710498 -0.245878
1.279257 -1.690543 0.309314
1.274603 -1.677525 0.777287
1.273892 -1.672903 0.982959
1.198109 -1.601325 1.450794
1.282474 -1.659874 2.006656
1.298183 -1.660187 2.649606
1.382018 -1.725237 2.851986
1.408164 -1.734183 3.492928
1.273344 -1.615513 3.883655
1.223969 -1.565532 4.358941
1.326444 -1.642569 4.732541
1.368705 -1.666470 5.287467
1.263574 -1.568617 5.862980
1.241423 -1.539227 6.431149
1.215570 -1.508476 6.913355
1.249457 -1.530603 7.207448
1.230826 -1.505763 7.691472
1.128745 -1.413597 8.105133
0.979567 -1.278785 8.715975
1.099452 -1.387325 -0.531722
1.340961 -1.554122 -0.394778
1.406934 -1.588340 0.255695
1.400100 -1.573212 0.814183
1.317216 -1.508014 1.196970
1.321145 -1.500403 1.757033
1.406120 -1.556128 1.965313
1.418795 -1.554677 2.523902
1.523135 -1.615975 3.164676
1.450430 -1.561083 3.376250
1.239199 -1.400717 4.038860
1.357086 -1.473137 4.591841
1.562612 -1.607233 5.132553
1.506185 -1.562051 5.436149
1.459970 -1.522387 5.828426
1.444900 -1.499674 6.484731
1.428009 -1.477269 7.055438
1.325415 -1.396091 7.554982
1.308652 -1.375316 8.042453
1.216210 -1.301138 8.548392
0.982610 -1.125603 9.183175
1.301609 -1.345833 -0.638971
1.460602 -1.431675 -0.243537
1.534638 -1.466533 0.232130
1.525585 -1.449911 0.878412
1.438097 -1.392133 1.261709
1.442164 -1.384673 1.822116
1.447061 -1.382315 2.119433
1.550627 -1.431434 2.764369
1.651386 -1.483567 3.144241
1.578475 -1.435751 3.444517
1.355704 -1.294097 4.108952
1.455384 -1.348696 4.312349
1.668218 -1.463353 4.856115
1.645848 -1.437300 5.597047
1.580293 -1.395202 5.816133
1.573379 -1.378093 6.561260
1.522774 -1.343169 6.868694
1.497059 -1.319672 7.352671
1.403801 -1.254920 7.941518
1.362415 -1.225292 8.253706
1.110913 -1.067463 8.884400
1.401250 -1.242400 -0.646533
1.560742 -1.310165 -0.077895
1.644930 -1.347437 0.133097
1.635474 -1.334947 0.602379
1.540689 -1.279622 1.158263
1.542853 -1.271268 1.716612
1.640056 -1.310504 2.185689
1.649586 -1.308693 2.567626
1.669347 -1.308900 3.124302
1.592757 -1.266726 3.423212
1.454736 -1.187240 4.168730
1.577500 -1.238953 4.632931
1.779960 -1.332444 4.911279
1.723317 -1.298411 5.301110
1.706254 -1.277656 6.042124
1.639643 -1.241677 6.260509
1.605601 -1.217047 6.742765
1.487789 -1.151533 7.240591
1.553252 -1.175337 7.712042
1.460064 -1.120192 8.303210
1.182927 -0.976666 8.845606
1.768436 -1.209399 -0.243147
1.756142 -1.198525 0.138560
1.744312 -1.184987 0.695297
1.646264 -1.138604 1.251433
1.648900 -1.130554 1.809784
1.746653 -1.163040 2.103690
1.666941 -1.123588 2.663281
1.684130 -1.122510 3.133681
1.697541 -1.122837 3.428687
1.553202 -1.055741 4.174226
1.660625 -1.093416 4.375384
1.875681 -1.169419 4.742361
1.830608 -1.143093 5.306567
1.802360 -1.121728 5.960210
1.742422 -1.093928 6.265980
1.706421 -1.072387 6.748242
1.675855 -1.052892 7.232114
1.663872 -1.039031 7.805274
1.582012 -0.996818 8.484638
1.249387 -0.865555 8.762455
1.762988 -1.035196 -0.226426
1.851434 -1.057642 -0.014072
1.836499 -1.044482 0.543625
1.733701 -1.007094 1.012690
1.732197 -0.999209 1.484364
1.836421 -1.018038 2.217463
1.841100 -1.016118 2.425519
1.855451 -1.012901 2.894490
1.787871 -0.982953 3.542967
1.516667 -0.898930 3.854486
1.662153 -0.929846 4.584261
1.884418 -0.988892 4.950700
1.918769 -0.992896 5.331804
1.879707 -0.972569 5.897738
1.732136 -0.923139 6.302307
1.778853 -0.930726 6.684917
1.746042 -0.913523 7.168390
1.732062 -0.900404 7.741181
1.725935 -0.889550 8.315524
1.507720 -0.819032 8.750678
2.045287 -0.946578 -0.515774
1.924776 -0.912642 0.035779
1.810044 -0.878518 0.678072
1.804106 -0.869974 1.149015
1.803260 -0.863859 1.532321
1.904961 -0.878013 2.002214
1.812300 -0.853892 2.298905
1.827899 -0.848530 2.857420
1.745242 -0.825115 3.244650
1.573355 -0.781424 3.726991
1.596585 -0.780349 4.112506
1.831958 -0.821491 4.658611
1.896189 -0.823671 5.391784
1.847037 -0.805873 5.872222
1.772842 -0.786848 6.091120
1.851087 -0.793346 6.736262
1.817572 -0.778805 7.219096
1.789750 -0.765441 7.703472
1.782174 -0.754961 8.277120
1.558700 -0.701145 8.711366
2.015426 -0.744476 -0.368073
1.894440 -0.721723 0.183971
1.880324 -0.711549 0.741088
1.877042 -0.708009 0.947612
1.873444 -0.699079 1.504917
1.874640 -0.694730 1.799166
1.882769 -0.687189 2.356443
1.796324 -0.669739 2.829071
1.917840 -0.675680 3.382834
1.650408 -0.635243 3.957155
1.774590 -0.644195 4.334291
2.001240 -0.665435 4.701466
1.958732 -0.650451 5.353495
1.997013 -0.649171 5.734510
1.940238 -0.636466 6.126453
1.909465 -0.624142 6.695187
1.899330 -0.612898 7.353356
1.858364 -0.601992 7.750093
1.821295 -0.591528 8.148149
1.623641 -0.558808 8.758264
0.416184 -0.532020 -1.239915
2.048349 -0.575003 0.102705
1.936655 -0.564934 0.480823
1.925894 -0.556066 1.038036
1.922821 -0.548825 1.507657
1.924365 -0.543093 1.889596
1.929536 -0.537502 2.271506
1.943587 -0.529598 2.828661
1.857837 -0.520419 3.214456
1.680616 -0.506249 3.695286
1.726666 -0.496863 4.432045
1.948163 -0.501214 4.712020
1.996029 -0.494629 5.268701
1.942968 -0.485307 5.747609
1.895632 -0.476180 6.228269
1.942004 -0.472187 6.610280
1.905008 -0.463430 7.092999
1.900543 -0.453251 7.752835
1.877308 -0.444980 8.238711
1.730533 -0.434300 8.567325
1.029491 -0.397730 9.184702
0.867253 -0.479086 -1.351086
0.730652 -0.476529 -0.781809
1.417288 -0.442169 -0.530895
1.997798 -0.410053 -0.116570
1.878140 -0.406939 0.439692
1.970664 -0.398287 0.738690
1.961732 -0.386209 1.561095
1.964197 -0.378945 2.032775
1.968573 -0.374256 2.329044
1.877523 -0.372498 2.712024
1.797093 -0.367569 3.272907
1.530013 -0.369394 3.936104
1.741909 -0.357017 4.130416
2.073100 -0.335488 4.578169
2.034603 -0.326011 5.315887
1.954688 -0.326317 5.530126
1.913705 -0.319548 6.096607
1.968882 -0.309992 6.564736
1.954687 -0.300666 7.221152
1.924175 -0.294702 7.703814
1.885167 -0.290427 8.100111
1.850061 -0.285958 8.497689
1.393439 -0.293470 9.341966
0.394991 -0.471333 -1.229513
1.831530 -0.283143 -0.275205
2.116325 -0.244038 0.031681
1.998860 -0.249790 0.584924
1.994038 -0.247221 0.791433
1.886154 -0.249078 1.524011
1.887615 -0.241715 1.994807
1.995687 -0.220163 2.550963
1.906921 -0.225012 2.936155
1.921017 -0.217469 3.318757
1.551566 -0.253253 3.899750
1.679655 -0.230634 4.367354
2.096604 -0.176183 4.633161
2.035216 -0.176324 5.110011
1.988132 -0.173370 5.676384
1.948996 -0.169425 6.244723
1.983708 -0.160721 6.540078
1.956863 -0.155243 7.111506
1.912261 -0.154566 7.509013
1.927450 -0.141278 8.259288
1.796342 -0.150746 8.677107
1.942318 -0.103188 -0.172547
1.930058 -0.101199 0.121863
1.914852 -0.097104 0.592112
2.000595 -0.069121 1.239102
1.998440 -0.065023 1.533006
1.999358 -0.057564 2.002290
1.913665 -0.064137 2.737425
1.827385 -0.076235 3.123624
1.744733 -0.087546 3.511579
1.665733 -0.098065 3.901254
1.907017 -0.036319 4.624081
2.033628 -0.004005 4.997799
1.984883 -0.005456 5.563698
2.031866 0.011650 6.032719
2.084208 0.029869 6.501131
2.022624 0.021703 6.807105
2.011181 0.029491 7.464961
1.956811 0.022881 7.773743
1.918515 0.021015 8.171479
1.736270 -0.006361 8.869608
2.150023 0.114296 -0.456125
2.124374 0.115505 0.103047
2.015280 0.089083 0.484932
1.905029 0.066518 1.132541
1.804987 0.044257 1.607232
1.902803 0.082252 2.169583
1.910317 0.091989 2.644057
1.917794 0.098935 2.942676
1.746119 0.056893 3.514336
1.568336 0.008912 3.825306
1.791286 0.083993 4.378341
2.028187 0.164512 5.012854
2.067799 0.183770 5.485439
1.991724 0.164614 5.705492
1.972626 0.170751 6.453075
1.912064 0.157644 6.763798
1.983032 0.187637 7.325276
1.928944 0.176488 7.637982
1.930607 0.187500 8.303181
1.724131 0.134388 8.829627
1.933768 0.208678 -0.171174
2.014483 0.244609 0.130224
1.903174 0.210867 0.688239
1.985763 0.251758 1.250748
1.982395 0.258138 1.723463
1.982563 0.261606 1.933099
1.897912 0.241043 2.671519
1.811680 0.212767 2.972255
1.733925 0.190638 3.450908
1.670528 0.176935 4.108451
1.879164 0.263216 4.481265
1.997934 0.315007 4.858182
1.955932 0.309510 5.514366
1.999305 0.333848 5.986186
2.038441 0.355127 6.369905
2.008979 0.353074 6.941216
1.860481 0.301233 7.265316
1.947617 0.345264 7.913545
1.806457 0.296327 8.242703
1.618053 0.233853 8.856990
0.711620 -0.226765 -1.285331
1.902188 0.376101 -0.034617
1.884702 0.375539 0.438663
1.960275 0.421959 1.001387
1.865738 0.380761 1.297711
1.862238 0.388520 1.859169
1.953751 0.439714 2.243078
1.876326 0.414339 2.981800
1.711137 0.341759 3.464353
1.547125 0.268333 3.862702
1.651120 0.324105 4.156443
2.047555 0.528288 4.776932
1.991355 0.508918 5.256733
1.925442 0.481876 5.563013
1.894470 0.477851 6.221755
1.933657 0.503490 6.606513
1.897125 0.493815 7.091286
1.877146 0.493736 7.665414
1.864533 0.497282 8.241111
1.743774 0.445337 8.659903
1.140038 0.163818 9.460140
0.813964 -0.113654 -1.279216
1.655638 0.395954 -1.002121
2.052198 0.644130 -0.414830
1.945409 0.588309 0.050121
1.924026 0.586891 0.695538
1.919047 0.587567 0.902744
1.824439 0.540689 1.460482
1.822487 0.550957 2.107777
1.826680 0.561800 2.579176
1.747844 0.521362 2.966062
1.757901 0.534182 3.350291
1.610682 0.457566 4.010386
1.710343 0.522461 4.300875
1.998575 0.704773 4.837024
1.951132 0.686313 5.402381
1.895719 0.660014 5.794515
1.835694 0.629424 6.100379
1.897676 0.678003 6.746188
1.788399 0.622818 7.331581
1.749210 0.606357 7.729908
1.821654 0.659679 8.289122
1.706009 0.597711 8.706694
1.600184 0.515015 -0.651237
1.902923 0.739109 -0.160719
1.890964 0.736075 0.132962
1.789363 0.675869 0.775445
1.861534 0.735875 1.246637
1.857239 0.739918 1.628235
1.774360 0.688178 2.010945
1.695236 0.640777 2.483622
1.703929 0.657348 3.043126
1.637470 0.620643 3.607401
1.492210 0.526497 4.091885
1.672697 0.661561 4.463025
1.942418 0.861388 4.909397
1.816069 0.782337 5.483531
1.858668 0.822934 6.040246
1.794951 0.781730 6.257749
1.774019 0.779090 6.915412
1.723386 0.748860 7.223420
1.775421 0.794548 7.693529
1.796613 0.825143 8.530058
1.514922 0.631896 8.894994
0.983611 0.146779 -1.405276
1.342235 0.454764 -0.981050
1.695708 0.761737 -0.390060
1.835962 0.884919 -0.085767
1.815983 0.879240 0.471920
1.801944 0.878528 1.029816
1.717987 0.817671 1.499973
1.714897 0.826135 2.059362
1.638519 0.766463 2.268852
1.644960 0.784653 2.917551
1.580267 0.741765 3.482623
1.515286 0.695178 3.872586
1.537432 0.724771 4.434306
1.709209 0.875558 4.802890
1.812340 0.970821 5.263914
1.754664 0.928631 5.567466
1.718507 0.909644 6.135699
1.696347 0.904123 6.793646
1.647560 0.869450 7.101818
1.704086 0.927702 7.660271
1.660389 0.897318 7.970361
1.572125 0.836509 -0.721598
1.759740 1.033595 -0.147714
1.751660 1.030030 0.059021
1.660134 0.953519 0.701972
1.648473 0.953922 1.260968
1.571704 0.888306 1.732540
1.570090 0.894889 2.116710
1.570623 0.901711 2.412723
1.648411 0.992077 3.057299
1.584582 0.937425 3.444863
1.383724 0.749906 3.934027
1.546222 0.921711 4.482989
1.701285 1.080469 4.763027
1.653900 1.043956 5.241568
1.692839 1.096058 5.886940
1.654994 1.069002 6.368105
1.543247 0.967562 6.775928
1.505110 0.938436 7.173293
1.566097 1.012312 7.820963
1.544737 1.001626 8.308022
1.386964 0.857298 8.831766
1.506482 0.966974 -0.875943
1.675992 1.177024 -0.301025
1.664414 1.170421 -0.006701
1.576472 1.085332 0.723945
1.569790 1.084432 1.019227
1.494009 1.013564 1.754572
1.492627 1.016787 1.962496
1.492804 1.032046 2.610958
1.562489 1.123781 3.079261
1.505225 1.068372 3.554897
1.383933 0.936799 3.950296
1.463751 1.040255 4.416898
1.619928 1.236131 5.047751
1.573302 1.191107 5.438987
1.599315 1.232201 5.908845
1.563969 1.202354 6.390035
1.519505 1.157888 6.697229
1.490307 1.135247 7.181518
1.537347 1.202802 7.740152
1.451747 1.115135 8.242703
1.305730 0.957850 8.766446
1.228124 0.793430 -1.615528
1.310873 0.923425 -0.946127
1.473873 1.153803 -0.630033
1.566259 1.296637 0.027529
1.497599 1.210464 0.318524
1.540098 1.285023 0.966450
1.533171 1.285363 1.348373
1.527594 1.289793 1.818005
1.466040 1.220186 2.377309
1.407467 1.147941 2.674966
1.412068 1.168559 3.234729
1.421262 1.195432 3.794169
1.316890 1.067783 4.367009
1.391185 1.181009 4.831900
1.527655 1.378715 5.284773
1.490348 1.340113 5.763702
1.456407 1.306146 6.244380
1.420316 1.267040 6.638883
1.392545 1.241570 7.122776
1.368199 1.220810 7.608224
1.354710 1.217150 8.183214
1.263439 1.101119 8.512288
1.032868 0.805700 9.253798
1.318962 1.190432 -0.650615
1.453608 1.428016 -0.076526
1.386989 1.332345 0.390949
1.379257 1.328276 0.686866
1.369270 1.325629 1.158638
1.309095 1.243226 1.718770
1.305014 1.252867 2.279866
1.304727 1.266163 2.752736
1.306622 1.280469 3.137384
1.361442 1.378891 3.429220
1.369744 1.408772 3.987821
1.178829 1.117867 4.752644
1.184974 1.134035 4.961774
1.366975 1.453220 5.670562
1.323715 1.388598 5.888387
1.246135 1.278301 6.471043
1.229790 1.270761 7.133000
1.253387 1.320661 7.517440
1.239635 1.314861 8.093092
1.158252 1.190954 8.422526
0.945465 0.860889 9.074666
0.845891 0.517986 -1.367273
1.146114 1.119863 -0.929165
1.260692 1.363319 -0.348797
1.296178 1.442797 -0.046627
1.275924 1.427711 0.690299
1.269484 1.425024 0.987980
1.214546 1.336246 1.549397
1.210986 1.339219 1.847863
1.206705 1.352515 2.498765
1.160887 1.275861 2.888490
1.164229 1.304108 3.540533
1.260717 1.508271 4.003589
1.267010 1.533394 4.388401
1.097297 1.221160 4.981818
1.059820 1.158124 5.290486
1.165445 1.379945 5.747007
1.140840 1.350920 6.320905
1.153329 1.385288 6.619392
1.134354 1.367344 7.195331
1.123950 1.369052 7.858005
1.101700 1.338833 8.257665
0.991101 1.136980 8.693139
1.111439 1.344983 -1.592928
1.020083 1.136140 -1.218726
1.108926 1.380791 -0.546542
1.134259 1.458574 -0.154833
1.123328 1.447296 0.231833
1.106327 1.435286 0.971072
1.061690 1.341409 1.357494
1.056218 1.343557 1.745392
1.127754 1.534284 2.130440
1.010929 1.270893 2.700545
1.048177 1.381138 3.173704
1.200964 1.773763 3.628809
1.128167 1.611257 4.024497
1.098285 1.564342 4.680373
1.032820 1.427170 5.259795
1.039387 1.455250 5.558733
1.089264 1.596063 6.022526
1.025346 1.455860 6.431793
1.003750 1.422513 6.919739
0.995444 1.432411 7.674054
0.971221 1.385676 7.988675
0.961198 1.384413 8.569579
0.794732 0.995673 9.047122
0.996051 1.473229 -0.678871
1.107018 1.841104 -0.363295
1.034318 1.633752 0.097841
0.961251 1.429933 0.652172
0.950518 1.424201 1.213933
0.943292 1.425143 1.687414
1.052013 1.840788 3.092207
1.111678 2.044371 3.376700
1.052937 1.895310 4.115938
1.025200 1.826876 4.503699
0.910289 1.492166 5.094396
0.855256 1.337962 5.498159
0.894771 1.491113 6.050080
0.900712 1.524890 6.346392
0.913756 1.594495 6.906601
0.864110 1.457772 7.318198
0.854175 1.459770 7.983154
0.837644 1.427568 8.384540
0.743456 1.165231 9.107028
0.693162 0.718535 -1.460869
0.828874 1.365273 -0.845043
0.862148 1.540900 -0.447279
0.874484 1.622792 -0.057148
0.862109 1.606525 0.504363
0.853003 1.598732 0.977956
0.823200 1.498790 1.451362
0.872007 1.819937 2.953623
0.935546 2.128291 3.322356
0.911807 2.055210 3.793826
0.867322 1.896429 4.361563
0.823993 1.730996 4.758622
0.739004 1.399946 5.442790
0.697176 1.235727 5.760808
0.769253 1.599374 6.379453
0.775230 1.658626 6.851588
0.757686 1.601912 7.160896
0.720292 1.464024 7.574293
0.713032 1.483907 8.329277
0.678172 1.357758 8.749286
0.601128 0.553573 -1.203883
0.734898 1.518257 -0.750718
0.783564 1.894515 -0.344823
0.757550 1.774463 0.210408
0.734185 1.663644 0.680570
0.711578 1.558276 1.153197
0.691056 1.458155 1.539660
0.730215 1.884278 3.041259
0.771732 2.189433 3.236757
0.737766 2.025099 3.889473
0.720568 1.957189 4.365663
0.689148 1.811276 5.027596
0.601487 1.247262 5.379740
0.601219 1.304988 5.947038
0.645231 1.643879 6.300928
0.632751 1.627918 6.963850
0.620690 1.596379 7.451008
0.607529 1.529615 7.674494
0.597432 1.521122 8.252924
0.546078 1.244841 8.974852
0.609044 1.583234 -0.908201
0.622982 1.952310 -0.327373
0.610125 1.836832 0.050484
0.588395 1.620760 0.604215
0.579328 1.611944 1.165620
0.565901 1.510739 1.638950
0.570914 1.938685 3.046736
0.584777 2.254050 3.414399
0.566774 2.079559 3.891519
0.553435 2.023125 4.540935
0.538786 1.840161 4.762740
0.495707 1.292668 5.376610
0.485136 1.241158 5.863712
0.500756 1.581627 6.217608
0.495850 1.662052 6.867348
0.486952 1.615756 7.265401
0.477763 1.586850 7.753247
0.468914 1.563820 8.242558
0.441437 1.251888 8.785496
0.495035 0.958219 -1.365118
0.478708 1.325687 -0.856859
0.466085 1.604028 -0.454999
0.453453 1.886294 -0.058636
0.446546 1.765367 0.584204
0.439615 1.756573 1.055062
0.434902 1.653296 1.525905
0.410191 1.968095 2.668760
0.391662 2.294284 3.386210
0.390609 2.204226 3.595056
0.380811 2.147890 4.328686
0.381072 1.876788 4.731168
0.378952 1.709334 5.130237
0.368300 1.681341 5.876314
0.367384 1.515132 6.194053
0.358880 1.571743 6.667424
0.351880 1.621824 7.051702
0.341960 1.615923 7.715255
0.338483 1.563060 8.026491
0.333949 1.360713 8.638821
0.389943 1.291533 -1.350494
0.395918 1.160353 -0.877066
0.372918 1.341879 -0.564907
0.327695 1.716818 -0.070115
0.323246 1.702599 0.315814
0.306075 1.787915 0.880200
0.308169 1.682051 1.441354
0.257950 1.994030 2.679717
0.217817 2.310752 3.224528
0.220249 2.228352 3.608672
0.218550 2.160328 4.169132
0.235731 1.901743 4.747641
0.254102 1.643550 5.245423
0.313205 0.986569 5.700718
0.300823 1.036822 6.182003
0.246483 1.498638 6.702096
0.230455 1.572674 7.265859
0.214634 1.700599 7.460319
0.223744 1.504361 8.157302
0.234461 1.304456 8.772959
0.298005 0.591232 9.307804
0.336732 1.026456 -1.390041
0.280937 1.294023 -0.979940
0.222906 1.551967 -0.309271
0.164623 1.826711 0.176095
0.178243 1.713922 0.645617
0.172633 1.704833 1.118688
0.168606 1.701909 1.415126
0.087650 2.014925 2.912541
0.039057 2.232106 3.459904
0.070284 2.045240 3.675703
0.074000 1.978221 4.238685
0.091628 1.827771 4.900003
0.125834 1.543333 6.093275
0.119791 1.520653 6.757548
0.111756 1.508619 7.423320
0.106793 1.525466 7.543230
0.092412 1.540222 8.299343
0.131810 1.298132 8.647558
0.275929 0.945243 -1.260288
0.170966 1.304767 -0.846027
0.091311 1.567491 -0.355347
0.009724 1.832602 0.216694
0.034170 1.726623 0.507960
0.027775 1.712795 1.155958
0.023960 1.709816 1.450672
0.018155 1.709036 1.833737
0.007952 1.714182 2.393443
-0.083330 2.016007 2.942667
-0.116871 2.121954 3.230825
-0.053204 1.856744 3.801044
-0.064856 1.877410 4.182471
-0.037525 1.734618 4.931695
-0.017589 1.578866 6.377528
-0.005431 1.516801 6.685459
-0.016698 1.514731 7.438572
-0.042417 1.581510 7.911641
-0.038563 1.544475 8.311811
0.015750 1.321121 8.747885
-0.097391 1.785510 -0.844250
-0.196704 2.041303 -0.356799
-0.129383 1.832213 0.105910
-0.098837 1.717685 0.752576
-0.103351 1.708985 1.226357
-0.195333 1.902490 2.642341
-0.305678 2.194310 3.014813
-0.217239 1.882609 4.445212
-0.072882 1.451828 5.046904
-0.081343 1.406139 6.587794
-0.098405 1.440391 6.886929
-0.099577 1.417587 7.466426
-0.091610 1.377164 7.869525
-0.097543 1.367537 8.452098
-0.014559 1.102717 9.179799
-0.182638 1.582518 -0.775798
-0.263869 1.737796 -0.287676
-0.262517 1.708517 0.454143
-0.264709 1.696192 0.931312
-0.225689 1.599432 1.319632
-0.380098 1.876852 2.746007
-0.430911 1.974344 3.041259
-0.279357 1.594304 4.668276
-0.133479 1.266036 5.179792
-0.027674 1.026181 5.600318
0.053990 0.824576 6.387775
-0.038220 1.016965 6.488939
-0.245062 1.438085 7.009141
-0.244909 1.417068 7.590436
-0.248316 1.403561 8.173316
-0.197928 1.281394 8.596682
-0.024535 0.895758 9.076867
-0.241199 1.469724 -0.617692
-0.383422 1.711865 -0.214932
-0.380667 1.686674 0.436894
-0.380872 1.680500 0.647342
-0.335282 1.581371 1.210312
-0.504350 1.842631 2.544503
-0.569035 1.941143 3.101505
-0.383726 1.564256 4.552076
-0.224658 1.258021 5.241186
-0.108348 1.033887 5.751962
0.101357 0.641624 6.291755
0.024870 0.766595 6.677320
-0.260102 1.261032 7.186310
-0.348078 1.404099 7.651552
-0.342734 1.379178 8.145524
-0.275243 1.247950 8.479555
-0.111795 0.929201 9.318987
-0.617283 1.835008 -1.578770
-0.210999 1.225518 -1.153195
-0.313110 1.362570 -0.662005
-0.529897 1.665924 -0.078391
-0.470783 1.568599 0.304098
-0.470563 1.550686 0.956397
-0.471744 1.546771 1.166031
-0.669293 1.794561 2.760080
-0.796848 1.969818 3.223314
-0.474648 1.453818 4.771580
-0.268749 1.141770 5.104663
-0.151064 0.947519 5.884499
-0.006226 0.725257 6.221000
-0.148467 0.924611 6.592316
-0.355835 1.217883 7.035659
-0.463333 1.361187 7.589047
-0.455264 1.336029 8.081591
-0.415094 1.258315 8.770870
-0.140170 0.837764 9.360024
-0.387541 1.312773 -1.614235
-0.609828 1.565169 -0.629128
-0.661461 1.613514 0.025061
-0.594478 1.516785 0.583526
-0.594131 1.511321 0.791744
-0.596543 1.500723 1.354227
-0.817946 1.737437 2.942676
-0.891031 1.821234 3.232939
-0.918698 1.840050 3.876816
-0.688218 1.543809 4.284517
-0.352262 1.109464 4.983628
-0.235408 0.960925 5.121872
-0.047419 0.705991 6.005022
0.059770 0.567111 6.240458
-0.255077 0.941222 6.948222
-0.399183 1.115820 7.132825
-0.466294 1.183328 7.789958
-0.570823 1.304215 8.162200
-0.514224 1.219410 8.761119
-0.417704 1.200993 -1.547947
-0.728982 1.509280 -0.562798
-0.789236 1.564556 -0.172868
-0.712274 1.468661 0.474238
-0.710705 1.458472 0.860233
-0.713774 1.447332 1.511983
-0.948116 1.666523 2.837652
-1.027055 1.743791 3.128889
-0.978206 1.681529 3.602776
-0.801236 1.481149 4.179574
-0.493429 1.141525 4.779835
-0.335116 0.958539 5.464776
-0.086208 0.687071 5.806641
-0.067649 0.654423 6.393909
-0.376533 0.974313 6.738846
-0.483694 1.079605 7.116046
-0.593192 1.187427 7.490863
-0.680196 1.263254 8.234448
-0.582836 1.152700 8.566011
-0.549704 1.176456 -0.539050
-0.761064 1.357272 -0.049055
-0.755008 1.343922 0.337057
-0.825525 1.397851 0.813882
-0.825540 1.389997 1.199242
-1.069084 1.582801 2.525278
-1.158408 1.653917 2.991964
-1.247822 1.726949 3.368741
-0.988584 1.477494 4.123528
-0.647938 1.159557 4.632665
-0.466684 0.983815 5.225451
-0.210416 0.741833 5.745574
-0.163355 0.692935 6.059559
-0.347653 0.851751 6.430415
-0.626869 1.092958 6.963097
-0.701812 1.147219 7.619347
-0.772841 1.199795 8.185127
-0.678922 1.106409 8.606091
-0.455712 0.893665 9.155899
-0.029335 0.669350 -1.138622
-0.652274 1.138875 -0.787432
-0.877796 1.303588 -0.384100
-0.864677 1.282804 0.179685
-0.938718 1.331987 0.568654
-0.936080 1.319236 1.131437
-1.041832 1.369618 2.728437
-1.210937 1.493382 3.017491
-1.393807 1.622726 3.565677
-1.096894 1.388032 3.969901
-0.650741 1.037137 4.484729
-0.547298 0.943473 5.249287
-0.327732 0.771048 5.488934
-0.309318 0.744096 6.163941
-0.418555 0.822046 6.455409
-0.638178 0.979528 7.001361
-0.717809 1.027857 7.659143
-0.678567 0.991849 7.974160
-0.732047 1.025308 8.363419
-0.567673 0.889530 8.893843
-0.442089 0.895029 -1.459110
-0.836409 1.134471 -0.856859
-1.077905 1.282091 -0.542414
-1.141652 1.309218 0.200263
-0.969052 1.196047 0.402576
-0.963841 1.184209 0.877928
-0.963321 1.175345 1.353374
-0.718637 1.006674 2.099133
-0.812082 1.059028 2.486347
-1.330404 1.381351 2.855500
-1.349330 1.384918 3.325961
