-32.281735 -21.332499 -1.519611
-32.369136 -21.415237 -0.883182
-32.523387 -21.557354 -0.243859
-32.747152 -21.758503 0.062849
-32.995673 -22.006535 3.453841
-30.659548 -23.735145 -1.954614
-30.674224 -23.755101 -1.398382
-30.750759 -23.837357 -1.012463
-30.825131 -23.918136 -0.540001
-31.033966 -24.139042 0.104726
-31.207741 -24.345323 3.231023
-28.596731 -26.171642 -2.112530
-28.612899 -26.197412 -1.472478
-28.680359 -26.281601 -1.255117
-28.750922 -26.373593 -0.614527
-28.941651 -26.611900 0.029614
-29.067110 -26.766765 0.254482
-29.028745 -26.749205 3.318331
-26.579534 -28.232062 -1.913982
-26.590576 -28.253583 -1.357725
-26.652213 -28.344308 -1.055868
-26.770539 -28.516445 -0.669726
-26.886307 -28.686779 -0.109311
-26.998280 -28.850884 0.371400
-26.956065 -28.823050 3.435123
-24.447532 -30.106650 -1.757007
-24.508129 -30.215192 -1.118342
-24.561454 -30.306697 -0.898097
-24.665911 -30.489434 -0.169311
-24.818114 -30.747878 0.226422
-25.047390 -31.148452 1.781707
-21.917291 -31.975672 -2.092547
-21.926065 -32.001041 -1.534112
-22.019842 -32.198368 -0.980522
-22.109768 -32.384515 -0.675482
-22.197139 -32.571350 0.059293
-22.333233 -32.893339 3.475981
-19.576801 -33.693025 -2.032391
-19.505643 -33.522593 -1.715710
-19.548495 -33.638564 -1.076583
-19.586961 -33.736993 -0.855894
-19.662215 -33.931612 -0.296275
-19.809512 -34.304051 0.270485
-19.864696 -34.462267 1.645373
-19.780293 -34.280124 3.266494
-20.258378 -35.478758 4.471321
-16.693401 -34.999077 -1.891700
-16.697248 -35.022611 -1.336084
-16.758232 -35.225306 -0.953157
-16.847338 -35.523114 -0.312377
-16.934484 -35.811391 0.166998
-16.903604 -35.715474 0.305258
-16.840550 -35.556098 2.391630
-16.855589 -35.615723 2.962618
-17.022058 -36.156879 3.407603
-17.174454 -36.660383 4.215098
-14.101563 -36.227190 -1.901923
-14.103242 -36.244662 -1.513827
-14.126710 -36.353010 -1.212934
-14.171930 -36.563366 -0.573393
-14.239232 -36.859280 -0.268987
-14.302843 -37.150956 0.471027
-14.329906 -37.305417 1.931085
-14.252975 -36.988792 2.398428
-14.203067 -36.780936 2.609397
-14.276644 -37.115991 3.377805
-11.106520 -37.351113 -2.035025
-11.092214 -37.271215 -1.640692
-11.106811 -37.385050 -1.254796
-11.134461 -37.600455 -0.529639
-11.176364 -37.901387 -0.052852
-11.218593 -38.197748 0.258966
-11.229545 -38.291236 0.745487
-11.281826 -38.669883 1.417962
-11.279184 -38.661522 1.646868
-11.198289 -38.140836 2.196781
-11.173589 -38.001553 2.845359
-11.210621 -38.267490 3.266259
-8.345619 -38.063164 -2.036672
-8.336954 -37.986000 -1.558528
-8.350598 -38.199441 -1.175801
-8.363932 -38.409077 -0.788922
-8.375054 -38.617152 -0.055859
-8.395504 -38.915833 0.255600
-8.413177 -39.205877 0.919039
-8.431490 -39.491113 1.417357
-8.414612 -39.283314 1.638385
-8.387721 -38.962004 2.111307
-8.380765 -38.922183 2.768472
-8.389881 -39.084619 3.269026
-5.466701 -38.494461 -1.780025
-5.464859 -38.507469 -1.475699
-5.462484 -38.620541 -1.089975
-5.457982 -38.934563 -0.365552
-5.455487 -39.236472 0.027340
-5.450821 -39.629324 0.773703
-5.448648 -40.121963 1.100337
-5.446210 -40.109045 1.505062
-5.443006 -39.683954 2.064285
-5.440078 -39.655921 2.551208
-5.435936 -39.807737 3.226912
-5.433861 -39.980414 3.559051
-5.429251 -40.512791 4.286714
-2.646223 -38.787214 -1.851655
-2.643393 -38.800630 -1.547024
-2.624724 -39.016083 -1.079623
-2.598515 -39.326813 -0.523472
-2.572841 -39.629523 0.041459
-2.540379 -40.023745 0.616550
-2.516892 -40.316783 0.937770
-2.514684 -40.299141 1.516736
-2.535563 -39.983036 1.906423
-2.534286 -39.945992 2.567117
-2.519252 -40.123492 2.895178
-2.504506 -40.260835 3.663121
-2.467926 -40.735622 3.940141
0.541023 -38.875120 -1.819455
0.542828 -38.881254 -1.681443
0.582808 -39.104973 -0.874687
0.615770 -39.306786 -0.654674
0.681361 -39.706805 -0.176787
0.762708 -40.196789 0.572829
0.825886 -40.583924 0.986293
0.810921 -40.476049 1.303058
0.764488 -40.160906 1.784125
0.748100 -40.037392 2.268848
0.761326 -40.099093 2.851362
0.804810 -40.356575 3.365861
3.435584 -38.831561 -1.702326
3.440270 -38.843390 -1.391910
3.491759 -39.051487 -0.922398
3.587424 -39.448750 -0.450235
3.683148 -39.839103 0.291637
3.821015 -40.416458 0.789894
3.866700 -40.603562 1.113571
3.774925 -40.197657 1.594252
3.726173 -39.971424 2.249036
3.722966 -39.947022 2.650539
3.762178 -40.099304 3.241400
6.601898 -38.513513 -1.859373
6.614873 -38.539436 -1.125234
6.680169 -38.736826 -0.818163
6.808094 -39.124320 -0.255691
6.995192 -39.692483 0.494455
7.148296 -40.164813 0.734013
7.207490 -40.334028 1.504810
7.052583 -39.845397 1.805942
6.984554 -39.620435 2.463222
7.009210 -39.689132 2.874755
7.064732 -39.855539 3.208509
7.172517 -40.177406 3.916319
9.549308 -38.085554 -2.042994
9.483511 -37.917064 -1.638728
9.531788 -38.026940 -1.078482
9.649187 -38.311118 -0.774369
9.768670 -38.594816 -0.120737
9.996173 -39.149868 0.196978
10.184869 -39.603555 0.877259
10.221252 -39.687895 1.203912
10.066003 -39.296449 1.777103
9.984267 -39.087412 2.262595
9.977194 -39.063472 2.669178
10.037276 -39.200421 3.353648
10.176111 -39.535119 3.798572
12.588898 -37.202970 -1.823251
12.598513 -37.216779 -1.429097
12.701533 -37.411624 -0.698218
12.885864 -37.772535 -0.305012
13.158372 -38.308506 0.096699
13.338457 -38.655981 0.862385
13.380866 -38.734675 1.276023
13.332581 -38.634449 1.596589
13.142162 -38.247364 2.251768
13.135312 -38.229456 2.571857
13.206968 -38.362600 3.257603
13.324766 -38.589576 3.781996
15.303456 -36.178582 -1.665875
15.315087 -36.192352 -1.186618
15.423790 -36.370045 -0.881912
15.637803 -36.719294 -0.231445
16.000571 -37.316409 0.435508
16.257353 -37.741799 0.675332
16.303767 -37.811182 1.358138
16.143662 -37.539490 1.758724
15.926075 -37.170024 2.322912
15.963869 -37.227182 2.822530
16.001670 -37.285361 3.236326
16.128464 -37.488598 3.934962
18.038694 -35.102072 -1.983518
17.991122 -35.031301 -1.668868
18.063225 -35.127675 -1.106325
18.243397 -35.379135 -0.715834
18.481510 -35.709073 0.028125
18.942873 -36.357284 0.617198
19.286713 -36.841457 0.953257
19.220259 -36.740039 1.636722
18.866230 -36.233845 2.023126
18.677371 -35.960027 2.590542
18.717353 -36.011480 3.092164
18.876551 -36.233674 3.436504
19.130782 -36.586674 4.161247
20.890187 -33.496055 -1.758290
20.904522 -33.508662 -1.277950
21.041798 -33.668978 -0.887523
21.243580 -33.903883 -0.234450
21.695258 -34.438837 0.256482
21.873424 -34.638412 1.666320
21.729924 -34.461567 2.242573
21.712776 -34.436419 2.738301
21.759788 -34.488677 3.153252
23.389762 -31.922011 -1.794276
23.330603 -31.858444 -1.480261
23.416726 -31.941400 -0.830976
23.629725 -32.158573 -0.611073
24.124316 -32.660811 0.135697
24.612151 -33.159744 0.461584
25.092490 -33.646934 1.253237
25.016543 -33.566001 1.578729
24.370794 -32.896261 2.220992
24.289579 -32.810002 2.535778
24.272234 -32.788625 2.944165
24.445780 -32.961065 3.643583
24.894562 -33.416937 4.303725
25.713018 -30.189712 -2.145965
25.589116 -30.074257 -1.484935
25.677328 -30.148802 -1.008094
25.982619 -30.417686 -0.706031
26.213219 -30.618720 -0.222059
26.737582 -31.078601 0.538125
26.959094 -31.272829 0.864741
27.023895 -31.325618 1.459193
26.932896 -31.240001 2.046346
26.700749 -31.031934 2.262897
26.605353 -30.943190 2.753297
26.729158 -31.049090 3.264700
27.059617 -31.336944 3.987415
28.030549 -27.921401 -2.001340
27.975558 -27.875127 -1.345391
28.144136 -27.999502 -1.041591
28.554852 -28.303867 -0.479181
29.039127 -28.662058 0.274668
29.339909 -28.878042 1.601966
29.237006 -28.795634 2.275350
29.063312 -28.662789 2.584122
29.117309 -28.699557 3.087997
29.393085 -28.901407 3.798736
29.999026 -29.352983 4.292346
30.023207 -25.775439 -1.884602
30.039056 -25.782753 -1.486767
30.310176 -25.952035 -0.838150
30.572244 -26.115436 -0.179290
31.162723 -26.491326 0.228587
31.561161 -26.736677 1.659397
31.378607 -26.616648 2.065425
31.263338 -26.537861 2.739700
31.329069 -26.577656 3.070747
32.142253 -23.271661 -1.571795
32.238713 -23.321342 -1.347434
32.522338 -23.466870 -0.606802
32.969924 -23.700570 -0.029839
33.499094 -23.978090 0.473752
33.647081 -24.047484 1.816523
33.361596 -23.892561 2.305900
33.252277 -23.831738 2.712616
33.379228 -23.893790 3.495661
33.706414 -24.065036 3.857423
33.648513 -20.826655 -1.828735
33.664771 -20.831199 -1.431211
33.957949 -20.956174 -0.782480
34.421981 -21.158142 -0.386691
34.973956 -21.397644 0.196844
35.400190 -21.574920 1.809317
35.295404 -21.526600 2.131043
35.087361 -21.431631 2.623241
35.135356 -21.448251 3.311252
35.324849 -18.025837 -2.099028
35.354341 -18.031855 -1.443629
35.562474 -18.099706 -0.791927
35.948037 -18.230024 -0.308640
36.611496 -18.456425 0.185745
37.078824 -18.614301 0.783908
37.634803 -18.803320 1.308533
37.621316 -18.795956 1.730734
37.037458 -18.591438 2.122153
36.722881 -18.478917 2.697674
36.777615 -18.494032 3.295928
36.933446 -18.545198 3.726810
37.367126 -18.692285 4.191346
36.664108 -15.389358 -1.991459
36.585830 -15.366101 -1.589240
36.798475 -15.418932 -1.025391
37.195357 -15.521111 -0.545195
37.780095 -15.672462 0.033103
38.357706 -15.822376 0.538867
38.814770 -15.936506 1.659177
38.696546 -15.902014 2.165217
38.095297 -15.740290 2.547308
38.075244 -15.732954 2.870853
38.210190 -15.763803 3.657568
38.654386 -15.878628 4.120623
37.606620 -12.627375 -1.861613
37.620346 -12.628042 -1.551329
37.833395 -12.665048 -1.074644
38.238623 -12.737528 -0.508724
38.832040 -12.846297 -0.108061
39.416508 -12.950554 0.754069
39.702421 -13.001548 1.176974
40.075263 -13.067655 1.792264
39.868570 -13.027505 2.021304
39.253284 -12.909265 2.495087
39.110075 -12.878285 3.168440
39.257687 -12.902221 3.776112
39.725431 -12.988162 4.058377
38.318993 -9.857373 -1.951168
38.445902 -9.867801 -1.302360
38.750887 -9.901021 -1.086202
39.161591 -9.943548 -0.431455
39.760556 -10.008922 -0.028604
40.420944 -10.072819 1.761956
40.500963 -10.079319 2.183371
40.174410 -10.039377 2.671414
40.053485 -10.023760 2.988206
40.205097 -10.037230 3.596625
40.635113 -10.081459 4.331049
39.089616 -6.709695 -2.040016
39.118557 -6.706646 -1.385244
39.328321 -6.711361 -1.079367
39.741036 -6.720323 -0.425215
40.443062 -6.738783 0.155223
40.939421 -6.751792 0.572570
41.485793 -6.758998 2.209679
40.774139 -6.735533 2.408027
40.735476 -6.730743 3.000782
40.895116 -6.732598 3.520531
41.328554 -6.741722 4.255218
39.402778 -3.783359 -1.554033
39.516442 -3.776064 -1.159732
39.925777 -3.756024 -0.770597
40.432423 -3.730672 -0.198464
41.131815 -3.697973 0.211072
41.392308 -3.676984 1.821395
41.361863 -3.674699 2.417186
41.223180 -3.677139 3.005232
41.297838 -3.671903 3.337787
39.567881 -0.580120 -1.833753
39.691921 -0.560635 -1.179197
40.000940 -0.519078 -0.696898
40.501262 -0.454641 -0.383595
41.097272 -0.376065 0.288025
41.558578 -0.309710 1.718013
41.628639 -0.297298 2.318726
41.411096 -0.322582 2.631820
41.460824 -0.312165 3.322351
41.614858 -0.289736 3.844663
42.245985 -0.206778 4.515000
39.495110 2.308868 -2.031776
39.522610 2.318414 -1.374983
39.828160 2.381959 -0.982547
40.229888 2.465849 -0.410899
40.820021 2.586417 -0.003918
41.353718 2.706224 2.113036
41.324857 2.703562 2.618505
41.283067 2.698864 3.213201
41.436257 2.732728 3.735666
41.768648 2.803154 4.373565
39.195642 5.511677 -1.622633
39.302615 5.544226 -1.312763
39.604673 5.634193 -0.746623
40.186906 5.803807 -0.260968
40.760650 5.972766 0.507211
41.206253 6.108209 1.775703
41.165912 6.101580 2.557874
40.958786 6.043754 2.785276
41.106532 6.089879 3.399622
38.590935 8.326464 -1.698553
38.789632 8.401365 -1.393298
39.086860 8.514666 -0.741211
39.560727 8.691178 -0.342487
40.122981 8.901919 0.333572
40.645351 9.103554 1.870166
40.629579 9.099886 2.200004
40.500809 9.056440 2.794445
40.536539 9.074620 3.581733
37.773711 11.480883 -1.676526
37.874683 11.529770 -1.369293
38.158351 11.664537 -0.893144
38.619293 11.883909 -0.061712
39.251151 12.180367 0.438572
39.725871 12.414182 2.479693
39.603850 12.360908 2.980532
39.670945 12.394262 3.315223
36.824619 14.226781 -1.738600
36.837243 14.236544 -1.342720
37.022594 14.343030 -0.865703
37.377572 14.543973 -0.385680
38.076336 14.936996 0.193643
38.649678 15.267351 1.808737
38.800708 15.355013 2.326749
38.678862 15.291271 2.919074
38.656695 15.281192 3.246287
38.863606 15.401327 3.961454
39.511790 15.766300 4.556675
35.584891 16.841061 -1.939138
35.605455 16.859282 -1.289291
35.695594 16.920781 -0.982768
35.953053 17.094180 -0.419644
36.538608 17.482173 -0.021835
37.653246 18.231316 2.199204
37.454638 18.104933 2.786025
37.415658 18.083608 3.382743
37.460062 18.116538 3.898188
38.013878 18.483653 4.295742
34.164190 19.743952 -2.114954
34.023244 19.637521 -1.626693
34.038162 19.654145 -0.978979
34.121858 19.722566 -0.587774
35.862473 21.107572 2.599426
35.754707 21.027157 3.098122
35.799137 21.065819 3.611259
36.159350 21.350939 4.074901
32.549337 22.137038 -2.039966
32.413657 22.017169 -1.637705
32.429777 22.038454 -0.821647
32.507371 22.112763 -0.345611
34.378177 23.832108 2.270360
34.210382 23.683119 2.676185
34.181911 23.661407 3.182619
34.228798 23.707427 3.607248
34.685440 24.128827 4.457782
30.614887 24.750781 -1.947790
30.482460 24.610269 -1.800642
30.428369 24.558085 -1.151675
30.434088 24.568414 -0.676338
32.143964 26.428391 2.590271
32.132448 26.418146 2.826154
32.093708 26.382728 3.512131
32.399605 26.715205 4.065660
28.643627 26.856911 -2.030050
28.529993 26.720330 -1.544904
28.472871 26.652300 -1.236008
28.477738 26.662100 -0.846662
28.543080 26.749509 -0.204534
30.172795 28.802267 2.590831
30.090819 28.704311 3.000368
30.115395 28.741547 3.694620
30.332130 29.016223 4.240837
26.302379 29.034499 -1.808589
26.197481 28.884027 -1.409707
26.204607 28.901458 -0.766869
26.149899 28.824948 -0.376066
26.204740 28.910952 0.097152
27.725652 31.179754 2.407255
27.652955 31.076914 2.817706
27.615478 31.029972 3.593684
27.753998 31.240097 4.128403
24.110612 30.871656 -1.926465
24.068725 30.804788 -1.442810
23.972506 30.641565 -1.127220
23.975863 30.654176 -0.566511
23.925603 30.572692 -0.089602
23.972236 30.659410 0.386752
25.310756 33.012545 2.817354
25.297226 32.993044 3.147088
25.327785 33.051275 3.575184
25.633598 33.592506 4.428813
21.718357 32.593784 -2.013206
21.636695 32.428024 -1.693430
21.599397 32.358169 -1.127877
21.558544 32.280869 -0.564990
21.557418 32.286337 -0.004954
21.596933 32.375369 0.472273
22.764363 34.837905 2.551184
22.743278 34.802340 3.152013
22.765424 34.855748 3.671017
23.033460 35.425138 4.435251
18.959323 34.273115 -1.997977
18.893094 34.107927 -1.511870
18.860725 34.032697 -0.948997
18.825635 33.947456 -0.556788
18.824032 33.952696 0.000952
18.822593 33.952681 0.222744
19.814339 36.590298 2.635342
19.804614 36.570385 2.963418
19.813299 36.606443 3.750276
20.044811 37.220896 4.238494
16.648893 35.346985 -1.934009
16.592345 35.170241 -1.618673
16.565431 35.094522 -1.057999
16.565822 35.103745 -0.669310
16.564365 35.110422 -0.112569
16.591428 35.206073 0.276887
17.375931 37.798900 2.778633
17.362098 37.764462 3.285680
17.402078 37.906583 3.900826
13.712856 36.491518 -1.708256
13.670412 36.308976 -1.395103
13.670587 36.327605 -0.754927
13.691529 36.430431 -0.451719
14.290070 39.205256 2.329574
14.258686 39.077802 2.831082
14.251666 39.055268 3.157642
14.301960 39.299291 3.780992
10.965431 37.495534 -2.045290
10.951449 37.422735 -1.479575
10.922341 37.238299 -1.081940
10.935653 37.346687 -0.693795
11.355439 40.369055 2.166823
11.306774 40.049566 2.567734
11.297330 40.009426 3.163975
11.300863 40.059343 3.768591
11.375903 40.601993 4.336292
7.856308 38.268398 -2.036375
7.842743 38.087913 -1.635434
7.834782 38.005752 -1.157697
7.837523 38.121166 -0.433299
8.015617 41.262924 2.181576
7.987177 40.840816 2.576186
7.974961 40.700472 3.163751
7.983584 40.873564 3.504354
8.005883 41.306986 4.240227
5.039915 38.551723 -1.800398
5.035216 38.579115 -1.074282
5.031622 38.688153 -0.686413
4.982669 41.325651 2.402208
4.980700 41.187162 2.991766
4.977827 41.262056 3.325070
4.970779 41.499947 4.039631
2.164860 38.910741 -1.966521
2.168683 38.832357 -1.487532
2.155273 38.949391 -0.931727
2.127273 39.254404 -0.630084
1.850273 42.307718 1.846244
1.892323 41.789529 2.244518
1.917672 41.472190 2.554907
1.917642 41.424120 3.240601
1.901110 41.579813 3.764012
-1.008934 38.860479 -1.930505
-1.032927 38.982314 -1.376090
-1.070577 39.191030 -0.990334
-1.109011 39.398062 -0.429848
-1.566263 42.016144 1.957784
-1.514793 41.693769 2.453154
-1.479490 41.470296 2.858002
-1.477466 41.446490 3.184807
-1.521766 41.682669 3.898355
-3.905277 38.788755 -1.664765
-3.958937 38.996954 -1.279278
-4.014422 39.205998 -0.633751
-4.617732 41.590314 1.977553
-4.543919 41.282597 2.291738
-4.514620 41.148679 2.882655
-4.529722 41.192488 3.576638
-4.619980 41.549823 3.942349
-7.037841 38.328606 -1.996822
-7.047542 38.348521 -1.519450
-7.118759 38.552455 -1.047333
-7.252456 38.941514 -0.487407
-7.882732 40.770985 2.395753
-7.845109 40.650654 2.808046
-7.837837 40.620961 3.225803
-7.922120 40.862781 3.759786
-9.790030 37.617309 -1.994237
-9.839662 37.728598 -1.523075
-9.965538 38.020886 -0.969676
-10.126087 38.397294 -0.494407
-10.853275 40.093640 2.204580
-10.765633 39.874959 2.789049
-10.760515 39.859017 3.025934
-10.855549 40.073702 3.826314
-12.814372 36.698589 -1.971899
-12.872732 36.805202 -1.501654
-13.021782 37.086007 -0.949076
-13.259945 37.537818 -0.303517
-14.072564 39.074014 2.310012
-13.973581 38.878581 2.624433
-13.957463 38.839630 3.218023
-14.074817 39.058285 3.838610
-15.557900 35.720173 -2.150942
-15.572786 35.738883 -1.676626
-15.687525 35.920771 -1.293193
-15.909184 36.273309 -0.653170
-16.229069 36.787188 -0.173850
-16.598358 37.381107 0.320965
-16.854257 37.783924 1.422789
-16.846202 37.765042 1.926741
-16.782522 37.655914 2.424542
-16.721186 37.552673 2.741496
-16.795477 37.663239 3.615246
-17.099094 38.152880 3.905554
-18.094257 34.408538 -1.878925
-18.162340 34.499673 -1.577776
-18.350018 34.754646 -1.111539
-18.652716 35.167897 -0.554953
-19.068272 35.736309 0.103893
-19.536439 36.378206 0.698455
-19.760174 36.678281 1.631171
-19.636510 36.503828 1.949266
-19.445123 36.232969 2.525838
-19.420717 36.192185 3.204896
-19.515199 36.317620 3.723395
-20.999073 32.837573 -1.824222
-21.076836 32.924453 -1.437854
-21.284248 33.161388 -0.969550
-21.621172 33.546532 -0.237182
-22.505637 34.552183 2.268262
-22.289186 34.295110 2.838924
-22.331935 34.340151 3.345104
-22.565407 34.606770 3.881342
-23.309561 31.106595 -1.981754
-23.405043 31.196058 -1.260070
-23.624505 31.413316 -0.962366
-23.989083 31.772221 -0.232492
-24.485767 32.266252 0.167956
-25.048999 32.825273 0.762735
-25.245827 33.014482 1.689879
-24.949020 32.713077 2.174377
-24.718737 32.478328 2.655250
-24.775020 32.531904 2.982155
-24.960656 32.713361 3.504854
-25.675523 29.194475 -1.824384
-25.765570 29.268498 -1.440028
-26.006618 29.471126 -0.973995
-26.397439 29.800546 -0.330782
-26.932149 30.254381 0.155280
-27.538268 30.769192 0.660026
-27.748742 30.941279 1.675813
-27.356659 30.602566 2.065981
-27.181651 30.448195 2.640749
-27.237445 30.492655 3.055832
-27.435995 30.658453 3.578654
-27.763303 27.214410 -1.858555
-27.861773 27.283271 -1.387955
-28.114660 27.466302 -1.004561
-28.445039 27.706265 -0.616613
-28.934964 28.061499 0.040075
-29.578648 28.530925 0.542178
-29.798469 28.683576 1.735688
-29.539357 28.489436 2.224315
-29.288091 28.303102 2.440702
-29.253489 28.272621 3.113877
-29.463013 28.422729 3.636802
-29.769076 25.138883 -2.107805
-29.708906 25.097138 -1.544066
-29.893617 25.209615 -1.075327
-30.158201 25.372147 -0.603100
-30.672529 25.690610 -0.037886
-31.418294 26.147552 1.458288
-31.574828 26.242712 1.877746
-31.207680 26.007845 2.531635
-31.101194 25.938223 2.932153
-31.250524 26.029469 3.266992
-31.540558 22.881110 -2.061701
-31.463131 22.838587 -1.829970
-31.664188 22.940548 -1.192987
-31.944302 23.084275 -0.550459
-32.391599 23.316920 0.016256
-33.009777 23.641003 0.424519
-33.799557 24.055086 0.940819
-33.964927 24.139017 1.454886
-33.421425 23.848952 1.847180
-32.954578 23.598268 2.408181
-32.839090 23.533868 2.896225
-32.994945 23.613994 3.230835
-33.384660 23.815150 3.950035
-33.244714 20.145848 -1.953502
-33.255170 20.148842 -1.730078
-33.368065 20.193354 -1.173047
-33.750831 20.352459 -0.532467
-34.307640 20.586297 0.035868
-35.040717 20.895206 0.624619
-35.677803 21.164208 1.053843
-35.569495 21.114096 1.648198
-34.906266 20.828033 2.118821
-34.527641 20.665104 2.329834
-34.591548 20.689089 2.829760
-34.652058 17.638893 -1.726135
-34.765093 17.674532 -1.255785
-35.066599 17.772978 -0.531718
-35.543288 17.933978 -0.226097
-36.205625 18.156149 0.438589
-36.859199 18.375728 1.040047
-36.853412 18.372236 1.277316
-36.360528 18.200104 1.848531
-35.954641 18.057769 2.410823
-35.935997 18.049362 2.729575
-36.084535 18.096335 3.325575
-35.864798 14.719049 -2.062735
-35.797343 14.697991 -1.418242
-36.006217 14.747863 -0.951299
-36.302141 14.821293 -0.735142
-36.794830 14.941763 -0.088482
-37.568781 15.133720 0.491344
-38.142520 15.275529 1.000014
-38.037311 15.246949 1.320397
-37.535263 15.117113 1.798071
-37.216724 15.033114 2.361400
-37.192408 15.024463 2.763850
-37.440618 15.083442 3.364496
-37.873014 15.188792 3.992613
-36.775799 12.025934 -1.553616
-36.989386 12.060602 -1.087763
-37.292567 12.112030 -0.788172
-37.595423 12.162323 -0.312748
-38.284939 12.278892 0.432749
-38.773202 12.362678 0.758069
-38.857577 12.373899 1.345746
-38.445460 12.298558 1.825057
-38.121245 12.238155 2.386682
-38.096156 12.231291 2.787427
-38.256618 12.256396 3.290786
-38.688420 12.327894 4.002633
-37.456630 9.261393 -1.752991
-37.478491 9.260226 -1.199859
-37.790854 9.288187 -0.651697
-38.194456 9.325751 -0.180102
-38.791272 9.382600 0.302765
-39.284114 9.429488 0.710907
-39.474328 9.446053 1.120875
-39.255830 9.420686 1.694638
-38.835241 9.375707 2.164560
-38.811947 9.370947 2.564432
-38.956117 9.380767 3.325986
-38.077012 6.203032 -1.874269
-38.194115 6.202938 -1.492471
-38.307399 6.202759 -1.108505
-38.518336 6.203913 -0.639918
-39.023810 6.210092 -0.082250
-39.522065 6.216570 0.403279
-40.010031 6.221721 1.076364
-39.900549 6.217757 1.390377
-39.477192 6.206384 1.949671
-39.350814 6.201098 2.429700
-39.430333 6.200673 2.748748
-39.586139 6.200063 3.337168
-38.328360 3.372987 -1.942800
-38.349354 3.369000 -1.475483
-38.464444 3.359827 -1.010634
-38.772243 3.340513 -0.630318
-39.176811 3.314788 -0.074414
-39.673137 3.283913 0.494252
-40.063495 3.259351 0.987584
-40.154336 3.252409 1.305194
-39.736479 3.272655 1.776933
-39.607201 3.276387 2.341628
-39.669053 3.269485 2.917591
-39.836807 3.257708 3.331560
-40.182268 3.234918 3.942451
-38.462842 0.185009 -2.190489
-38.486467 0.178869 -1.722670
-38.610668 0.157225 -1.007371
-38.811959 0.128415 -0.876622
-39.217106 0.068147 -0.239258
-40.102287 -0.060953 0.730836
-40.389870 -0.103471 1.140351
-39.771725 -0.021345 1.779896
-39.643134 -0.006887 2.343796
-39.727983 -0.020106 2.575131
-39.870259 -0.044523 3.332681
-40.212558 -0.095879 3.942898
-38.389466 -2.612597 -1.907037
-38.412201 -2.620887 -1.352842
-38.618935 -2.667516 -0.970145
-38.920760 -2.735044 -0.500429
-39.119128 -2.780466 -0.023119
-40.077736 -2.993409 1.221435
-39.776835 -2.930340 1.441760
-39.556541 -2.886655 2.006187
-39.529037 -2.883763 2.491594
-39.677413 -2.919685 3.163899
-39.935830 -2.977658 3.591575
-38.050017 -5.724447 -1.908012
-38.069215 -5.733195 -1.436773
-38.176563 -5.767930 -1.051418
-38.472867 -5.860049 -0.583285
-38.763424 -5.949951 -0.192516
-39.046592 -6.039824 0.546437
-39.519491 -6.184176 0.870105
-39.601391 -6.211933 1.363518
-39.190914 -6.092470 2.007864
-39.178838 -6.090276 2.236194
-39.232468 -6.110603 2.900539
-39.480874 -6.188584 3.412335
-37.520416 -8.514639 -1.983762
-37.539732 -8.525083 -1.514192
-37.646992 -8.569232 -1.047176
-37.935622 -8.682927 -0.580654
-38.218724 -8.794002 -0.191522
-38.403292 -8.868432 0.373837
-38.862151 -9.047566 0.865603
-39.035209 -9.117120 1.359450
-38.646691 -8.970629 1.744581
-38.525080 -8.927645 2.308812
-38.593850 -8.956627 2.712723
-38.738414 -9.015849 3.298442
-39.229763 -9.209462 4.102665
-36.795668 -11.230749 -2.041301
-36.817649 -11.244764 -1.488820
-36.919182 -11.295030 -1.105576
-37.201893 -11.432665 -0.387249
-37.474386 -11.562179 -0.166659
-37.651651 -11.649813 0.483790
-38.354670 -11.986182 1.387282
-37.965843 -11.807771 2.031062
-37.773509 -11.718833 2.246621
-37.739157 -11.706479 2.814471
-37.974649 -11.820516 3.321311
-38.466469 -12.055818 3.950975
-35.837805 -14.275035 -1.930337
-35.941296 -14.337764 -1.464676
-35.951429 -14.346285 -1.077441
-36.131552 -14.452492 -0.693795
-36.395189 -14.609089 0.032574
-36.393125 -14.610045 0.340206
-36.583444 -14.734039 2.436373
-36.472942 -14.673221 2.823850
-36.784599 -14.855926 3.335785
-34.767245 -16.953218 -1.825285
-34.696987 -16.908417 -1.435369
-34.788945 -16.973569 -1.052908
-34.963110 -17.096930 -0.333304
-35.211807 -17.267183 -0.114282
-35.306404 -17.350029 2.448169
-35.283215 -17.337167 2.840800
-35.573968 -17.538699 3.437745
-33.248498 -19.759647 -1.897519
-33.264829 -19.777102 -1.344334
-33.347397 -19.845333 -1.128838
-33.510781 -19.981322 -0.576935
-33.667950 -20.112345 -0.019141
-33.759524 -20.204707 2.371674
-33.922381 -20.344916 3.522745
-31.940539 -21.974793 -2.024403
-31.883546 -21.926872 -1.464676
-31.963577 -22.003083 -1.164256
-32.118011 -22.149927 -0.611230
-32.340248 -22.358598 -0.137561
-32.335559 -22.359603 0.511185
-32.591471 -22.618604 3.335785
-30.112653 -24.576192 -2.030700
-30.051511 -24.511881 -1.804201
-30.066958 -24.535090 -1.079972
-30.208099 -24.693138 -0.526151
-30.412187 -24.917252 -0.221646
-30.544834 -25.066192 0.344008
-30.578825 -25.128909 3.245078
-31.253655 -25.870610 4.325361
-28.228590 -26.743180 -1.680128
-28.234829 -26.754040 -1.371166
-28.303610 -26.845298 -0.896119
-28.430895 -27.010217 -0.424892
-28.616744 -27.248958 0.051375
-28.900890 -27.621894 1.595456
-25.928445 -28.948647 -2.140076
-25.880322 -28.879999 -1.826487
-25.892251 -28.905774 -1.098666
-26.006581 -29.081190 -0.710154
-26.174002 -29.337986 -0.148196
-26.283586 -29.505436 0.161280
-26.472984 -29.807716 1.880091
-26.391014 -29.705135 3.734093
-26.852457 -30.403328 4.401197
-23.666046 -30.730310 -1.656056
-23.721484 -30.834176 -1.184759
-23.773673 -30.931289 -0.795226
-23.922293 -31.200053 -0.320686
-24.018137 -31.376582 0.246465
-24.140543 -31.611127 1.711964
-21.315333 -32.398121 -1.788470
-21.362774 -32.504357 -1.401410
-21.451600 -32.699675 -0.930221
-21.495219 -32.796670 -0.622449
-21.621736 -33.074564 0.027322
-21.531470 -32.918183 2.519334
-21.706925 -33.305022 3.523044
-18.662387 -34.095321 -2.027086
-18.630796 -34.016532 -1.716694
-18.669767 -34.128371 -1.246898
-18.706801 -34.236546 -0.690040
-18.846065 -34.618430 -0.046001
-18.949525 -34.899277 0.266085
-18.961976 -34.958937 1.809488
-18.731670 -34.358694 2.566759
-18.921187 -34.875264 3.261649
-16.075695 -35.388225 -2.032342
-16.051124 -35.314589 -1.553781
-16.081111 -35.427116 -1.083160
-16.137643 -35.628507 -0.696174
-16.220465 -35.923425 -0.135301
-16.300941 -36.210516 0.434297
-16.311910 -36.275619 1.720708
-16.242565 -36.052654 2.366317
-16.205035 -35.932856 2.756378
-16.301258 -36.274389 3.356621
-16.450625 -36.798082 3.987454
-13.140614 -36.476130 -2.000813
-13.162816 -36.602515 -1.363934
-13.203453 -36.810552 -0.979142
-13.243031 -37.016133 -0.505132
-13.282296 -37.215245 -0.197165
-13.317825 -37.409197 0.543749
-13.335978 -37.503808 0.771927
-13.430633 -37.979200 1.360046
-13.423785 -37.960723 1.851204
-13.311713 -37.437527 2.485100
-13.281970 -37.307879 2.961892
-13.333566 -37.570047 3.384261
-13.462369 -38.209591 3.937978
-10.433418 -37.555883 -1.814998
-10.433311 -37.569291 -1.509893
-10.445023 -37.688846 -0.869398
-10.470187 -37.891715 -0.651351
-10.492954 -38.096268 -0.003411
-10.516856 -38.293799 0.307383
-10.561712 -38.676360 1.145195
-10.598200 -38.966837 1.382521
-10.551861 -38.642321 2.033122
-10.521983 -38.427604 2.335039
-10.512365 -38.384565 2.991630
-10.530065 -38.543473 3.492757
-10.598212 -39.090753 4.038024
-7.592164 -38.137979 -1.651209
-7.595430 -38.258072 -1.096568
-7.610551 -38.565264 -0.796897
-7.617605 -38.773668 -0.063542
-7.631091 -39.071441 0.420537
-7.649054 -39.461014 1.001181
-7.656931 -39.648819 1.410527
-7.642667 -39.433412 1.805866
-7.626629 -39.204330 2.369930
-7.623649 -39.184643 2.683265
-7.627808 -39.334165 3.358516
-7.651519 -39.803829 3.718615
-4.419183 -38.813635 -2.076656
-4.419631 -38.729081 -1.765912
-4.412934 -38.850663 -1.210502
-4.404818 -39.060912 -0.823812
-4.392432 -39.369332 -0.176956
-4.377528 -39.766896 0.481089
-4.369304 -39.958051 0.972627
-4.361662 -40.146170 1.381497
-4.365202 -39.930622 1.776652
-4.368096 -39.701430 2.340547
-4.363244 -39.769641 2.833441
-4.352647 -40.023583 3.432113
-4.342542 -40.277136 3.950999
-1.536997 -38.960943 -1.505938
-1.523176 -39.073492 -1.119285
-1.497658 -39.285566 -0.477216
-1.454427 -39.686281 -0.085460
-1.420418 -39.980640 0.573443
-1.368338 -40.472174 0.897588
-1.346462 -40.657025 1.396840
-1.396430 -40.144022 1.781408
-1.406149 -40.019954 2.264107
-1.396364 -40.076214 2.931400
-1.377043 -40.235690 3.435859
-1.328244 -40.677064 4.062044
1.620966 -38.941733 -1.873634
1.628517 -38.964049 -1.315445
1.689077 -39.273388 -0.763004
1.747631 -39.574424 -0.287475
1.823769 -39.967474 0.282503
1.934822 -40.548922 0.868181
1.989863 -40.830020 1.371841
1.898533 -40.322973 1.758826
1.861331 -40.111510 2.064667
1.858627 -40.077776 2.639681
1.891474 -40.238794 3.142949
4.482780 -38.638971 -1.340923
4.538837 -38.843206 -0.954021
4.621573 -39.142874 -0.308566
4.750759 -39.627330 0.003094
4.905572 -40.202901 0.586574
4.981892 -40.477310 1.267094
4.904329 -40.172514 1.665954
4.825093 -39.859434 2.145482
4.846839 -39.932462 2.556442
4.867516 -40.001378 2.969167
4.936458 -40.251532 3.488166
7.367829 -38.368083 -1.985524
7.413073 -38.487950 -1.340902
7.419175 -38.498374 -0.945264
7.522167 -38.789656 -0.468411
7.687672 -39.264595 -0.070703
7.884979 -39.825469 0.689627
7.981515 -40.097386 1.196162
7.914402 -39.894261 1.601210
7.779151 -39.489578 2.166466
7.774992 -39.471520 2.485678
7.794258 -39.513487 3.247872
7.914745 -39.856389 3.690649
10.464145 -37.645714 -1.906930
10.518424 -37.760252 -1.264037
10.605038 -37.952626 -0.874946
10.690107 -38.141403 -0.481714
10.895089 -38.600657 0.175307
11.136070 -39.144684 0.674764
11.254480 -39.408076 1.180336
11.211194 -39.302851 1.588291
11.003599 -38.819248 2.149309
10.952795 -38.694324 2.722433
11.027508 -38.861640 2.966954
11.126349 -39.076063 3.749765
13.286937 -36.958143 -1.849145
13.298823 -36.974497 -1.370973
13.354585 -37.074100 -0.894933
13.547527 -37.433909 -0.419644
13.831451 -37.965023 0.153236
14.018596 -38.314682 0.563190
14.155993 -38.567603 1.156772
14.101553 -38.455622 1.830575
13.911230 -38.091874 2.043315
13.847636 -37.961542 2.793363
13.934243 -38.122647 3.037921
15.967504 -35.880444 -1.870723
15.980692 -35.896096 -1.392895
16.099601 -36.078939 -0.748652
16.314749 -36.420556 -0.530090
16.584778 -36.845917 0.042174
16.797424 -37.179356 0.627379
17.163584 -37.757066 1.322681
16.672745 -36.963105 2.106082
16.660107 -36.937274 2.599453
16.693998 -36.984775 3.187933
16.832855 -37.200930 3.708773
17.289313 -37.925297 4.207798
18.922784 -34.626332 -2.105615
18.879352 -34.563030 -1.619597
18.955186 -34.658436 -0.973417
19.140892 -34.904138 -0.583899
19.445538 -35.306147 0.159723
19.863481 -35.864716 0.482634
20.218782 -36.337162 0.994777
20.152602 -36.243123 1.496379
19.782412 -35.739783 2.059755
19.592104 -35.480014 2.449319
19.690624 -35.606437 3.044013
19.847635 -35.812243 3.564068
20.055166 -36.084891 4.190241
21.422805 -33.163464 -1.649825
21.438557 -33.176437 -1.081281
21.577126 -33.333092 -0.687113
21.845832 -33.637897 -0.033963
22.304498 -34.164727 0.371994
22.478783 -34.351680 1.959713
22.276213 -34.115358 2.175369
22.252253 -34.081450 2.846077
22.360365 -34.201802 3.356313
22.524255 -34.385727 3.969381
24.036197 -31.306585 -1.908115
24.058018 -31.322499 -1.254912
24.211751 -31.469514 -0.776410
24.503957 -31.752571 -0.294446
25.005857 -32.240094 0.375446
25.268417 -32.485347 1.881950
25.047584 -32.266500 2.099839
24.950603 -32.165558 2.766538
25.073419 -32.282667 3.188978
26.329100 -29.547247 -1.747103
26.271540 -29.493838 -1.174443
26.434801 -29.628664 -0.695170
26.743213 -29.888767 -0.472503
27.281279 -30.338944 0.371304
27.566087 -30.570199 1.705750
27.400853 -30.426718 2.107731
27.296661 -30.332951 2.776771
27.356369 -30.381052 3.104598
28.629616 -27.314097 -1.898317
28.650862 -27.325126 -1.329127
28.740853 -27.387460 -1.019438
29.076590 -27.624394 -0.453171
29.649148 -28.031989 0.037214
30.134015 -28.375148 0.722872
30.696389 -28.775837 1.158272
30.600395 -28.702419 1.759663
30.021294 -28.284275 2.056117
29.752694 -28.087085 2.630243
29.801571 -28.117758 3.226573
30.023800 -28.274779 3.575817
30.465585 -28.587231 4.229531
30.577438 -25.133072 -1.630663
30.681417 -25.192669 -1.063072
31.035417 -25.404618 -0.409420
31.550721 -25.716396 0.082618
32.062025 -26.026888 0.410574
32.228736 -26.125906 0.830948
32.384968 -26.216568 1.526108
32.279281 -26.147694 2.121630
31.839037 -25.876234 2.421145
31.812704 -25.856568 2.923541
32.023615 -25.980605 3.629551
32.316618 -26.155366 4.264933
32.523536 -22.560062 -1.603894
32.713260 -22.653772 -1.297307
32.997542 -22.792867 -0.642750
33.539572 -23.062616 -0.066114
34.075220 -23.330235 0.349082
34.214710 -23.389121 2.054826
33.932536 -23.244559 2.365788
33.816225 -23.182479 2.862498
34.050489 -23.297188 3.389098
34.360099 -23.449216 4.022114
34.103092 -20.068455 -1.885271
34.215452 -20.111884 -1.405377
34.504885 -20.229276 -1.014166
34.980703 -20.421026 -0.181477
35.535914 -20.648438 0.228917
35.872429 -20.777354 1.842290
35.766334 -20.731281 2.164273
35.550634 -20.638090 2.745669
35.616271 -20.662540 3.166699
35.614077 -17.255017 -1.793607
35.728460 -17.288895 -1.314776
36.020921 -17.381905 -1.097362
36.416283 -17.504787 -0.353886
36.989156 -17.685414 0.317890
37.437482 -17.821598 1.659175
37.424511 -17.815344 1.985038
37.209523 -17.742830 2.478255
37.160019 -17.721968 3.248211
37.412201 -17.800571 3.687430
37.935521 -17.965880 4.252916
36.791720 -14.567648 -1.862858
36.914925 -14.593503 -1.213429
37.316076 -14.687872 -0.738382
37.711615 -14.780817 -0.253418
38.295727 -14.919443 0.242477
38.647887 -14.994899 1.848603
38.536028 -14.965777 2.168120
38.302888 -14.905067 2.836083
38.467677 -14.942394 3.262718
37.775347 -11.794414 -1.797287
37.896370 -11.810948 -1.233565
38.301806 -11.875522 -0.845538
38.804545 -11.954506 -0.186788
39.298610 -12.034679 0.043596
39.659611 -12.083922 1.737757
39.542354 -12.062055 2.147134
39.317158 -12.021871 2.637154
39.466064 -12.042212 3.331149
39.734205 -12.084349 3.680846
38.609809 -8.675850 -1.824386
38.726147 -8.683040 -1.432221
39.037825 -8.706311 -1.043251
39.446702 -8.737018 -0.562327
40.049192 -8.783050 0.016833
40.812479 -8.835468 1.724113
40.797937 -8.832289 2.051624
40.272858 -8.786221 2.529173
40.325353 -8.786370 3.216975
40.589213 -8.805405 3.656246
41.028612 -8.837619 4.302647
39.147549 -5.764931 -1.884936
39.264717 -5.763406 -1.492615
39.580230 -5.762806 -1.017210
39.992000 -5.761806 -0.360720
40.593663 -5.763156 0.133025
41.364841 -5.760018 1.572156
41.333321 -5.755627 2.261773
40.897573 -5.749041 2.833079
40.987089 -5.748764 2.985622
41.139215 -5.746171 3.596496
41.571387 -5.744832 4.333548
39.493272 -2.520114 -1.801637
39.614843 -2.507532 -1.237592
39.926151 -2.481169 -0.760491
40.430372 -2.440755 -0.365097
41.029774 -2.392024 0.218487
41.592071 -2.340388 1.743978
41.562671 -2.338989 2.341271
41.338065 -2.353482 2.744639
41.294280 -2.353190 3.338154
41.556567 -2.330743 3.779158
42.191987 -2.278773 4.449199
39.580569 0.391807 -1.591847
39.798885 0.428503 -0.942661
40.202761 0.491989 -0.462181
40.897471 0.598600 -0.060315
41.515377 0.706718 2.474456
41.468698 0.703909 3.160593
41.525509 0.715568 3.675224
41.861855 0.769888 4.312624
39.434470 3.363369 -1.709630
39.549128 3.392466 -1.229874
39.849601 3.462825 -0.924539
40.346590 3.580689 -0.179079
40.929488 3.717152 0.408671
41.478808 3.850696 1.760546
41.459021 3.848777 2.178864
41.240503 3.801496 2.584515
41.206051 3.796775 3.089970
41.432702 3.853385 3.891498
42.061158 4.000192 4.473160
39.059345 6.217077 -2.246131
38.990262 6.199553 -1.673188
39.199968 6.267277 -1.111403
39.592029 6.390279 -0.633254
40.074086 6.540883 -0.145576
40.740619 6.748595 0.445512
41.169422 6.890094 2.072465
40.961096 6.828346 2.390130
40.910005 6.817615 3.166910
41.067291 6.868490 3.600906
38.336193 9.378877 -1.963834
38.447888 9.426512 -1.485429
38.648800 9.510271 -0.920787
39.027898 9.665089 -0.352019
39.677950 9.928002 0.229971
40.476875 10.256469 1.767222
40.638316 10.324213 2.288543
40.150621 10.132335 2.678071
40.208793 10.158863 3.191825
40.361088 10.222397 3.626274
40.760194 10.386307 4.366983
37.641763 12.169688 -2.078599
37.571142 12.138687 -1.591750
37.670685 12.189062 -1.282936
37.952349 12.329526 -0.718373
38.496546 12.598023 -0.058491
39.211887 12.949120 0.534953
39.533080 13.114072 1.890256
39.418360 13.061788 2.394347
39.381881 13.048101 2.992468
39.516814 13.117702 3.607248
36.552605 14.863840 -2.112286
36.574102 14.880279 -1.543685
36.673228 14.941137 -1.063000
36.852769 15.048051 -0.667369
37.288569 15.304840 -0.096958
38.061824 15.758144 0.581794
38.541646 16.045965 1.939287
38.506926 16.030642 2.629657
38.388688 15.965554 3.131257
38.444535 16.000924 3.557214
38.738834 16.176101 4.195362
35.203546 17.817492 -2.176661
35.139639 17.776595 -1.690173
35.157875 17.794707 -0.953228
35.325316 17.912867 -0.731527
36.975500 19.086063 2.633934
36.944966 19.068531 3.139349
37.004402 19.112347 3.472636
33.786182 20.367593 -2.269044
33.733876 20.330888 -1.527708
33.741270 20.339300 -1.218022
33.747935 20.347784 -0.822978
35.472807 21.773767 2.447292
35.445363 21.755423 2.953916
35.496537 21.800275 3.378175
31.958145 22.656264 -1.860245
31.970831 22.672219 -1.382645
31.979248 22.684142 -0.904833
33.806841 24.439839 2.544235
33.717534 24.358111 2.865225
33.754413 24.397990 3.470522
30.040381 25.159576 -1.629094
29.981524 25.097800 -1.233967
30.052891 25.179771 -0.930020
30.056969 25.190132 -0.283347
31.809912 27.159808 2.335846
31.657490 26.994253 2.741317
31.625626 26.964259 3.337731
28.099467 27.292603 -1.903951
27.985785 27.149920 -1.504291
27.930877 27.082975 -1.111437
27.997355 27.175023 -0.471080
28.058600 27.257856 -0.081201
29.724168 29.429609 2.313900
29.588462 29.257691 2.629356
29.564538 29.231826 3.135831
29.587002 29.267648 3.830929
30.028302 29.844430 4.604138
-14.700794 26.030447 2.235206
-14.687651 26.032868 2.770918
-14.944530 25.985537 3.378355
-15.170351 25.943929 3.755741
-15.412977 25.899225 4.367769
-15.937678 25.802548 4.692647
-14.423490 26.081536 6.657110
-15.621322 25.860834 7.918584
-16.292981 25.737080 8.176767
-16.820665 24.721534 2.082303
-17.027635 24.665381 2.977184
-17.063256 24.655717 3.226060
-17.413064 24.560812 4.017356
-17.545396 24.524910 4.448145
-17.891559 24.430994 4.872255
-17.655704 24.494980 8.041506
-18.314147 24.316342 8.070451
-19.060545 24.113841 8.296727
-19.012384 23.168852 2.225618
-18.998908 23.173740 2.761783
-19.215424 23.095202 3.513571
-19.348770 23.046833 3.942913
-19.478002 22.999955 4.372746
-19.913295 22.842060 4.979284
-18.244514 23.447380 6.937567
-19.630990 22.944459 7.825749
-20.357642 22.680878 8.037687
-21.041486 22.432825 8.401647
-20.775932 21.563846 2.098591
-20.816252 21.545345 2.724925
-20.976242 21.471937 3.386577
-21.283113 21.331137 3.946052
-21.456347 21.251652 4.468521
-21.608181 21.181987 4.759286
-21.555750 21.206041 7.838332
-22.135829 20.939887 8.003166
-22.674774 20.692605 8.315060
-22.555187 19.727646 2.014050
-22.447333 19.788474 2.747852
-22.674510 19.660348 3.355570
-22.799489 19.589861 3.784368
-23.042299 19.452918 4.253968
-22.932601 19.514786 4.834132
-23.231534 19.346188 7.803984
-23.748371 19.054698 8.104545
-24.225232 18.785754 8.321742
-24.138108 17.770159 2.423578
-24.147002 17.764115 3.192316
-24.337280 17.634849 3.567615
-24.685129 17.398534 4.076419
-24.648812 17.423202 7.538264
-25.140755 17.088997 7.833972
-25.519209 16.831891 8.320247
-25.645938 15.628299 2.326590
-25.458421 15.779484 2.881005
-25.684060 15.597562 3.348460
-25.947789 15.384929 3.910273
-26.055615 15.297994 4.343333
-26.403804 15.017267 4.720796
-25.926667 15.401957 6.300973
-26.090270 15.270051 6.912838
-26.419306 15.004765 7.299006
-26.395056 15.024317 7.683297
-26.648435 14.820029 8.120591
-26.892638 13.289158 2.532579
-26.880110 13.301310 3.068930
-27.025080 13.160681 3.589174
-27.289005 12.904659 4.008987
-27.387539 12.809076 4.442014
-28.070491 12.146575 4.904319
-26.982875 13.201618 6.724016
-27.253156 12.939431 7.010765
-27.652434 12.552109 7.440066
-27.789969 12.418693 7.825691
-28.150508 12.068951 8.407793
-27.711912 11.261910 2.321186
-27.832119 11.124757 2.982453
-28.094405 10.825497 3.630923
-28.279418 10.614402 4.102481
-28.299159 10.591878 4.351908
-28.800221 10.020182 4.673638
-28.268194 10.627204 6.963235
-28.604880 10.243057 7.302257
-28.673258 10.165039 7.733649
-28.976094 9.819512 8.221993
-28.760822 8.651364 2.332235
-28.786152 8.617147 2.962997
-28.907928 8.452653 3.487651
-28.929035 8.424142 3.740255
-29.191342 8.069820 4.490966
-29.509372 7.640228 4.824815
-29.003066 8.324138 6.183083
-29.101244 8.191520 6.706305
-29.248566 7.992517 7.184916
-29.339336 7.869905 7.710738
-29.694056 7.390754 8.250919
-29.293541 6.373236 2.633921
-29.432051 6.149414 3.245295
-29.598726 5.880080 3.573971
-29.701701 5.713681 4.099424
-29.938009 5.331826 4.476234
-30.338124 4.685272 4.808489
-29.680125 5.748542 6.489400
-29.764062 5.612905 7.010583
-29.916002 5.367382 7.580223
-30.134937 5.013600 7.973396
-30.375345 4.625121 8.467686
-29.790892 3.786455 2.317064
-29.719744 3.926106 2.817285
-29.837738 3.694504 3.427277
-29.980548 3.414191 3.755091
-30.131544 3.117814 4.320685
-30.413570 2.564247 4.601590
-30.575771 2.245873 5.037871
-30.125558 3.129558 6.572099
-30.218850 2.946440 7.187084
-30.348834 2.691306 7.759440
-30.516563 2.362082 8.061967
-30.785771 1.833675 8.379542
-29.988419 1.100304 2.215196
-30.004193 1.060740 2.843015
-30.059388 0.922310 3.273596
-30.185071 0.607092 3.835666
-30.307937 0.298941 4.402260
-30.582953 -0.390807 4.493082
-30.291849 0.339284 6.177087
-30.319514 0.269900 6.747144
-30.377452 0.124588 7.270831
-30.416059 0.027760 7.702508
-30.602847 -0.440710 8.283884
-30.872638 -1.117353 8.423264
-30.019628 -1.526911 2.633650
-30.022285 -1.535610 3.025897
-30.106115 -1.809981 3.494897
-30.235479 -2.233388 4.242867
-30.350774 -2.610746 4.528613
-30.231970 -2.221909 6.493543
-30.252362 -2.288655 7.061622
-30.349044 -2.605093 7.494636
-30.457665 -2.960605 8.026068
-30.577940 -3.354262 8.426786
-29.802141 -4.016256 2.134450
-29.793367 -3.976000 2.817540
-29.848775 -4.230232 3.431206
-29.934188 -4.622128 3.711064
-29.964020 -4.759012 4.146931
-30.137812 -5.556416 4.567952
-29.956329 -4.723734 6.777734
-29.998611 -4.917734 7.164161
-30.059725 -5.198146 7.738601
-30.157661 -5.647503 8.231113
-30.284256 -6.228357 8.320312
-29.406068 -6.761832 2.038525
-29.382126 -6.581116 2.686033
-29.405278 -6.755878 3.353363
-29.453883 -7.122771 3.776446
-29.497551 -7.452403 4.347274
-29.560867 -7.930338 4.589005
-29.471713 -7.257380 6.696645
-29.480472 -7.323497 7.264330
-29.523606 -7.649095 7.698196
-29.578008 -8.059745 8.093579
-29.667677 -8.736611 8.369198
-28.757232 -9.188253 2.296750
-28.756408 -9.171744 2.836283
-28.762289 -9.289571 3.412946
-28.780683 -9.658027 3.836900
-28.804167 -10.128434 4.452462
-28.828160 -10.609061 4.696983
-28.785176 -9.748080 6.901701
-28.794983 -9.944520 7.288282
-28.811377 -10.272924 7.726141
-28.834288 -10.731858 8.220416
-27.901153 -11.487946 2.225451
-27.896108 -11.641483 3.039462
-27.888488 -11.873396 3.422452
-27.880983 -12.101815 3.807539
-27.870092 -12.433291 4.381012
-27.852547 -12.967316 4.719484
-27.876389 -12.241570 6.971943
-27.871479 -12.390999 7.266999
-27.862118 -12.675894 7.844054
-27.847068 -13.133968 8.339958
-26.826198 -14.019567 1.902212
-26.847162 -13.838889 2.550854
-26.840055 -13.900139 3.415806
-26.797535 -14.266566 3.839785
-26.735502 -14.801169 4.169457
-26.699917 -15.107841 4.511324
-26.751711 -14.661461 6.628351
-26.743902 -14.728751 7.201319
-26.737206 -14.786455 7.541900
-26.704799 -15.065740 8.120407
-26.620960 -15.788264 8.493208
-25.608715 -16.064976 2.294132
-25.572727 -16.244801 2.969170
-25.526686 -16.474855 3.357156
-25.460039 -16.807875 3.933483
-25.371146 -17.252055 4.322071
-25.317293 -17.521142 4.814179
-25.469243 -16.761869 6.983886
-25.421318 -17.001339 7.470143
-25.347908 -17.368154 8.010207
-25.266684 -17.774012 8.419166
-23.994267 -18.501528 2.790798
-23.976054 -18.562962 3.280642
-23.879465 -18.888773 3.853323
-23.710886 -19.457417 4.282705
-23.623014 -19.753826 4.629901
-23.856284 -18.966958 6.698638
-23.810879 -19.120114 7.456491
-23.743597 -19.347067 7.939745
-23.600668 -19.829192 8.298232
-22.451796 -20.251439 2.317385
-22.406345 -20.368374 2.898435
-22.250378 -20.769641 3.417743
-22.147683 -21.033853 3.900449
-22.034737 -21.324435 4.242992
-22.166192 -20.986225 6.944694
-22.110419 -21.129716 7.474167
-22.008186 -21.392736 7.823314
-21.825727 -21.862162 8.418793
-20.662462 -22.122217 2.474647
-20.584189 -22.282914 3.147585
-20.458900 -22.540137 3.626431
-20.283713 -22.899805 3.915056
-20.062627 -23.353705 4.398267
-20.326121 -22.812733 7.099030
-20.240628 -22.988253 7.490312
-20.117253 -23.241547 7.839938
-19.897310 -23.693100 8.434918
-18.786826 -23.706679 2.751095
-18.710952 -23.834298 3.185344
-18.505484 -24.179895 3.467067
-18.217812 -24.663759 4.035772
-18.032538 -24.975390 4.474220
-18.368040 -24.411072 7.074565
-18.175411 -24.735072 7.608344
-18.055468 -24.936816 7.863517
-17.821478 -25.330388 8.365215
-16.667018 -25.307961 2.809485
-16.531223 -25.498411 3.194042
-16.365675 -25.730587 3.673793
-16.071293 -26.143450 4.151652
-15.841164 -26.466201 4.448184
-16.166473 -26.009959 7.242283
-16.027446 -26.204940 7.728860
-15.839097 -26.469094 8.175472
-15.547827 -26.877594 8.543514
-14.460628 -26.522649 2.571565
-14.233780 -26.786140 3.137141
-13.935215 -27.132935 3.512804
-13.660040 -27.452560 4.039448
-13.492956 -27.646634 4.287990
-13.677913 -27.431796 6.941088
-13.608693 -27.512197 7.377157
-13.424174 -27.726522 7.959475
-13.155182 -28.038966 8.365963
-12.155124 -27.711304 1.863853
-12.101797 -27.763915 2.735486
-11.913494 -27.949697 2.976080
-11.607944 -28.251154 3.498822
-11.445617 -28.411307 3.889979
-11.085939 -28.766167 4.374655
-11.353138 -28.502543 7.083013
-11.310996 -28.544120 7.426889
-11.109522 -28.742895 8.011387
-10.751146 -29.096471 8.378287
-9.738597 -28.709377 2.487160
-9.621994 -28.807022 2.925158
-9.424290 -28.972583 3.549468
-9.141820 -29.209128 3.982800
-8.728943 -29.554880 4.323448
-8.949887 -29.369854 6.755026
-8.899144 -29.412346 7.333605
-8.750978 -29.536423 7.729370
-8.330057 -29.888911 8.424447
-7.943769 -30.212396 8.564825
-7.411349 -29.376371 2.025683
-7.491852 -29.319431 2.621412
-7.092581 -29.601830 3.231244
-6.718946 -29.866097 3.612069
-6.533794 -29.997052 4.004514
-6.513169 -30.011637 7.012397
-6.424594 -30.074284 7.684100
-6.269713 -30.183829 8.079658
-5.749032 -30.552100 8.501526
-5.089091 -29.806852 2.140566
-5.003067 -29.857545 2.867578
-4.726875 -30.020304 3.202355
-4.237208 -30.308864 3.770839
-3.892190 -30.512183 4.066444
-3.906747 -30.503601 7.229427
-3.776867 -30.580139 7.765706
-3.535210 -30.722547 8.122297
-2.984969 -31.046803 8.550750
-2.415620 -30.113622 2.390983
-2.225651 -30.203293 2.919253
-1.786575 -30.410552 3.532036
-1.374494 -30.605067 3.916032
-1.062080 -30.752537 4.117480
-1.063250 -30.751982 6.649629
-1.164269 -30.704297 7.319213
-0.906697 -30.825879 7.905250
-0.613147 -30.964445 8.123499
-0.035923 -31.236913 8.552677
0.012939 -30.195481 2.511947
0.420221 -30.348431 3.026911
0.770101 -30.479825 3.455676
1.065137 -30.590622 3.795751
1.489312 -30.749917 4.184841
1.374269 -30.706711 7.151116
1.558508 -30.775900 7.780541
2.030584 -30.953183 8.380913
2.520195 -30.085178 2.301744
2.776199 -30.157593 2.918894
2.999901 -30.220870 3.302269
3.303195 -30.306661 3.637055
3.926377 -30.482938 4.158671
3.932747 -30.484737 6.927281
4.124328 -30.538928 7.555241
