0.755349 -0.160139 2.204235
0.860320 -0.149995 2.270135
0.940607 -0.142311 3.117165
1.047701 -0.131960 3.179201
1.056062 -0.131159 3.252238
1.026200 -0.134099 3.811425
0.732265 -0.162528 3.866130
0.687408 -0.166902 4.253975
0.441728 -0.190693 4.615840
0.516161 -0.183537 5.052987
0.954146 -0.141200 5.234103
1.135733 -0.123679 5.642954
1.226214 -0.114970 6.068969
1.061369 -0.130927 6.244479
0.828460 -0.153479 6.563713
0.695792 -0.166337 6.863877
2.461204 0.165152 -0.019461
0.328421 -0.181699 1.580052
0.999460 -0.072718 2.646035
0.925717 -0.084730 2.907739
0.811266 -0.103321 2.753364
0.947589 -0.081195 3.114844
0.907615 -0.087740 3.616830
0.787913 -0.107254 4.195602
0.665243 -0.127241 4.689714
0.708367 -0.120255 4.944205
1.124133 -0.052728 5.557213
1.223590 -0.036560 5.550981
1.106292 -0.055666 5.959170
0.898893 -0.089422 6.394079
0.838107 -0.099359 6.991073
0.791204 -0.107004 7.208747
0.748048 -0.065339 1.890754
0.761035 -0.062357 2.084110
0.877159 -0.035549 2.329020
1.006180 -0.005772 2.690506
0.939868 -0.021124 3.011081
0.747550 -0.065565 3.046152
0.825991 -0.047505 3.717557
0.701183 -0.076323 3.504724
0.676992 -0.081967 4.071403
0.704886 -0.075540 4.264750
0.493891 -0.124345 4.807414
0.516467 -0.119142 4.941689
1.010758 -0.004982 5.480007
1.167598 0.031230 5.768698
1.099453 0.015470 5.920634
0.894021 -0.032039 6.354779
0.804181 -0.052844 6.831797
0.712771 -0.073969 6.869029
1.004461 0.059799 2.690969
0.927362 0.036581 2.892641
0.884587 0.023662 3.393581
0.662779 -0.043050 3.131230
0.647002 -0.047864 3.818234
0.553907 -0.075878 3.845522
0.588139 -0.065666 4.746183
0.893192 0.026057 5.383194
1.151935 0.103875 5.712980
1.060897 0.076481 5.746965
0.856436 0.014920 6.180215
0.751687 -0.016638 6.597251
0.789659 -0.005269 7.173493
2.290043 0.606828 0.429493
0.866206 0.075440 2.219853
1.058438 0.147152 2.277377
0.896839 0.086830 2.605152
0.826434 0.060537 2.867173
0.684499 0.007537 3.321920
0.657805 -0.002478 3.889126
0.551442 -0.042151 3.796274
0.529880 -0.050312 4.955842
0.804619 0.052091 5.940077
0.947740 0.105464 6.171021
0.885555 0.082204 6.765816
0.777077 0.041697 7.126780
2.244214 0.752297 0.075510
0.853858 0.128561 2.138129
1.058526 0.220317 2.432147
0.983276 0.186550 2.631905
0.841410 0.122882 3.081598
0.699572 0.059232 3.476844
0.603795 0.016283 3.442248
0.587842 0.009064 4.071110
0.648127 0.036055 4.505747
4.550528 1.786135 4.577555
4.729841 1.866456 5.498987
4.649224 1.830342 5.106684
4.767493 1.883324 5.672284
4.559426 1.790023 5.578482
2.192084 0.893354 -0.003203
1.008055 0.269025 1.926924
1.200452 0.370416 2.162246
1.042086 0.286910 2.427990
0.896318 0.210032 2.816208
0.749538 0.132626 3.149498
0.694171 0.103406 3.474735
0.561786 0.033582 3.875443
0.609529 0.058708 4.251061
4.526969 2.123575 5.124054
4.579102 2.151027 5.388207
4.637571 2.181864 5.226985
4.583901 2.153554 5.411829
4.563824 2.142935 5.749218
4.427754 2.071188 5.959692
1.660017 0.748026 1.726711
1.415508 0.597703 1.934824
1.282098 0.515634 2.490428
1.057878 0.377762 2.886990
0.832791 0.239362 3.231588
0.665060 0.136254 3.270099
4.358596 2.406345 6.308285
1.574020 0.831616 2.502742
0.536328 0.095617 3.727448
0.385261 -0.011601 4.538442
0.525569 0.087847 4.959615
0.812805 0.291505 5.219588
0.772267 0.262726 5.490652
0.886755 0.343837 6.159417
4.088964 2.614567 6.607506
1.978577 1.302537 0.409706
1.310867 0.762145 1.609858
1.480788 0.899594 1.900553
1.749521 1.116959 2.463274
0.489784 0.097503 4.092205
0.532354 0.131830 5.056759
0.739459 0.299360 5.394507
0.854614 0.392504 5.627432
0.723615 0.286491 5.800917
0.593430 0.181137 5.976175
0.298273 -0.057800 7.001549
1.082013 0.683831 0.514740
1.023918 0.630068 1.237095
0.959179 0.570228 1.491854
0.955389 0.566740 1.388054
1.221131 0.812123 2.321337
1.724283 1.276978 2.106701
1.998495 1.530206 2.881778
2.055429 1.582831 2.661428
0.537281 0.180156 3.906536
0.588404 0.227248 4.989776
0.606236 0.243704 5.124577
0.702934 0.332952 5.798581
0.771645 0.396374 6.230981
3.465109 2.884705 6.088657
1.054563 0.772252 1.383104
0.977459 0.691210 1.107194
0.851024 0.558203 1.484038
1.711480 1.462940 2.184705
2.018361 1.785582 2.665992
2.112534 1.884566 3.000574
2.229850 2.007858 3.551645
0.590482 0.283728 5.134671
0.639449 0.335170 5.508580
0.683259 0.381197 5.821707
3.147976 2.972974 6.196079
3.047056 2.866872 6.023882
1.752913 1.737916 -0.219417
0.867348 0.676943 1.136553
0.803672 0.600666 1.154983
0.946690 0.771910 1.632373
1.429344 1.349953 2.350629
1.807154 1.802535 2.201216
2.014478 2.050709 3.360175
2.142712 2.204316 3.348050
2.194075 2.265865 3.184993
2.144960 2.207006 3.374990
2.096770 2.149253 3.566227
0.584226 0.337204 5.246827
2.753974 2.936160 5.794165
2.963270 3.186794 6.280326
2.744578 2.924853 6.156505
0.827781 0.741094 1.392668
0.890553 0.827128 1.519335
0.894839 0.832982 1.650750
1.571597 1.760650 2.290179
1.815842 2.095463 2.435537
2.012553 2.364953 3.581399
2.117255 2.508516 3.403789
2.179684 2.593986 4.120704
2.195309 2.615485 3.632061
2.278187 2.728964 4.505161
2.262657 2.707698 4.355555
2.380062 2.868565 4.884214
2.504113 3.038543 5.406123
2.510770 3.047738 4.974179
2.592474 3.159644 5.617632
2.543748 3.092832 5.704031
0.827522 0.871106 1.219164
0.837081 0.886106 1.586426
0.894649 0.976809 1.712276
1.126232 1.341694 2.163624
1.471344 1.885491 2.636140
1.697568 2.241975 2.830813
1.825117 2.442930 3.150808
1.868674 2.511602 2.987319
2.025045 2.757914 3.679720
2.109883 2.891550 4.053447
2.176586 2.996547 4.761084
2.179072 3.000559 4.221901
2.205147 3.041603 4.500472
2.278720 3.157428 5.202794
2.250916 3.113654 4.949787
2.182679 3.006051 5.321504
0.772022 0.926949 1.331804
0.731695 0.853232 1.644516
0.776851 0.935730 1.534041
1.046192 1.427509 2.385094
1.240494 1.782389 2.419683
1.352346 1.986620 2.751655
1.507791 2.270498 2.955167
1.633120 2.499314 3.439883
1.725628 2.668291 3.370976
1.823433 2.846792 4.074246
1.851627 2.898341 3.800707
1.969268 3.113044 4.654733
1.927948 3.037558 4.738372
1.876960 2.944434 4.714894
0.591251 0.595940 5.614701
0.613265 0.636013 6.304531
0.487537 0.406334 6.504548
0.462791 0.361095 6.721282
0.700627 0.953162 0.586693
0.658964 0.863841 0.661474
0.709440 0.971902 1.261923
0.721724 0.998113 1.805093
0.764288 1.089346 1.812492
0.899812 1.379777 2.096384
1.045420 1.691774 2.601742
0.408505 0.326350 3.536881
0.413653 0.337205 4.349934
0.327067 0.151614 4.333751
0.227433 -0.062045 4.761654
0.306399 0.107109 5.247823
0.466625 0.450467 5.628902
0.509269 0.541875 5.623251
0.594444 0.724342 6.093951
0.618380 0.775592 6.345406
0.549094 0.627040 6.523623
0.638719 1.001694 0.816042
0.644111 1.015437 1.243073
0.692099 1.138600 1.839716
0.762148 1.318636 1.725248
0.825340 1.480782 2.659425
0.825858 1.482109 2.674091
0.373233 0.318636 4.023701
0.356802 0.276160 5.009345
0.357792 0.278700 5.024727
0.422974 0.446091 5.444474
0.512496 0.676083 5.660375
0.567137 0.816435 5.893010
0.606628 0.917791 6.381643
0.557732 0.792064 6.679710
0.572342 1.038433 0.722421
0.578670 1.058217 1.326517
0.517729 0.865888 1.291860
0.593244 1.103968 2.121636
0.688124 1.403372 2.288546
0.693055 1.418878 2.477844
0.671817 1.351750 2.793017
0.559678 0.997728 3.084750
0.446340 0.639941 3.323826
0.365897 0.385961 3.616383
0.313824 0.221539 3.839883
0.301414 0.182047 4.890865
0.398854 0.489382 5.535896
0.462560 0.690438 5.571110
0.552663 0.974679 6.019141
0.544238 0.947988 6.350483
0.511667 0.845195 6.327794
0.479759 0.979184 0.828633
0.461475 0.904619 1.438431
0.516220 1.126975 1.927012
0.572758 1.356627 2.393707
0.548049 1.256196 2.357736
0.533648 1.197480 2.790702
0.498853 1.055836 3.296623
0.399402 0.651602 3.178484
0.348441 0.444158 3.889341
0.299555 0.245437 3.868836
0.260866 0.088050 4.153393
0.225155 -0.057257 4.502687
0.279146 0.161939 5.233304
0.361087 0.494961 5.432954
0.411372 0.699365 5.467555
0.485217 0.999355 5.974396
0.478354 0.971328 6.304306
0.455772 0.879513 6.339381
0.415494 1.011829 0.948214
0.439626 1.147147 1.752733
0.460716 1.265621 2.052180
0.445806 1.181645 2.248498
0.453360 1.223882 2.730711
0.403429 0.942925 2.891463
0.362168 0.710510 3.473746
0.321595 0.481996 4.006380
0.290343 0.306111 4.169038
0.262548 0.149605 4.455565
0.211040 -0.140167 4.515257
0.246793 0.060625 5.126408
0.325924 0.505619 5.370400
0.360743 0.701497 5.345943
0.407968 0.966966 5.676923
0.402323 0.935037 6.006727
0.409606 0.975670 6.634243
0.352741 1.072489 1.731434
0.358117 1.120276 2.392727
0.359987 1.136939 2.582057
0.353733 1.080323 3.017234
0.332639 0.890541 3.110899
0.300599 0.602310 3.216860
0.282818 0.442114 3.554577
0.255479 0.195899 3.970832
0.227797 -0.053353 4.332957
0.216107 -0.158995 4.932350
0.253800 0.179809 5.139012
0.290383 0.508686 5.279578
0.318798 0.763997 5.554323
0.336695 0.924704 5.844574
0.348607 1.031417 6.331091
0.342780 0.978837 6.544059
0.333979 2.243702 -0.129400
0.282474 1.104956 1.915126
0.284922 1.157520 2.576537
0.282087 1.094288 2.953158
0.274034 0.916480 3.165666
0.263289 0.678693 3.692527
0.249162 0.367667 3.623790
0.242506 0.220211 4.028431
0.231204 -0.029497 4.391552
0.223219 -0.205727 4.559219
0.240499 0.173958 5.015108
0.257040 0.537662 5.338407
0.268747 0.794963 5.613070
0.273867 0.907631 5.665969
0.273016 0.888072 6.056560
0.271162 0.846683 6.329658
0.188732 2.264240 -0.395565
0.212051 1.054622 2.366090
0.212203 1.046156 2.262589
0.215217 0.890512 2.769733
0.216981 0.798424 2.854115
0.221935 0.540562 3.261079
0.225162 0.372639 3.541634
0.229607 0.142175 4.083446
0.234561 -0.116212 4.388067
0.235314 -0.153717 4.789565
0.227359 0.263874 4.861151
0.221070 0.597268 5.565966
0.218003 0.759547 5.860709
0.216492 0.840672 6.233775
0.215417 0.898303 6.484954
0.217478 0.790073 6.461129
0.151334 0.952347 2.190300
0.148717 0.983292 2.561012
0.154162 0.920171 2.941649
0.166414 0.777772 3.455770
0.181279 0.604548 3.675437
0.205844 0.318032 3.789799
0.233610 -0.005355 4.350009
0.245350 -0.141892 4.764469
0.235866 -0.031161 4.823220
0.202137 0.362975 5.334007
0.178107 0.643814 5.731230
0.180968 0.610254 5.564086
0.170033 0.738516 6.177162
0.170911 0.728230 6.130394
0.173242 0.701388 6.465050
0.091395 0.945552 1.988431
0.083289 0.999442 2.654837
0.095419 0.919547 2.856169
0.100107 0.889008 3.475931
0.146673 0.581780 3.406025
0.177497 0.379300 4.787451
0.185618 0.325900 5.061198
0.140445 0.624220 5.581937
0.158298 0.506398 5.494409
0.163512 0.472212 5.829917
0.139184 0.633153 6.567018
0.149014 0.568411 6.724106
-0.257011 2.257257 -0.382103
-0.234703 2.155553 -0.029237
0.025247 0.969628 2.264754
0.044252 0.882914 2.405580
0.039467 0.904871 2.657465
0.071259 0.759936 3.169134
0.105872 0.602040 3.506447
0.170798 0.305585 3.496418
0.245199 -0.033940 3.929030
0.248180 -0.047293 4.526575
0.192595 0.206664 4.876555
0.136097 0.464780 5.220292
0.123232 0.523661 5.536389
0.095842 0.648995 6.152570
0.134118 0.474277 6.269957
0.166383 0.327060 6.510022
-0.008196 0.867522 2.194011
-0.021386 0.913530 2.744634
-0.004540 0.855134 3.127024
0.027858 0.742534 2.973176
0.069297 0.598730 3.430723
0.125512 0.403906 4.817070
0.149202 0.321641 4.909641
0.060005 0.631728 5.553516
0.116765 0.434540 5.546686
0.111878 0.451717 6.126950
0.142370 0.345928 6.549682
0.168360 0.255654 6.587256
-0.545290 2.200965 0.154447
-0.038715 0.793389 2.487325
-0.067755 0.874068 2.313893
-0.043195 0.805883 2.634843
-0.038189 0.792189 3.436392
0.064507 0.506703 3.426428
0.126425 0.334993 4.936257
0.118340 0.357508 5.072120
0.028116 0.608414 5.412733
0.081591 0.459825 5.646522
0.134410 0.313057 5.882802
0.159090 0.244617 6.488342
0.118742 0.356921 6.989920
0.091510 0.432709 7.307614
0.270070 -0.063681 7.263299
-2.462739 -0.995865 2.476764
-2.219483 -0.908338 2.978869
-2.086417 -0.860456 3.264438
-2.006238 -0.831604 3.440527
-1.743954 -0.737270 3.798449
-1.654092 -0.704984 3.766733
-1.262774 -0.564263 4.205857
-0.819301 -0.404878 4.288875
-0.540577 -0.304555 5.012522
-0.711824 -0.366077 5.096295
-0.471478 -0.279621 5.482254
-0.338069 -0.231658 5.576347
-0.015422 -0.115631 5.937173
0.411223 0.037776 6.335607
-0.591771 -0.371841 0.237006
-2.099890 -1.027733 2.438701
-2.183898 -1.064189 2.916843
-1.930172 -0.953630 3.479979
-1.829990 -0.909975 3.711420
-1.743065 -0.872149 3.678095
-1.444834 -0.742240 4.152602
-1.166389 -0.621063 4.097772
-0.567842 -0.360314 5.152129
-0.564485 -0.358851 5.161540
-0.443905 -0.306227 5.795275
0.035031 -0.097643 6.380797
0.234081 -0.010856 7.055200
-0.695567 -0.476722 0.184176
-0.031359 -0.134022 0.491675
-2.076246 -1.188334 2.769171
-2.004036 -1.150996 3.153984
-1.763468 -1.026768 3.718171
-1.587142 -0.935767 3.909844
-1.456969 -0.868599 3.991012
-1.091004 -0.679714 4.433278
-0.841911 -0.551246 4.325737
-0.576362 -0.414093 5.056031
-0.515417 -0.382549 5.513253
-0.210265 -0.225055 5.868984
0.119567 -0.054878 6.019447
0.243864 0.009263 6.118322
0.119553 -0.054738 6.647375
-0.801979 -0.603196 0.304811
-0.148990 -0.211505 0.432069
-1.910316 -1.267330 2.966755
-1.865985 -1.240661 3.297491
-1.647642 -1.109627 3.598150
-1.432313 -0.980399 3.903442
-1.263008 -0.878803 4.099506
-0.894969 -0.657997 4.334390
-0.519740 -0.432740 5.142261
-0.381957 -0.349997 5.564390
-0.279644 -0.288621 5.598603
0.049794 -0.090909 6.079070
0.239235 0.022800 6.419517
0.081616 -0.071642 6.824593
-0.698897 -0.611453 0.436238
-0.227324 -0.284852 0.435577
-1.746073 -1.336077 2.931077
-1.733620 -1.327330 3.416263
-1.441215 -1.124684 3.941460
-1.259038 -0.998448 4.192239
-1.003215 -0.821216 4.407270
-0.808361 -0.686253 4.453926
-0.378484 -0.388265 5.498397
-0.303720 -0.336423 5.744673
-0.241385 -0.293272 5.660769
-0.090390 -0.188642 5.875010
0.015438 -0.115255 6.244543
-0.148116 -0.228359 6.918544
-0.754754 -0.732563 0.420995
-0.373663 -0.430179 0.468000
-1.482048 -1.308841 3.384157
-1.415974 -1.256369 3.562185
-1.218982 -1.099987 3.868545
-0.985865 -0.914910 4.293949
-0.871797 -0.824381 4.379706
-0.704891 -0.691955 4.369722
-0.569264 -0.584233 4.787951
-0.403361 -0.452456 5.326547
-0.382654 -0.436008 5.396067
-0.276479 -0.351668 5.761337
0.014744 -0.120561 5.909481
-0.475303 -0.509043 7.195069
-0.502001 -0.530255 7.087135
-0.713815 -0.698189 7.565180
-0.732491 -0.712936 7.835119
-0.743160 -0.815148 0.331485
-0.547166 -0.637502 0.189649
-0.161780 -0.288088 0.294699
-1.313826 -1.331717 3.144834
-1.286603 -1.306884 3.688951
-1.101793 -1.139253 3.995438
-1.031141 -1.075209 3.963715
-0.812159 -0.876564 4.391182
-0.582673 -0.668454 4.612866
-0.562075 -0.649761 4.680519
-0.403912 -0.506222 5.217112
-0.318322 -0.428543 5.521234
-0.283247 -0.396708 5.648930
0.023918 -0.118163 5.914408
-0.453407 -0.550555 7.141199
-0.521867 -0.612609 7.180686
-0.601384 -0.684507 7.860621
-0.633438 -0.713508 8.072125
-1.099322 -1.298341 2.809702
-1.050939 -1.247650 3.414722
-1.110665 -1.309985 3.466128
-0.946159 -1.138094 3.985525
-0.897889 -1.087729 3.896561
-0.675692 -0.855622 4.382945
-0.541975 -0.715968 4.585552
-0.409297 -0.577398 4.790742
-0.422444 -0.591056 5.012957
-0.299212 -0.462183 5.763681
-0.116973 -0.271982 5.610539
-0.514150 -0.686288 6.693479
-0.513881 -0.685812 7.347422
-0.504945 -0.676367 7.735685
-0.534261 -0.706907 7.947779
-0.399476 -0.566213 7.901640
-0.996728 -1.346675 3.089948
-0.921800 -1.257374 3.809499
-0.869673 -1.195353 3.989532
-0.824613 -1.141818 3.901025
-0.633600 -0.914621 4.330101
-0.493238 -0.747687 4.591014
-0.324407 -0.546872 4.972981
-0.381832 -0.615120 5.019370
-0.277196 -0.490601 5.440761
-0.097438 -0.276865 5.617989
-0.479654 -0.730878 6.643352
-0.478536 -0.729339 7.297749
-0.503512 -0.758958 7.511578
-0.501642 -0.756733 7.521132
-0.276808 -0.489316 8.002069
-0.818360 -1.290496 2.709383
-0.791169 -1.253276 3.262966
-0.816828 -1.288082 3.643130
-0.767806 -1.221267 3.824962
-0.689668 -1.114765 4.121964
-0.515799 -0.877861 4.555110
-0.415745 -0.741568 4.702630
-0.288466 -0.568163 4.969533
-0.273325 -0.547426 5.311363
-0.244311 -0.507874 5.440530
-0.091640 -0.299945 5.559803
-0.485116 -0.835224 7.001682
-0.561628 -0.939433 6.927866
-0.507642 -0.865705 7.548405
-0.428238 -0.757548 7.647022
-0.686303 -1.264604 3.354966
-0.738701 -1.346310 3.620469
-0.750313 -1.364459 3.573844
-0.595940 -1.123191 4.212543
-0.540391 -1.036369 4.453096
-0.385068 -0.793697 4.889216
-0.332845 -0.712171 4.861955
-0.305495 -0.669421 4.989140
-0.158257 -0.439263 5.706268
-0.117324 -0.375388 5.622721
-0.539522 -1.034144 6.711081
-0.478066 -0.937934 7.387620
-0.419526 -0.846397 7.745826
-0.323841 -0.697045 7.640567
-0.636457 -1.371361 2.742276
-0.737240 -1.554191 2.997682
-0.636310 -1.370694 3.673803
-0.603931 -1.311751 4.066605
-0.601840 -1.307952 4.076413
-0.507320 -1.136296 4.275401
-0.413506 -0.965921 4.477000
-0.308922 -0.775970 4.739574
-0.163321 -0.511346 5.513160
-0.217331 -0.609389 5.499468
-0.173396 -0.529534 5.745238
-0.526002 -1.169173 6.680246
-0.415863 -0.968950 7.382191
-0.317192 -0.789703 7.711972
-0.176932 -0.535139 7.636905
-0.092493 -0.444414 0.474808
0.095333 -0.043502 0.242109
-0.622383 -1.574626 2.826037
-0.570170 -1.462793 3.546109
-0.529990 -1.376786 3.996211
-0.538792 -1.395603 3.949699
-0.452152 -1.210389 4.417582
-0.359903 -1.013303 4.677622
-0.249065 -0.776466 5.057933
-0.227519 -0.730534 4.914767
-0.129417 -0.520786 5.513621
-0.127701 -0.517115 5.524464
-0.392874 -1.082682 6.754796
-0.375868 -1.046155 7.199593
-0.295761 -0.874988 7.469281
-0.142785 -0.548294 7.626766
-0.427445 -1.376296 3.116617
-0.504799 -1.573544 3.369595
-0.526321 -1.628402 3.479142
-0.411903 -1.336037 4.171460
-0.365267 -1.216863 4.468496
-0.363638 -1.212700 4.479043
-0.275872 -0.988561 4.797542
-0.163938 -0.702800 5.025326
-0.129058 -0.613655 5.271118
-0.063204 -0.445333 5.754393
-0.344295 -1.162150 6.576484
-0.301436 -1.052398 7.253111
-0.320381 -1.100833 7.090406
-0.187891 -0.762661 7.242597
-0.012327 -0.391985 0.180442
0.205135 0.306262 0.259095
-0.373106 -1.548333 3.031755
-0.361598 -1.510999 3.581390
-0.341263 -1.445439 3.973952
-0.317487 -1.368974 4.154939
-0.286782 -1.270226 4.393822
-0.222137 -1.062491 4.652987
-0.151314 -0.834881 4.973977
-0.095104 -0.654264 5.181743
-0.041050 -0.480380 5.663722
-0.130108 -0.766277 5.718761
-0.229584 -1.085066 6.569745
-0.245025 -1.134307 7.047132
-0.244069 -1.131233 7.057047
-0.117859 -0.931366 0.418284
0.006107 -0.419922 0.129903
0.154282 0.191609 0.023604
-0.287361 -1.628629 3.134814
-0.301239 -1.685819 3.243262
-0.247676 -1.464079 3.974619
-0.244696 -1.451534 4.251612
-0.210564 -1.310576 4.334909
-0.159365 -1.099012 4.592457
-0.108750 -0.889860 4.853475
-0.075042 -0.750644 4.941989
-0.010658 -0.484256 5.657481
-0.125450 -0.957975 5.780849
-0.187038 -1.211526 6.536241
-0.194802 -1.243388 6.749805
-0.154370 -1.076029 7.277510
-0.039342 -0.837170 0.394254
0.051025 -0.318169 0.106868
0.155653 0.283216 0.172707
-0.164174 -1.551037 3.332402
-0.178950 -1.635892 3.384191
-0.140643 -1.414852 4.117225
-0.135673 -1.386209 4.183519
-0.109766 -1.236895 4.536746
-0.085037 -1.094669 4.622715
-0.040247 -0.836797 5.001114
-0.019707 -0.718713 5.032199
0.006945 -0.564705 5.724264
-0.131962 -1.362167 6.429236
-0.127486 -1.335977 6.814434
-0.101374 -1.185342 7.283265
-0.049776 -0.888440 7.581210
-0.001092 -0.973799 0.356747
0.046785 -0.536387 0.118968
0.127616 0.203453 0.424665
-0.084295 -1.729754 2.973868
-0.068630 -1.585011 3.749169
-0.065306 -1.554483 3.816601
-0.066415 -1.564203 4.038685
-0.039734 -1.319589 4.351703
-0.016055 -1.102525 4.611423
0.019877 -0.772852 5.166681
0.030349 -0.677132 5.138360
0.032712 -0.654876 5.476039
-0.003064 -0.980439 6.331691
-0.046007 -1.373020 6.414260
-0.037033 -1.289883 6.970109
-0.032698 -1.250006 7.092847
0.095211 -0.237988 0.231925
0.043061 -1.509817 2.745167
0.038921 -1.609354 3.226652
0.038141 -1.626332 3.661229
0.043490 -1.493078 3.954816
0.046702 -1.413032 4.135521
0.048870 -1.358973 4.259502
0.062487 -1.020748 4.806601
0.072924 -0.761675 5.187263
0.075025 -0.710654 5.043427
0.076974 -0.657554 6.039513
0.053323 -1.239386 6.192977
0.048238 -1.363390 6.441532
0.056875 -1.147348 7.083417
0.058478 -1.107223 7.208623
0.063934 -0.972333 7.304153
0.107981 -0.126598 0.419294
0.139974 -1.412780 2.930916
0.141773 -1.488364 3.470381
0.147562 -1.717234 3.453116
0.143385 -1.554889 3.804173
0.136775 -1.298165 4.386427
0.137282 -1.317852 4.340506
0.129244 -1.003919 4.832428
0.124976 -0.836311 4.981273
0.117238 -0.534346 5.485252
0.124202 -0.810780 5.602264
0.133925 -1.201006 6.283337
0.137875 -1.360980 6.737495
0.134832 -1.243508 7.091724
0.132349 -1.145129 7.071020
0.124720 -0.848418 7.689861
0.173360 -0.776198 0.268172
0.126065 -0.237606 0.207447
0.229258 -1.418813 2.894785
0.254809 -1.709910 2.980041
0.248823 -1.643194 3.585140
0.243800 -1.586300 3.708837
0.221057 -1.328749 4.289251
0.220657 -1.324224 4.299767
0.199340 -1.082286 4.616617
0.182485 -0.890873 4.821393
0.167855 -0.725313 5.241031
0.172113 -0.774818 5.673967
0.215372 -1.268241 6.065493
0.228978 -1.424223 6.520066
0.211703 -1.228924 7.103402
0.198644 -1.081367 7.575239
0.187955 -0.959014 7.295077
0.224072 -0.741460 0.304739
0.154984 -0.306963 0.066882
0.333509 -1.432248 2.600792
0.371451 -1.671237 3.014445
0.348669 -1.529083 3.789086
0.335847 -1.448743 3.969501
0.319282 -1.344954 4.207645
0.310793 -1.291770 4.331998
0.265149 -1.005491 4.764259
0.235133 -0.817129 4.969417
0.205820 -0.633547 5.448026
0.184573 -0.500496 5.811654
0.247962 -0.899332 6.166536
0.318233 -1.341260 6.400851
0.313878 -1.314398 6.786691
0.301343 -1.235937 7.025957
0.253438 -0.935272 7.321628
0.234197 -0.558649 0.403070
0.143903 -0.160506 0.109237
0.405071 -1.314032 3.023585
0.471671 -1.607773 3.320971
0.481558 -1.651692 3.696483
0.437681 -1.458537 3.889889
0.386864 -1.235107 4.412426
0.369923 -1.160631 4.593153
0.338080 -1.020399 4.678526
0.275298 -0.743913 4.844131
0.248804 -0.627455 5.145703
0.235597 -0.569944 5.871522
0.281787 -0.774043 6.481961
0.390199 -1.251847 6.594617
0.393281 -1.265684 6.864351
0.363646 -1.135486 7.274938
0.304799 -0.876353 7.455413
0.164627 -0.186076 0.247317
0.543327 -1.461796 2.646099
0.584185 -1.599862 3.496574
0.586293 -1.607115 3.717659
0.548415 -1.479905 4.010293
0.518553 -1.379619 4.247382
0.416063 -1.035078 4.580267
0.428736 -1.077631 4.474498
0.320304 -0.713349 5.143821
0.325753 -0.731644 5.095153
0.298710 -0.640845 5.339295
0.265343 -0.529254 6.241140
0.435778 -1.102910 6.653433
0.510248 -1.353549 6.816633
0.455235 -1.168676 7.081171
0.384221 -0.929868 7.203009
0.733060 -1.701601 3.181901
0.729595 -1.692417 3.669413
0.701509 -1.615708 3.846825
0.625117 -1.406922 4.097508
0.558029 -1.223550 4.294397
0.491434 -1.041528 4.493880
0.417156 -0.838531 4.754095
0.335799 -0.616208 5.076432
0.335352 -0.615154 5.356259
0.328404 -0.596354 5.693950
0.377899 -0.732204 6.481277
0.546066 -1.192220 6.594393
0.544814 -1.189185 7.239671
0.461986 -0.962911 7.679868
0.362408 -0.690512 7.602614
0.879668 -1.715518 3.256066
0.828473 -1.601059 3.756620
0.805792 -1.550297 3.878101
0.756593 -1.440069 3.902178
0.686635 -1.283383 4.040754
0.537026 -0.948456 4.642141
0.449441 -0.752334 4.903791
0.419547 -0.685443 5.088073
0.344696 -0.517967 5.566581
0.352278 -0.534931 5.516929
0.421449 -0.690130 5.923125
0.614503 -1.123100 6.685629
0.643915 -1.189216 7.101765
0.569370 -1.022479 7.685389
0.480200 -0.822514 7.375208
1.026483 -1.726523 3.318693
1.041515 -1.755154 3.482809
0.942452 -1.567157 3.940143
0.909997 -1.505460 3.851890
0.602092 -0.920841 4.617294
0.447789 -0.627943 5.171483
0.414365 -0.564528 5.357176
0.415195 -0.566229 5.635696
0.422192 -0.579764 6.181596
0.631088 -0.976729 6.413450
0.662895 -1.037343 6.832010
0.664026 -1.039778 7.476842
1.188171 -1.734253 3.125827
1.093980 -1.581240 3.734738
1.044615 -1.500907 3.700370
0.471693 -0.569454 5.534893
0.424793 -0.493478 6.373843
0.710131 -0.957842 6.634301
0.767526 -1.051347 6.935812
0.738738 -1.004704 7.433711
0.768907 -1.053852 7.585920
0.570302 -0.623637 0.180983
0.148557 -0.028424 0.250049
0.017371 0.156655 0.453280
1.364216 -1.745119 2.898186
1.318220 -1.680340 3.285191
1.238424 -1.567822 3.573710
1.063541 -1.321148 3.991453
2.033274 -2.690303 5.397346
0.495853 -0.520606 5.879421
0.511541 -0.542827 6.099613
0.649174 -0.737160 6.326474
0.721039 -0.838907 7.216751
0.819030 -0.977254 7.343925
0.791459 -0.938520 7.842210
0.695568 -0.803258 8.054415
0.016114 0.146395 0.427307
1.451058 -1.623193 2.973954
1.448134 -1.619592 2.983270
1.415940 -1.580018 3.314277
1.329390 -1.473428 3.602297
0.518073 -0.474047 5.635466
0.599704 -0.574840 6.157482
0.809559 -0.833598 6.415928
0.792822 -0.813200 7.124004
0.862528 -0.899116 7.106770
0.807676 -0.831706 7.722110
0.681445 -0.676219 8.051235
0.462803 -0.341150 0.255468
0.120756 0.024230 0.536234
0.071970 0.076317 0.667088
1.573446 -1.528650 2.940819
1.446848 -1.393570 3.550588
2.974214 -3.026304 6.168460
0.797554 -0.700420 5.525718
0.577719 -0.465621 5.815527
0.511616 -0.395166 6.387626
0.765765 -0.666856 6.849514
0.919401 -0.830998 6.807294
0.839699 -0.745948 7.163256
0.816613 -0.721416 7.607767
0.685012 -0.499246 0.377378
0.290275 -0.128752 0.318885
0.061322 0.086086 0.472377
1.779935 -1.527523 2.641212
1.593728 -1.352904 3.149733
1.500727 -1.265760 3.647720
3.002027 -2.675442 5.918762
2.911930 -2.590818 5.695121
0.784666 -0.594299 5.731610
0.666925 -0.483836 5.880666
0.656942 -0.474562 6.215455
0.772920 -0.583634 6.993511
0.869022 -0.673899 7.237300
0.731616 -0.545014 7.506574
0.583730 -0.406311 7.837677
0.385689 -0.181759 0.321006
0.118491 0.038107 0.531776
1.803735 -1.349527 2.603230
1.654859 -1.227154 3.211941
1.741837 -1.298743 3.209081
1.655532 -1.227769 3.440354
1.412599 -1.028001 4.122053
1.781267 -1.331484 4.278971
2.073680 -1.572469 5.426767
0.654361 -0.404351 5.740711
0.683180 -0.428202 6.227328
0.895187 -0.602815 6.657843
0.979785 -0.672526 6.961329
0.860553 -0.574431 7.113079
0.552443 -0.320906 7.383074
0.726644 -0.394093 0.414558
0.671966 -0.354915 1.155122
1.785205 -1.156796 2.629081
1.857593 -1.208982 2.895590
1.786430 -1.157791 3.071752
1.522816 -0.968170 3.752663
1.477259 -0.935401 3.875237
1.263423 -0.781470 3.973062
2.183521 -1.444348 5.655240
0.817105 -0.460689 6.151992
0.831447 -0.471002 6.102472
0.774153 -0.429881 6.609648
0.849533 -0.484327 7.293035
0.877072 -0.504128 7.185559
0.597936 -0.303181 7.279494
1.102463 -0.565370 0.495273
1.859873 -1.038993 1.976164
1.735639 -0.961541 2.690232
1.859565 -1.039013 2.844652
1.861400 -1.040214 3.064590
1.553575 -0.848000 3.589624
1.550093 -0.845827 3.598429
1.381215 -0.740352 3.791748
1.227043 -0.644118 4.199602
2.056182 -1.162514 5.487988
1.681832 -0.928611 5.515320
1.367356 -0.732144 5.641090
0.950564 -0.471901 6.402448
0.911527 -0.447619 6.849287
0.941430 -0.466356 7.063286
0.608472 -0.258454 7.655168
1.790168 -0.846227 1.211993
1.824576 -0.864955 1.972258
1.793995 -0.848485 2.037481
1.764175 -0.832475 2.317038
1.716455 -0.806880 2.865162
1.894410 -0.902822 2.907850
1.628055 -0.759383 3.532863
1.464194 -0.671144 3.937825
1.448230 -0.662491 3.735870
1.103807 -0.476911 4.121201
0.987049 -0.414104 4.689604
1.492170 -0.686508 5.135737
1.736620 -0.818375 5.518821
1.410076 -0.642373 5.645086
1.060303 -0.454006 6.440717
0.870019 -0.351581 7.087529
0.902619 -0.369205 7.301657
0.637350 -0.226276 7.603291
2.032749 -0.799497 1.054610
2.107671 -0.833206 1.112363
1.955841 -0.765036 1.612933
1.732236 -0.664576 2.068191
1.809026 -0.699123 2.122906
1.701088 -0.650681 2.569692
1.607550 -0.608764 3.229806
1.588779 -0.600384 3.506726
1.561225 -0.588007 3.571437
1.379653 -0.506391 3.765029
1.000839 -0.336125 4.209577
1.020335 -0.344882 4.160055
1.048028 -0.357496 4.862846
1.367678 -0.501425 5.608384
1.449953 -0.538437 5.652412
1.322292 -0.481043 5.739065
0.927064 -0.303363 6.046859
0.652955 -0.180213 6.606646
0.805283 -0.248824 7.059963
0.889673 -0.286786 7.098891
2.109142 -0.675876 1.001580
1.868816 -0.586238 1.455769
1.664209 -0.509926 1.858005
1.548041 -0.466601 2.093261
1.571785 -0.475504 2.261662
1.626373 -0.495960 2.587785
1.581371 -0.479278 3.137689
1.585887 -0.481013 3.359646
1.299593 -0.374204 3.782242
1.137963 -0.313882 3.922952
1.000698 -0.262646 4.007493
0.793379 -0.185290 4.268235
1.439349 -0.426830 5.771965
1.368757 -0.400452 5.688636
1.177444 -0.329073 5.949441
0.939138 -0.240115 6.063879
0.765245 -0.175300 6.596835
0.867834 -0.213675 6.901623
0.709604 -0.154710 7.435929
0.388184 -0.034713 7.534695
2.050557 -0.508916 1.180187
1.841879 -0.446049 1.364199
1.639376 -0.384996 1.333320
1.251907 -0.268355 2.092354
1.282722 -0.277775 2.695535
1.509451 -0.346168 2.893928
1.520852 -0.349699 3.330627
1.440206 -0.325427 3.510439
1.199046 -0.252795 3.821719
1.034005 -0.203073 3.963586
0.750740 -0.117775 4.399408
0.451815 -0.027771 4.901293
1.366023 -0.303551 5.759603
0.989194 -0.190126 6.559799
0.911358 -0.166715 6.801536
0.747397 -0.117403 7.336349
0.579166 -0.066665 7.227751
1.785438 -0.306111 1.309062
1.548576 -0.251268 1.335550
1.003966 -0.125337 2.180903
1.267127 -0.186399 2.760317
1.286092 -0.190930 3.416370
1.318308 -0.198425 3.583278
1.123379 -0.153330 3.782418
0.905162 -0.102854 4.042410
0.684164 -0.051794 4.579234
0.433344 0.006322 4.416594
1.443768 -0.227906 5.595464
1.015278 -0.128879 6.512447
0.954233 -0.114782 6.697034
0.767214 -0.071602 7.290833
1.737781 -0.178489 1.015431
1.380212 -0.119955 1.048131
0.762956 -0.019149 2.233594
1.171232 -0.086052 2.524489
1.105443 -0.075456 3.356926
1.176045 -0.087083 3.681006
1.081698 -0.071630 3.649724
0.874963 -0.037884 4.124351
1.447460 -0.131925 5.616851
0.937218 -0.048631 6.765172
0.877262 -0.038854 6.949890
0.728619 -0.014619 7.427683
0.572611 0.010957 7.261379
-0.044357 0.111894 7.605200
-0.722295 0.222837 7.829415
1.122044 -0.003400 0.701514
0.773664 0.030223 1.128364
0.744612 0.032843 2.046821
0.979479 0.010027 2.469163
0.875528 0.019945 3.147803
1.061540 0.001880 3.458162
1.056996 0.002318 3.468114
0.779608 0.029082 3.844665
0.623993 0.044065 4.206887
0.362078 0.069387 4.317113
1.254467 -0.017231 5.578505
1.257743 -0.017605 5.853519
0.745841 0.031817 6.400849
0.628219 0.043191 6.437265
0.829478 0.023645 6.777397
0.731680 0.033045 7.080035
0.488732 0.056461 7.531790
0.068811 0.097092 7.547626
-0.386339 0.141107 7.689352
-0.823826 0.183424 7.775477
0.798347 0.078323 2.379126
0.858060 0.076304 2.712235
0.796392 0.078291 2.840683
0.808895 0.077791 3.284853
0.933349 0.073683 3.493215
0.773054 0.078844 3.851751
0.568013 0.085441 4.330242
0.380015 0.091595 4.261650
1.187531 0.064913 5.751825
1.235368 0.063318 5.910113
0.824754 0.076676 6.164327
0.526864 0.086287 6.727901
0.751871 0.078881 7.005645
0.674973 0.081342 7.248743
0.434335 0.089107 7.700399
0.075170 0.100803 7.864824
-0.362949 0.115094 7.947781
-0.801207 0.129389 8.036393
0.703145 0.131984 0.613726
0.976154 0.142162 2.455099
0.801770 0.135342 2.813509
0.642262 0.129052 3.392305
0.715230 0.131807 3.718011
0.659605 0.129629 3.844343
1.138785 0.147805 5.577547
0.889650 0.137963 6.565718
0.827949 0.135538 6.749567
0.542340 0.124373 7.315072
0.425940 0.119862 7.353938
1.137048 0.223668 2.332013
0.989760 0.208223 2.630522
0.709570 0.178837 3.223058
0.651686 0.172766 3.349833
0.685079 0.176218 3.517960
0.642134 0.171661 3.861789
0.437824 0.150224 4.343452
0.311270 0.136885 4.924931
1.011857 0.209852 5.886609
0.680161 0.175010 6.848625
0.752675 0.182563 6.947781
0.394834 0.145091 7.428051
0.165896 0.121166 7.499604
-0.123078 0.091002 7.424173
-0.647555 0.036147 7.812164
1.092889 0.293987 0.481995
0.614398 0.211790 0.527495
1.289418 0.327379 2.213723
0.913749 0.262739 2.755976
0.826754 0.247757 2.940250
0.660886 0.219191 3.300970
0.731472 0.231247 3.627608
0.549746 0.199944 4.048488
1.190618 0.309687 5.642748
0.759814 0.235496 6.565759
0.717907 0.228272 6.692423
0.546996 0.198802 7.230975
0.266503 0.150571 7.478704
5.004485 1.307358 4.812220
4.820677 1.263177 5.212936
4.376495 1.156393 6.267406
0.567627 0.243081 4.226203
0.402034 0.203324 4.373995
0.392325 0.200875 4.932310
0.800768 0.298738 5.510115
0.958242 0.336486 5.647504
0.607426 0.252108 6.666331
0.642132 0.260319 7.206535
0.348198 0.189739 7.511037
0.124848 0.136143 7.582357
-0.157634 0.068391 7.506858
-0.811640 -0.088622 8.054789
0.741536 0.340153 0.433729
4.794379 1.598757 5.061313
4.642771 1.551510 5.652546
4.727276 1.577763 5.699740
4.703734 1.570434 5.756043
4.443669 1.489580 5.882599
0.852706 0.373522 5.877156
0.572194 0.286157 6.721003
0.678810 0.319297 6.702033
0.531370 0.273369 7.180325
0.208814 0.173027 7.604924
0.972996 0.485729 0.358591
4.503525 1.839952 5.231481
4.424926 1.809627 5.917103
4.477465 1.829711 6.301089
4.709360 1.918861 5.716942
4.375459 1.790610 6.042470
0.807817 0.421146 5.643261
0.480679 0.295412 6.322906
0.290573 0.222507 5.995945
0.185137 0.181817 6.961898
0.555986 0.324164 7.032691
0.205288 0.189417 7.575100
0.129811 0.160460 7.495866
-0.296841 -0.003355 7.633959
0.592799 0.393466 0.214770
1.682249 0.903408 2.396881
1.625513 0.876798 2.519191
1.330502 0.738529 2.722271
0.937224 0.554165 3.161933
4.379663 2.166424 5.924542
4.160663 2.063743 6.243578
0.490674 0.344242 6.219733
0.428364 0.314855 7.060414
0.562754 0.377853 6.924772
0.236320 0.224797 7.407985
-0.059291 0.086284 7.452589
0.832716 0.570416 0.294612
0.316660 0.290713 0.519259
1.814608 1.101899 2.858978
1.574088 0.971590 2.735233
1.082090 0.704922 2.967238
0.870315 0.590151 3.007250
0.562699 0.423389 3.283545
3.814414 2.184776 6.324610
0.682708 0.487887 5.551613
0.375372 0.321035 6.852810
0.439101 0.355546 6.953883
0.207005 0.229652 7.467767
-0.010853 0.111563 7.600677
-0.366647 -0.081232 7.559895
0.732748 0.584804 0.420557
2.208788 1.512986 2.652378
1.860026 1.293508 2.797914
1.388677 0.996880 3.019740
0.910659 0.696104 3.040059
0.638524 0.524824 3.254496
0.489849 0.431242 3.397817
0.663090 0.539658 5.795366
0.642159 0.526471 5.862868
0.462204 0.413243 5.862322
0.158510 0.222056 6.279258
0.262989 0.287652 6.859330
0.389672 0.367315 7.047955
0.147461 0.214855 7.294680
-0.128715 0.041074 7.337316
0.466797 0.472403 0.501774
1.985244 1.585921 2.917725
0.490975 0.489360 3.549829
3.619646 2.784371 5.909530
0.634149 0.593917 5.472514
0.277285 0.331833 6.407906
0.379582 0.406827 6.658486
0.195341 0.271458 7.379155
-0.018902 0.114211 7.570862
-0.301787 -0.093295 7.346422
0.353073 0.432718 0.902154
2.225205 2.002279 3.352570
0.609626 0.647234 3.356536
3.193796 2.813919 6.135431
0.453275 0.515468 5.678579
0.320854 0.404272 6.159100
0.157836 0.267542 6.161901
0.075151 0.198018 6.799823
0.219923 0.319336 7.197553
0.162188 0.270844 7.444734
-0.087563 0.061358 7.488364
0.493367 0.616169 0.278682
2.394706 2.431527 3.188438
2.385545 2.422642 3.657499
2.447992 2.482146 4.166841
2.878130 2.892560 5.776090
2.808635 2.826185 5.746679
0.509604 0.630226 5.346273
0.379983 0.506271 5.825997
0.202986 0.337089 6.216946
0.181654 0.316597 6.616148
0.219968 0.353056 7.103880
0.231035 0.363641 7.055228
0.010726 0.153109 7.364763
-0.268637 -0.113713 7.260407
0.456734 0.651701 0.469354
2.003418 2.333793 2.753116
2.151181 2.494215 3.874706
2.246801 2.598127 4.275448
2.506068 2.880171 4.400840
2.511823 2.886218 5.103388
2.587572 2.968558 5.346072
2.404025 2.768741 5.729408
0.467994 0.662458 5.344675
0.204358 0.375292 6.423425
0.357527 0.541952 6.379356
0.327025 0.508528 7.157542
0.208502 0.379609 7.047817
0.288859 0.531238 0.816252
2.043246 2.735749 3.404948
2.112814 2.822896 4.316562
2.204506 2.938028 4.712454
-0.067595 0.080984 7.324193
0.030076 0.223603 3.657342
1.935565 3.408908 3.080805
0.788137 1.507896 2.364815
0.712128 1.381830 2.656087
0.754163 1.451182 3.405871
0.945713 1.768427 3.794020
1.045274 1.933280 4.093767
1.011673 1.877344 4.737183
0.335630 0.756795 5.581725
0.289309 0.679943 5.823997
0.103853 0.372475 6.237360
-0.019118 0.168553 6.631420
0.010152 0.217122 6.460287
0.066481 0.310204 7.098131
0.031030 0.251231 7.672063
-0.254243 -0.221515 7.784204
0.370210 0.939634 5.662686
0.468189 1.128562 5.951464
0.397953 0.992706 6.686779
0.361896 0.923167 6.606273
0.272178 0.749927 6.875564
0.104503 0.426316 7.028828
0.482122 1.364339 2.424935
0.470193 1.336884 2.708677
0.387339 1.147108 2.904957
0.283284 0.908736 3.220108
0.165480 0.638966 3.381282
0.063647 0.405677 3.705937
0.017125 0.298901 4.232171
-0.014320 0.226818 4.422395
-0.073843 0.090361 4.793193
0.374010 1.115102 5.787171
0.343128 1.044141 6.293962
0.270408 0.877389 6.827001
0.216334 0.753718 6.599577
0.085830 0.454603 7.286363
0.031705 0.330645 7.387059
-0.130206 -0.039989 7.342978
0.412397 1.448216 2.308948
0.314149 1.175991 2.891465
0.321943 1.197588 2.844044
0.196849 0.851098 3.390693
0.106260 0.600361 3.494133
0.020376 0.362508 3.819152
0.024091 0.372648 4.047372
0.262678 1.031786 5.801302
0.248302 0.991571 6.516071
0.247116 0.988283 6.526264
0.180511 0.803810 6.795652
0.076209 0.515007 7.095954
-0.002253 0.297848 7.164219
-0.125602 -0.043578 7.325992
0.232129 1.180286 2.692521
0.215411 1.122268 2.816392
0.176003 0.985511 3.114372
0.072274 0.625872 3.448369
0.023916 0.458218 3.593390
-0.027163 0.280926 4.018237
0.141911 0.865430 5.735214
0.184232 1.011718 6.195015
0.198247 1.060157 6.352706
0.111549 0.759313 6.969732
0.058597 0.575647 7.242030
0.015128 0.425169 7.072832
-0.090648 0.058523 7.291770
-0.018263 0.404925 0.564910
0.155620 1.194643 2.463268
0.094372 0.915259 3.052678
0.058567 0.751918 3.413531
0.020955 0.580557 3.559273
-0.038565 0.309238 3.944670
-0.039546 0.304763 3.955374
0.046833 0.696062 5.939014
0.111092 0.988530 5.993101
0.082815 0.859143 6.676615
0.090472 0.894106 6.570497
0.048520 0.702867 6.841747
-0.029057 0.349253 7.323846
-0.123386 -0.080223 7.396786
-0.059522 0.305682 0.535990
-0.145928 -0.263568 0.546636
-0.267476 -1.064053 0.363494
0.045306 0.993329 2.665657
0.045465 0.994060 2.893961
0.028228 0.880166 3.137327
-0.010325 0.625748 3.457795
-0.036612 0.452368 3.604959
-0.064320 0.269240 4.031982
0.008678 0.748095 5.511546
-0.006691 0.646057 6.084988
0.010003 0.756051 6.070551
0.005288 0.724447 6.465876
-0.007059 0.642317 7.036597
-0.038995 0.431912 7.045964
-0.028539 0.952091 2.752343
-0.019494 1.065332 2.747228
-0.038062 0.832218 3.004090
-0.051313 0.665400 3.364982
-0.067328 0.464399 3.569332
-0.085985 0.229427 4.114046
-0.054058 0.625351 5.551636
-0.057078 0.586510 5.948839
-0.060663 0.541298 6.076264
-0.072366 0.392833 6.828252
-0.052880 0.637043 6.722612
-0.083201 0.256072 7.263911
-0.088690 1.029963 2.359468
-0.091559 0.832665 2.994281
-0.092244 0.782946 3.338073
-0.094881 0.607635 3.482171
-0.096339 0.512205 3.450573
-0.100958 0.198728 4.172860
-0.094240 0.621597 5.548877
-0.095668 0.519928 6.122632
-0.098357 0.340235 6.336021
-0.098402 0.337146 6.345081
-0.096107 0.480910 6.863901
-0.098158 0.344744 6.960995
-0.104294 -0.067722 7.630895
-0.109942 -0.436859 7.467853
-0.157404 1.029014 2.344980
-0.155836 0.999683 2.629842
-0.145499 0.800353 3.046082
-0.135496 0.607531 3.465383
-0.129242 0.486024 3.492136
-0.116959 0.249377 4.035477
-0.115457 0.220436 4.104015
-0.089511 -0.282327 4.541596
-0.135755 0.620908 5.530258
-0.131482 0.539889 6.044676
-0.126486 0.442651 6.020047
-0.119912 0.316280 6.385049
-0.121358 0.346619 6.932201
-0.113532 0.196404 7.417859
-0.099866 -0.068577 7.610385
-0.186149 0.697277 0.398572
-0.205099 0.864676 2.428472
-0.208782 0.897200 2.817788
-0.189119 0.727951 3.178648
-0.182317 0.669409 3.306474
-0.149890 0.389913 3.689250
-0.128672 0.207353 4.116612
-0.103205 -0.012203 4.388945
-0.073642 -0.267936 4.225852
-0.166404 0.536288 5.733252
-0.158638 0.469521 5.918782
-0.140176 0.310278 6.071673
-0.119444 0.131531 6.286174
-0.140275 0.312248 6.688158
-0.127065 0.199358 7.382382
-0.083443 -0.177155 7.606648
-0.243195 0.748594 0.484892
-0.155715 0.269698 0.535990
-0.066451 -0.219420 0.195352
0.087259 -1.060864 0.301919
-0.242015 0.744367 2.418882
-0.263081 0.859952 2.633669
-0.231986 0.690123 2.994386
-0.206603 0.551501 3.298424
-0.172427 0.364876 3.722628
-0.148524 0.234358 4.030351
-0.122108 0.089835 4.121378
-0.019167 -0.473373 4.465242
-0.218620 0.619806 5.471905
-0.198261 0.508687 5.776594
-0.150371 0.247012 6.228009
-0.121731 0.090384 6.385427
-0.137377 0.176857 7.086954
-0.153947 0.267625 7.126980
-0.091893 -0.072007 7.228858
0.137547 -0.957061 0.330603
0.199650 -1.198920 0.373916
-0.295308 0.730866 2.635118
-0.295337 0.731173 2.865357
-0.246225 0.540227 3.287834
-0.238226 0.509130 3.358315
-0.181242 0.287395 3.625314
-0.076690 -0.119448 4.097884
0.013776 -0.471517 4.459981
-0.274351 0.651727 5.622171
-0.199707 0.361181 5.860006
-0.198669 0.357149 5.871596
-0.124537 0.068601 6.115080
-0.097228 -0.037233 6.758220
-0.191078 0.328430 6.890884
-0.086437 -0.078869 7.230743
-0.006696 -0.389153 7.609226
0.074498 -0.705365 7.660466
0.233184 -1.323093 8.102271
-0.336278 0.707691 0.491291
-0.361670 0.788285 2.247275
-0.362376 0.790797 2.694690
-0.285154 0.549696 3.231234
-0.283865 0.545670 3.240434
-0.202109 0.290434 3.841449
-0.172931 0.199176 3.811059
-0.046162 -0.196903 4.284109
0.062286 -0.535958 4.363986
-0.270224 0.504692 5.702836
-0.249548 0.440166 5.889214
-0.187841 0.247400 6.161901
-0.122983 0.044594 6.165715
-0.136778 0.088065 6.658571
-0.164589 0.175280 7.028137
-0.055312 -0.166086 7.520567
0.223368 -0.839941 0.148392
0.369423 -1.204481 0.674382
-0.419332 0.766756 2.458531
-0.346750 0.585808 3.096626
-0.294822 0.456267 3.400736
-0.253879 0.354132 3.647090
-0.179639 0.168803 3.854899
-0.062308 -0.124150 4.087029
0.088816 -0.501533 4.287329
-0.342241 0.576012 5.723554
-0.322278 0.526066 5.580839
-0.245789 0.335154 5.851663
-0.104587 -0.017289 6.333317
-0.087109 -0.060687 6.795872
-0.178020 0.166521 7.016471
-0.038005 -0.182914 7.569746
-0.371439 0.534590 0.120671
-0.360696 0.513245 2.512446
-0.399739 0.595133 2.784768
-0.353770 0.499095 3.247794
-0.340328 0.470979 3.315925
-0.214445 0.207695 3.977253
-0.173099 0.121101 3.947341
0.114385 -0.480753 4.249032
-0.501608 0.809637 5.253919
-0.305776 0.399870 5.896605
-0.286138 0.358807 6.024211
-0.158676 0.092014 6.265589
-0.064481 -0.105070 6.603986
-0.128577 0.029401 7.125607
-0.421091 0.537113 2.626352
-0.411673 0.520549 3.133807
-0.436100 0.564020 3.026918
-0.315043 0.348587 3.567945
-0.529592 0.731574 5.382126
-0.417128 0.531358 5.708406
-0.327248 0.371326 5.920631
-0.217983 0.176813 6.254561
-0.133706 0.026625 6.140393
-0.089800 -0.051345 6.723877
-0.218443 0.177899 6.886392
-0.023925 -0.168373 7.499295
-0.437726 0.483029 2.461431
-0.456133 0.511549 2.851714
-0.487712 0.560268 2.962788
-0.338264 0.330137 3.561470
-0.858074 1.131876 4.887220
-0.805631 1.051030 4.858642
-0.740404 0.950602 5.155346
-0.515332 0.603875 5.673510
-0.364272 0.371098 5.849501
-0.182036 0.090573 6.830196
-0.159552 0.055966 6.959754
-0.085432 -0.058243 7.059829
-0.444192 0.418320 1.874565
-0.498319 0.490758 2.591032
-0.586693 0.608677 2.745744
-0.451563 0.428617 3.223875
-0.572255 0.589769 3.749647
-0.919046 1.052524 4.425091
-1.012531 1.177257 4.569433
-0.786056 0.875430 5.227367
-0.647467 0.690702 5.547792
-0.562955 0.578018 5.638335
-0.448499 0.425345 5.577619
-0.274500 0.193455 6.085619
-0.061154 -0.090943 6.509741
-0.080902 -0.064528 6.730933
-0.182570 0.071228 7.190681
-0.022295 -0.142468 7.382623
-0.472650 0.391723 2.540501
-0.477413 0.397431 2.989521
-0.410255 0.319129 3.453805
-1.046265 1.062394 4.459533
-1.131916 1.162509 4.660761
-0.886721 0.876214 5.050605
-0.779076 0.750516 5.196140
-0.657693 0.608790 5.400331
-0.419896 0.331142 5.807963
-0.349276 0.248746 6.112180
-0.069783 -0.077634 6.441950
-0.029207 -0.124971 6.631337
-0.150787 0.017178 7.031866
-0.062683 -0.085708 7.130886
-0.582152 0.440361 2.527557
-0.446572 0.303443 3.167319
-0.432162 0.288954 3.453574
-1.312064 1.179179 4.839574
-1.179912 1.045518 4.770661
-0.964918 0.828165 4.988424
-0.800643 0.662133 5.306064
-0.623724 0.483333 5.686534
-0.489670 0.347751 5.625471
-0.257562 0.113213 6.252464
0.025086 -0.172638 6.191814
0.006172 -0.153347 6.747204
-0.232972 0.088566 6.997343
0.061538 -0.209162 7.339143
-0.575862 0.377438 2.613735
-0.555501 0.359215 2.902664
-0.525143 0.332082 3.467912
-1.438716 1.153675 4.649644
-1.158021 0.901450 5.036010
-0.999759 0.759177 5.028824
-0.845579 0.620724 5.558747
-0.638443 0.434565 5.732250
-0.455252 0.269993 6.120786
-0.336236 0.163046 6.276577
0.002745 -0.141743 6.064746
-0.015089 -0.125556 6.621433
-0.252727 0.088158 6.933925
0.144390 -0.268729 7.307919
0.816115 -0.775964 0.418285
0.968004 -0.895526 0.571157
-0.605777 0.344263 2.596535
-0.606298 0.344733 2.826027
-1.361513 0.939816 4.332830
-1.478383 1.032021 5.006604
-1.385416 0.958754 4.770310
-1.071989 0.711997 4.950516
-0.834718 0.525290 5.443378
-0.723494 0.437733 5.534281
-0.511304 0.270764 5.979236
-0.269824 0.080605 5.948144
0.192314 -0.283171 6.431834
0.062930 -0.181167 6.898702
-0.072313 -0.074550 7.359449
-0.680516 0.335855 2.467816
-0.657032 0.319986 2.755447
-1.708891 1.034448 4.545369
-1.357315 0.795919 5.040321
-1.028961 0.573074 5.224215
-0.969995 0.533093 5.406854
-0.775625 0.401166 5.460896
-0.700029 0.349912 5.704131
-0.383831 0.135391 6.176599
0.139661 -0.219962 6.171440
-0.165521 -0.012515 7.310444
-0.757469 0.323557 0.218395
-0.383120 0.103623 0.375243
-0.585621 0.223075 2.286772
-0.662251 0.268169 2.559629
-0.653404 0.263144 3.283087
-1.923669 1.009895 4.643937
-1.439778 0.725627 4.945243
-1.197653 0.583326 4.839387
-1.055274 0.499761 5.250115
-0.894693 0.405451 5.453813
-0.580170 0.220731 5.860253
-0.225103 0.012304 6.751948
-0.010217 -0.113855 7.210951
-1.367996 0.569561 0.875759
-1.178960 0.474668 0.843726
-0.612134 0.190429 2.033834
-0.583023 0.175885 2.323109
-0.662493 0.215838 2.596535
-2.155251 0.965668 4.964376
-0.965261 0.368442 5.321006
-0.560801 0.165575 5.961733
-0.229421 -0.000579 6.738175
0.042571 -0.136955 7.378846
-1.883677 0.685977 0.966200
-1.710612 0.612537 1.094531
-1.451733 0.502707 1.395039
-1.249537 0.416964 1.804564
-0.694363 0.181402 2.326081
-0.663115 0.168153 2.394861
-0.641853 0.159241 2.903123
-2.588040 0.985848 4.774870
-2.519390 0.956744 4.946940
-0.687270 0.179197 5.903711
-0.343313 0.033357 6.679793
-0.129473 -0.057331 7.077787
-1.978432 0.575862 1.069870
-1.749165 0.496302 1.092334
-1.625334 0.453379 1.327136
-1.532592 0.421233 1.506341
-1.214911 0.311077 1.925661
-1.014269 0.241441 1.900737
-0.647826 0.114391 2.449029
-0.728236 0.142309 2.502600
-0.649073 0.114925 2.907715
-2.647180 0.808758 4.778256
-2.359471 0.709013 5.238585
-0.731441 0.144083 5.518641
-0.385170 0.024140 6.550696
-0.201138 -0.039594 7.156559
-0.035390 -0.097139 7.047129
-2.038991 0.454816 1.019842
-1.713960 0.365053 1.209806
-1.614449 0.337645 1.605356
-1.466328 0.296736 1.679991
-1.116950 0.200308 2.158348
-0.826480 0.120038 2.089231
-0.737388 0.095462 2.273408
-0.653795 0.072453 2.678226
-0.629046 0.065677 2.965151
-2.472496 0.575516 5.319081
-2.490558 0.580441 5.014951
-0.743030 0.097717 5.508113
-0.371791 -0.004752 5.978765
-0.073467 -0.086979 6.900511
0.075688 -0.128155 7.059895
-1.744315 0.242676 0.990322
-1.639896 0.221845 1.386354
-1.541321 0.202185 1.782597
-1.187048 0.131279 2.041647
-0.804724 0.054722 2.146290
-0.714483 0.036686 2.330664
-0.862286 0.066370 2.705170
-0.872228 0.068456 3.149626
-2.711180 0.437149 4.828216
-2.413837 0.377689 5.288299
-0.704542 0.035392 5.626755
-0.349250 -0.035685 6.040072
-0.028901 -0.099642 7.024087
-1.780529 0.142548 1.149273
-1.595510 0.116789 1.279238
-1.521524 0.106595 1.837896
-0.981481 0.031459 2.464172
-0.892160 0.019049 2.648008
-1.259520 0.070377 3.263240
-1.303433 0.076577 3.643524
-2.520831 0.246547 5.072810
-2.380350 0.226985 5.152651
-0.884246 0.018529 5.431290
-0.608342 -0.019888 5.603381
-0.041471 -0.098809 6.011848
0.184860 -0.130210 6.693203
-0.019903 -0.101601 7.033961
-1.906291 0.022195 0.936829
-1.545195 -0.001869 0.966685
-1.376787 -0.012987 1.479874
-1.723360 0.010155 1.678490
-1.450438 -0.007929 2.197904
-1.183637 -0.025602 2.731454
-1.510397 -0.003771 2.972576
-1.444527 -0.008036 3.579717
-1.675264 0.007440 4.037829
-2.092469 0.035414 4.830793
-2.456432 0.059709 4.995182
-0.760759 -0.053220 5.472879
-0.312905 -0.082937 6.122123
-0.245169 -0.087411 6.319115
-1.613066 -0.101504 2.094368
-1.610365 -0.101370 2.761777
-1.538503 -0.101373 3.370362
-1.518397 -0.101351 3.650685
-1.513497 -0.101357 3.661354
-2.025552 -0.100163 4.985098
-2.090455 -0.100025 5.089592
-0.876785 -0.102133 5.435844
-0.511181 -0.102704 5.845577
-0.203930 -0.103262 5.813358
0.149454 -0.103610 7.198585
-1.901580 -0.224092 2.169943
-1.844473 -0.220389 2.719656
-1.798723 -0.217401 3.267100
