-1.029516 -1.500585 8.172408
-1.121659 -1.617728 8.642582
-1.182740 -1.695380 8.939152
-1.150679 -1.654657 9.096595
-1.085840 -1.572298 9.402592
-0.978121 -1.435461 9.803336
-0.918524 -1.552160 0.229854
-0.976981 -1.637637 0.529555
-1.036419 -1.724540 0.767319
-1.045810 -1.738324 1.235233
-1.073251 -1.778531 2.044912
-1.017413 -1.696921 2.063409
-1.013088 -1.690588 1.959920
-1.099753 -1.817335 2.590139
-1.519190 -2.430520 3.739122
-1.533960 -2.452130 3.915431
-1.559466 -2.489444 4.201828
-1.592277 -2.537443 4.542696
-1.487743 -2.384670 4.643667
-1.493361 -2.392953 5.226957
-1.445670 -2.323260 5.313085
-1.300950 -2.111768 5.552826
-1.178900 -1.933434 5.966275
-0.555390 -1.022290 7.330009
-0.657162 -1.171073 7.608782
-0.893737 -1.516935 8.319033
-1.003481 -1.677329 8.270420
-0.961711 -1.616291 8.368693
-1.047817 -1.742201 8.837743
-1.018198 -1.698929 8.994985
-1.016058 -1.695875 9.587213
-0.794143 -1.371538 9.676747
-0.813665 -1.611892 0.434129
-0.927369 -1.804697 1.243263
-0.975923 -1.886966 1.136999
-0.940559 -1.827116 1.723943
-0.932508 -1.813435 1.450664
-0.949281 -1.841932 1.976109
-0.976930 -1.888876 2.614585
-0.974725 -1.885132 2.569692
-1.382858 -2.577004 4.121715
-1.366785 -2.549822 4.536236
-1.367830 -2.551596 4.547883
-1.405213 -2.615003 4.945430
-1.351053 -2.523216 4.920794
-1.303754 -2.443135 5.470540
-1.249442 -2.351152 5.914585
-1.095671 -2.090562 5.937054
-0.575365 -1.209035 7.594817
-0.708685 -1.434998 7.785582
-0.896119 -1.752711 8.314923
-0.973950 -1.884633 8.466505
-1.042480 -2.000825 8.874425
-0.928513 -1.807681 8.835290
-0.863655 -1.697801 9.081916
-0.889290 -1.741306 9.527066
-0.732265 -1.475242 9.847591
-0.694288 -1.670673 0.636582
-0.782057 -1.848093 0.529586
-0.833756 -1.952700 1.108551
-0.792962 -1.870259 1.295455
-0.798425 -1.881342 1.535385
-0.803243 -1.891112 1.718149
-0.833829 -1.953081 2.584361
-0.824997 -1.935192 2.368253
-0.883947 -2.054420 2.711103
-0.856792 -1.999582 3.073721
-1.183144 -2.659495 4.034664
-1.195697 -2.684900 4.211301
-1.243899 -2.782445 4.827453
-1.225084 -2.744456 5.132377
-1.153953 -2.600607 4.830930
-1.127341 -2.546920 5.545508
-1.063470 -2.417842 5.821393
-1.000901 -2.291394 6.100362
-0.880096 -2.047440 7.799222
-0.904200 -2.096198 7.979656
-0.820831 -1.927667 8.048725
-0.803395 -1.892451 8.259981
-0.828022 -1.942317 8.757289
-0.804531 -1.894852 8.913756
-0.802020 -1.889868 9.503860
-0.646220 -1.574931 9.708318
-0.578146 -1.708713 0.272600
-0.660110 -1.907144 0.968623
-0.740961 -2.102810 1.256868
-0.744370 -2.111090 1.438560
-0.702230 -2.009098 1.228111
-0.716000 -2.042530 1.865213
-0.727997 -2.071631 2.274378
-0.692156 -1.984930 2.350459
-0.700522 -2.005214 2.588806
-0.743226 -2.108555 2.703136
-0.770705 -2.175154 3.336065
-0.980648 -2.683273 4.326010
-1.003463 -2.738535 4.667742
-1.028039 -2.798056 5.008635
-0.993102 -2.713631 5.555507
-0.901219 -2.491297 5.385532
-0.859699 -2.390925 5.829357
-0.831551 -2.322924 6.390234
-0.705472 -2.017873 6.301993
-0.712576 -2.035150 6.791548
-0.736439 -2.092927 7.029215
-0.718330 -2.049151 7.236286
-0.700842 -2.006879 7.444352
-0.749527 -2.124810 8.221418
-0.756163 -2.140935 8.602214
-0.735597 -2.091206 8.757587
-0.708028 -2.024524 8.856839
-0.674527 -1.943538 9.217234
-0.495319 -1.840241 0.456049
-0.595234 -2.136787 0.973927
-0.626674 -2.230054 0.925882
-0.631122 -2.243330 1.276549
-0.608644 -2.176754 1.802840
-0.583616 -2.102566 2.105450
-0.581146 -2.095216 2.003874
-0.568742 -2.058569 2.706569
-0.565522 -2.048996 2.604807
-0.649850 -2.299473 3.930534
-0.756150 -2.614892 4.120383
-0.805887 -2.762524 4.448211
-0.800494 -2.746504 4.349335
-0.826258 -2.823040 4.802567
-0.819721 -2.803737 5.219319
-0.776481 -2.675522 5.548540
-0.742768 -2.575598 5.992911
-0.637941 -2.264573 5.903574
-0.593213 -2.131935 6.186633
-0.603186 -2.161642 6.732492
-0.604165 -2.164552 6.744437
-0.598082 -2.146573 7.065081
-0.608726 -2.178260 7.556956
-0.616807 -2.202333 7.993350
-0.587431 -2.115186 8.034564
-0.627830 -2.235203 8.756316
-0.611072 -2.185517 8.913332
-0.589784 -2.122452 9.329921
-0.570591 -2.065600 9.749910
-0.502718 -1.864293 10.037552
-0.398670 -1.968178 0.603031
-0.474755 -2.255468 0.439112
-0.477965 -2.267734 0.959192
-0.510205 -2.389645 1.529665
-0.508058 -2.381495 1.372684
-0.460281 -2.201133 1.621070
-0.440721 -2.127362 1.979696
-0.460562 -2.202525 2.842068
-0.457842 -2.192225 2.740532
-0.462778 -2.210919 2.922118
-0.511886 -2.396573 3.654551
-0.451886 -2.169919 3.410603
-0.462015 -2.208252 3.705580
-0.582317 -2.662852 4.735239
-0.605451 -2.750198 4.673309
-0.573184 -2.628305 4.535792
-0.572316 -2.625173 5.066526
-0.571211 -2.621131 5.543525
-0.562568 -2.588576 5.855151
-0.501683 -2.358727 6.158385
-0.494870 -2.333083 6.473733
-0.492807 -2.325395 6.846815
-0.480291 -2.278187 7.052080
-0.464192 -2.217429 7.201780
-0.456500 -2.188451 7.465608
-0.462457 -2.211069 7.900542
-0.484261 -2.293576 8.505972
-0.456077 -2.187135 8.490755
-0.442102 -2.134401 8.645674
-0.453118 -2.176122 9.085226
-0.458013 -2.194785 9.729907
-0.392510 -1.947461 9.902277
-0.323759 -2.286479 0.672594
-0.326161 -2.298983 1.080287
-0.351364 -2.428886 1.706999
-0.350841 -2.426179 1.663111
-0.340709 -2.374283 2.301454
-0.320082 -2.268123 2.209399
-0.301263 -2.171304 2.230049
-0.306261 -2.197127 2.526044
-0.319179 -2.263827 3.161216
-0.324804 -2.292854 3.399610
-0.345075 -2.397427 4.142680
-0.369406 -2.522671 4.305338
-0.371505 -2.533497 4.371563
-0.373637 -2.544490 4.437760
-0.383358 -2.594612 4.727322
-0.399975 -2.680275 5.183240
-0.360820 -2.478813 5.176827
-0.358572 -2.467575 6.070570
-0.350672 -2.427025 6.328588
-0.364474 -2.498144 6.619383
-0.335725 -2.350155 6.429280
-0.342561 -2.385528 6.971304
-0.333418 -2.338561 7.176801
-0.340082 -2.373026 7.665229
-0.319197 -2.265567 7.647327
-0.324211 -2.291523 8.082086
-0.323635 -2.288678 8.404981
-0.309354 -2.215350 8.817356
-0.306754 -2.202070 9.086776
-0.286713 -2.099067 9.390826
-0.249412 -1.907273 9.732051
-0.131402 -1.999980 0.357678
-0.184045 -2.420381 1.209943
-0.197521 -2.527974 1.384032
-0.184161 -2.421317 1.231030
-0.191772 -2.482566 2.196433
-0.176285 -2.358852 1.877204
-0.184734 -2.426696 2.675916
-0.182814 -2.411298 2.517755
-0.176376 -2.360205 2.989136
-0.167465 -2.289267 3.237178
-0.166775 -2.283733 3.191251
-0.174196 -2.343192 3.653585
-0.194933 -2.508859 4.099270
-0.198485 -2.537293 4.277790
-0.188746 -2.459682 4.416849
-0.181558 -2.402490 4.669335
-0.190900 -2.477230 5.073202
-0.173763 -2.340722 5.404356
-0.197459 -2.530222 6.257951
-0.214952 -2.669843 6.412146
-0.199778 -2.548761 6.334909
-0.209581 -2.627354 7.040811
-0.196043 -2.519356 7.021623
-0.184390 -2.426419 7.058307
-0.188453 -2.459107 7.545357
-0.191512 -2.483748 7.977379
-0.193219 -2.497578 8.354410
-0.200337 -2.554633 8.844458
-0.177244 -2.370472 8.919794
-0.173226 -2.338535 9.132249
-0.145995 -2.121483 9.413052
-0.119096 -1.907078 9.697330
-0.024369 -2.505015 0.469970
-0.019007 -2.411424 0.764334
-0.025906 -2.532997 1.333284
-0.021927 -2.463929 1.855303
-0.020779 -2.443416 1.529665
-0.017276 -2.382745 2.110521
-0.020191 -2.434523 2.684700
-0.019319 -2.419060 2.527423
-0.022030 -2.467126 2.988428
-0.023601 -2.494943 3.224285
-0.018821 -2.411353 3.360472
-0.020165 -2.435968 4.229877
-0.018756 -2.411092 4.072581
-0.020374 -2.439661 4.252712
-0.024274 -2.508491 4.657028
-0.022326 -2.474808 5.023222
-0.018733 -2.412106 5.222483
-0.017245 -2.386479 5.591943
-0.023641 -2.498617 5.638504
-0.027318 -2.563401 5.929909
-0.030350 -2.617323 6.579399
-0.031694 -2.641455 7.062597
-0.023793 -2.502863 6.932309
-0.025515 -2.533636 7.418637
-0.020221 -2.440923 7.457585
-0.026451 -2.550956 8.169972
-0.018211 -2.406421 8.041962
-0.019031 -2.421255 8.420262
-0.021406 -2.463797 9.169391
-0.020832 -2.454064 9.438343
-0.012693 -2.311696 9.630408
0.154900 -2.101761 0.575860
0.160252 -2.409032 0.863235
0.162619 -2.542462 1.600089
0.160723 -2.433774 1.449314
0.160792 -2.437513 1.517372
0.161755 -2.489972 2.259095
0.159633 -2.368778 1.997844
0.160630 -2.423692 2.628917
0.161895 -2.494020 3.258458
0.161555 -2.475086 3.102005
0.162879 -2.549039 3.674201
0.162233 -2.510155 4.092703
0.161656 -2.477767 3.880231
0.163624 -2.588423 4.563955
0.163232 -2.564113 4.985087
0.161570 -2.468193 5.015767
0.161307 -2.451322 5.440323
0.160735 -2.419025 5.283130
0.162458 -2.516466 5.743600
0.165285 -2.676627 6.425196
0.166586 -2.750423 6.714471
0.164706 -2.642125 6.695326
0.161921 -2.480946 6.869213
0.163318 -2.558808 7.523574
0.161426 -2.449831 7.506748
0.165067 -2.656944 8.189493
0.162245 -2.495025 8.007172
0.160877 -2.414555 8.415868
0.160597 -2.397338 8.683606
0.160110 -2.367117 9.210655
0.157625 -2.223166 9.402339
0.312089 -2.293187 0.859699
0.329590 -2.500685 1.090196
0.329445 -2.498994 1.046645
0.322155 -2.412240 1.344136
0.331918 -2.527857 1.631570
0.324211 -2.436280 1.762510
0.329721 -2.501011 2.560386
0.318866 -2.372448 2.244934
0.322526 -2.415496 2.707537
0.329858 -2.501896 3.448498
0.332568 -2.533859 3.683818
0.330745 -2.512350 3.527262
0.340834 -2.631420 4.320831
0.335122 -2.563477 4.516371
0.324592 -2.438626 4.376489
0.329710 -2.499073 4.724452
0.330762 -2.511060 5.314937
0.331888 -2.523975 5.851224
0.343523 -2.661922 6.007700
0.338402 -2.601376 5.740331
0.338013 -2.596410 6.164758
0.341656 -2.639486 6.343389
0.336482 -2.577614 6.906503
0.339063 -2.607848 7.391106
0.339567 -2.613515 7.765324
0.328995 -2.488115 7.693494
0.325504 -2.446511 7.901970
0.323635 -2.424112 8.167612
0.328223 -2.478147 8.658940
0.323775 -2.425234 8.814534
0.321499 -2.397781 9.341730
0.447241 -2.157157 0.253103
0.477845 -2.358605 0.545400
0.497855 -2.489982 1.452271
0.498426 -2.493710 1.520501
0.482612 -2.389591 1.426041
0.488157 -2.425847 2.000040
0.478284 -2.360618 2.414022
0.476937 -2.351798 2.313768
0.488319 -2.426422 3.056844
0.497016 -2.483489 3.517637
0.491806 -2.449296 3.249697
0.502226 -2.517693 3.765978
0.500792 -2.507973 4.352988
0.499698 -2.500789 4.309273
0.488038 -2.423919 4.450181
0.487341 -2.419080 4.985506
0.474588 -2.335036 5.072944
0.497913 -2.488326 5.815360
0.509241 -2.562997 5.694109
0.517192 -2.615262 5.929384
0.523247 -2.654868 6.521714
0.520038 -2.633582 6.837215
0.489283 -2.431002 6.844665
0.489003 -2.428981 7.219796
0.521613 -2.643435 7.958579
0.500122 -2.501938 7.832635
0.521669 -2.643650 8.291290
0.493697 -2.459366 8.364921
0.505372 -2.536013 8.912600
0.515729 -2.604003 9.404789
0.476009 -2.342441 9.260826
0.569775 -2.028082 0.529380
0.590537 -2.122070 0.199483
0.635773 -2.326435 0.773346
0.657430 -2.424364 0.782653
0.641346 -2.351427 1.416160
0.642142 -2.355003 1.484442
0.649450 -2.387881 2.002013
0.637508 -2.333712 2.528302
0.633296 -2.314736 2.315308
0.646879 -2.375951 2.945877
0.644494 -2.365199 2.845610
0.656167 -2.417834 3.306642
0.666183 -2.463010 3.654747
0.650401 -2.391583 3.849105
0.672081 -2.489414 4.477289
0.645086 -2.367392 4.337874
0.636871 -2.330125 4.704281
0.629783 -2.297954 5.072504
0.663607 -2.450813 5.345778
0.706019 -2.642455 5.782940
0.719966 -2.705292 6.483970
0.690673 -2.572875 6.353401
0.688711 -2.563884 6.724286
0.681334 -2.530442 6.985018
0.698788 -2.609156 7.635935
0.664637 -2.454787 7.451443
0.655177 -2.411943 7.658236
0.712592 -2.671294 8.505763
0.688879 -2.564069 8.492194
0.660776 -2.436912 8.733815
0.692281 -2.579145 9.448102
0.634973 -2.320051 9.303048
0.592677 -2.128685 9.642243
0.706116 -1.984947 0.540722
0.735828 -2.086099 0.778371
0.792702 -2.279820 0.841697
0.822574 -2.381533 1.019287
0.800451 -2.306057 1.485320
0.801547 -2.309772 1.554031
0.784647 -2.252060 2.136044
0.797874 -2.296988 2.655053
0.789244 -2.267672 2.330040
0.807064 -2.328216 2.961012
0.805689 -2.323545 2.917359
0.841023 -2.443665 3.882380
0.851243 -2.478420 4.118214
0.836961 -2.429693 4.426183
0.794214 -2.284158 4.118291
0.815749 -2.357400 4.577523
0.818141 -2.365402 5.166534
0.784827 -2.251939 5.083285
0.838760 -2.435550 5.522144
0.839351 -2.437559 5.531971
0.847923 -2.466613 6.122453
0.856107 -2.494463 6.243872
0.841013 -2.442995 6.445002
0.851259 -2.477764 6.982620
0.829112 -2.402300 7.074559
0.829313 -2.402892 7.447288
0.835822 -2.424955 7.877217
0.866137 -2.528136 8.221917
0.855464 -2.491729 8.429685
0.845430 -2.457419 8.949920
0.825290 -2.388789 9.048584
0.795651 -2.287750 9.349859
0.764492 -2.181471 9.914835
0.766840 -1.741523 0.055764
0.870628 -2.023595 0.239144
0.907223 -2.122982 0.646997
0.946783 -2.230420 1.107795
0.946190 -2.228817 1.064514
0.951713 -2.243756 1.414843
0.967332 -2.286072 2.101758
0.959115 -2.263803 1.775235
0.933481 -2.194055 2.130324
0.957695 -2.259722 2.871942
0.971587 -2.297412 3.219027
0.974431 -2.305127 3.285399
0.998502 -2.370451 3.799618
0.953860 -2.249150 3.599679
0.968488 -2.288724 4.523838
0.952795 -2.246122 4.253371
0.969725 -2.292081 4.544438
0.984065 -2.330904 5.302030
0.935425 -2.198734 5.107265
0.989197 -2.344745 5.847507
0.989998 -2.346919 5.857783
0.995194 -2.361029 5.924009
1.023298 -2.437351 6.269359
1.060537 -2.538404 7.083714
1.033565 -2.465072 7.176233
1.040025 -2.482546 7.603766
1.019464 -2.426628 7.753994
1.041578 -2.486627 8.295420
1.030384 -2.456219 8.194282
0.997138 -2.365780 8.545360
1.031854 -2.460022 9.146248
0.980150 -2.319508 9.022104
0.883404 -2.056400 9.719287
0.881417 -1.686462 0.107763
1.004509 -1.962529 0.413515
1.089449 -2.152998 0.815984
1.134281 -2.253516 1.104421
1.110195 -2.199358 1.850258
1.098162 -2.172451 1.355775
1.127310 -2.237660 2.377591
1.081175 -2.134196 2.228878
1.096316 -2.168090 2.633969
1.114045 -2.207791 3.038426
1.109368 -2.197316 2.937322
1.129036 -2.241365 3.341239
1.154578 -2.298583 3.800274
1.121735 -2.224886 3.938085
1.131422 -2.246486 4.694466
1.104601 -2.186385 4.312857
1.114370 -2.208178 5.015548
1.066517 -2.100850 4.932928
1.094291 -2.163093 5.282031
1.173730 -2.341215 5.720711
1.155593 -2.300487 5.977312
1.206014 -2.413501 6.490421
1.167674 -2.327491 6.525967
1.183305 -2.362462 7.064775
1.190261 -2.377992 7.493256
1.165853 -2.323214 7.644097
1.134953 -2.253882 7.739681
1.198138 -2.395478 8.562918
1.168630 -2.329268 8.661494
1.131561 -2.246108 8.704487
1.165851 -2.322934 9.251350
1.090747 -2.154445 9.329424
1.227181 -2.068054 0.437239
1.184692 -1.987620 0.845579
1.194460 -2.006018 1.365176
1.245662 -2.102848 1.540202
1.249115 -2.109363 1.663989
1.222165 -2.058296 2.245154
1.220412 -2.054986 2.200283
1.254164 -2.118721 2.942806
1.251843 -2.114338 2.898053
1.258347 -2.126623 3.021762
1.235210 -2.082793 3.438702
1.196618 -2.009770 3.576017
1.262170 -2.133635 4.487891
1.286411 -2.179446 4.779594
1.307121 -2.218588 5.014792
1.191612 -2.000119 4.782186
1.181912 -1.981706 5.207661
1.255709 -2.121265 5.480687
1.285217 -2.177039 5.772484
1.316271 -2.235739 6.063546
1.401956 -2.397715 6.798358
1.379117 -2.354482 7.001908
1.304743 -2.213766 7.177502
1.313481 -2.230285 7.244539
1.362369 -2.322657 7.953145
1.352123 -2.303237 8.216913
1.292671 -2.190784 8.146579
1.326601 -2.254887 8.691808
1.338145 -2.276666 9.070264
1.305159 -2.214253 9.170574
1.247297 -2.104762 9.417495
1.156506 -1.932965 9.757999
1.336595 -1.907455 1.248767
1.384991 -1.984621 1.031997
1.388948 -1.990904 1.213458
1.400273 -2.008900 1.619658
1.369146 -1.959211 2.202043
1.364854 -1.952384 2.102160
1.378091 -1.973443 2.396436
1.405807 -2.017550 2.915165
1.420356 -2.040708 3.152415
1.464639 -2.111205 3.781270
1.435538 -2.064782 4.088763
1.408262 -2.021268 4.396451
1.440646 -2.072837 4.744148
1.425706 -2.049045 4.587162
1.366540 -1.954678 5.084385
1.315536 -1.873380 5.114722
1.482508 -2.139441 5.647433
1.496899 -2.162362 5.770191
1.459788 -2.103194 5.915050
1.510299 -2.183647 6.317049
1.512740 -2.187482 6.742790
1.543956 -2.237158 7.336867
1.452966 -2.092164 7.095988
1.462305 -2.106992 7.525978
1.484655 -2.142551 8.013002
1.533442 -2.220272 8.302810
1.424610 -2.046807 8.319364
1.538150 -2.227650 9.256489
1.427196 -2.050843 8.965830
1.403293 -2.012683 9.436807
1.451337 -1.797796 0.722904
1.531199 -1.907714 1.576639
1.540028 -1.919848 1.814064
1.540458 -1.920440 1.824813
1.538659 -1.917966 1.779403
1.497770 -1.861588 2.191264
1.525858 -1.900221 2.708415
1.533454 -1.910670 2.831565
1.582018 -1.977491 3.515449
1.538329 -1.917282 3.708091
1.548733 -1.931599 3.831128
1.532713 -1.909473 4.306492
1.528341 -1.903456 4.261055
1.574801 -1.967405 4.720732
1.478751 -1.835060 4.936453
1.461211 -1.810852 5.304944
1.604923 -2.008810 5.499867
1.645928 -2.065207 6.258686
1.639533 -2.056403 6.213585
1.675419 -2.105763 6.861785
1.634361 -2.049233 6.593788
1.666753 -2.093786 7.187763
1.658700 -2.082655 7.504357
1.683088 -2.116194 7.989224
1.598645 -1.999879 7.861922
1.616423 -2.024319 8.293823
1.683441 -2.116565 8.949529
1.584963 -1.980922 8.769474
1.565429 -1.953987 8.980724
1.563272 -1.950946 9.563524
1.412680 -1.743467 9.734995
1.380890 -1.471491 0.962821
1.568758 -1.696874 0.739232
1.638735 -1.780784 1.030459
1.663420 -1.810314 1.773699
1.666396 -1.813876 1.842362
1.669489 -1.817579 1.911012
1.623247 -1.762070 2.268687
1.627068 -1.766646 2.337516
1.680149 -1.830233 3.136855
1.664503 -1.811488 2.924818
1.690875 -1.843083 3.274010
1.710653 -1.866708 4.197306
1.631646 -1.771950 4.056974
1.655890 -1.801006 4.294421
1.681534 -1.831741 4.531508
1.576026 -1.705155 4.747784
1.569676 -1.697485 5.230830
1.796782 -1.969835 5.930690
1.750748 -1.914650 5.608376
1.754719 -1.919361 6.089731
1.737574 -1.898759 6.405041
1.775664 -1.944425 6.640866
1.811981 -1.987924 7.236477
1.732590 -1.892697 7.164176
1.787511 -1.958508 7.818688
1.717811 -1.874899 7.804213
1.759909 -1.925339 8.349679
1.713249 -1.869357 8.448959
1.714412 -1.870717 8.771005
1.718146 -1.875160 9.094081
1.651233 -1.794862 9.396201
1.526491 -1.645189 9.735880
1.183489 -1.082983 0.253749
1.252142 -1.155816 0.265697
1.469285 -1.386111 1.018829
1.678256 -1.607801 1.133218
1.744088 -1.677654 1.028921
1.699524 -1.630305 1.722163
1.719612 -1.651575 2.129004
1.705816 -1.636965 1.859588
1.737644 -1.670673 2.435123
1.782710 -1.718421 3.065614
1.783694 -1.719464 3.077891
1.784682 -1.720510 3.090167
1.801311 -1.738058 4.013441
1.695243 -1.625566 3.646535
1.779945 -1.715346 4.446673
1.713768 -1.645135 4.475776
1.728617 -1.660876 4.600739
1.630345 -1.556584 4.931084
1.701054 -1.631547 5.451940
1.854630 -1.794422 6.004172
1.780868 -1.716169 5.982899
1.800720 -1.737217 6.107371
1.937402 -1.882145 6.899823
1.879371 -1.820612 6.575911
1.875005 -1.815942 6.946641
1.786707 -1.722235 7.233826
1.777616 -1.712559 7.552375
1.836859 -1.775381 7.843127
1.767536 -1.701799 8.193070
1.741463 -1.674116 8.402683
1.794794 -1.730640 8.950495
1.735748 -1.667960 9.308324
1.782812 -1.471666 0.770564
1.937356 -1.613129 1.057150
1.795579 -1.483309 1.246122
1.825530 -1.510665 1.934887
1.891093 -1.570705 1.771066
1.826807 -1.511832 1.958662
1.851121 -1.534054 2.364779
1.912817 -1.590463 3.163373
1.812147 -1.498325 2.849064
1.884934 -1.564888 3.649065
1.922483 -1.599233 3.997672
1.759144 -1.449702 3.869354
1.772798 -1.462191 3.993465
1.864088 -1.545700 4.737460
1.912391 -1.589890 5.085474
1.737305 -1.429609 4.908526
1.787324 -1.475370 5.258848
1.904106 -1.582262 5.531123
1.879040 -1.559284 5.844239
1.978523 -1.650310 6.415742
1.970330 -1.642813 6.370746
1.952830 -1.626761 6.685884
1.995109 -1.665412 7.282076
1.926396 -1.602499 7.320147
2.005010 -1.674406 8.030887
1.911517 -1.588817 7.959409
1.948520 -1.622648 8.448959
1.992393 -1.662768 8.939228
1.896986 -1.575427 8.870703
1.640128 -1.158685 0.601915
2.051384 -1.487158 1.345534
1.887619 -1.356350 1.139613
1.898375 -1.364916 1.431746
1.923776 -1.385162 1.949197
1.934451 -1.393674 2.128124
1.966389 -1.419147 2.588280
1.999701 -1.445722 2.991499
1.949261 -1.405401 3.294304
1.991210 -1.438876 3.697779
1.974111 -1.425230 3.539081
1.983308 -1.432510 4.294421
1.929669 -1.389642 4.489641
1.969977 -1.421816 4.780955
1.953481 -1.408600 5.203361
1.847187 -1.323656 5.535550
1.916013 -1.378645 5.468458
2.070681 -1.502165 5.906309
2.026717 -1.467025 6.106714
2.136423 -1.554615 6.675723
2.196003 -1.602186 6.963911
2.053468 -1.488346 6.664451
2.134833 -1.553277 7.427057
2.087380 -1.515355 7.576433
2.073622 -1.504308 8.203848
2.001601 -1.446770 8.243962
1.929602 -1.389248 8.284148
1.914697 -1.377317 8.550253
2.040043 -1.477383 9.323426
1.922199 -1.383252 9.198327
1.710750 -1.045909 0.426443
1.965635 -1.223189 0.886172
1.983443 -1.235533 1.406177
1.991667 -1.241239 1.587334
1.982073 -1.234583 1.373552
2.033285 -1.270133 2.287380
2.011952 -1.255319 1.961304
2.060903 -1.289315 2.648684
2.107764 -1.321872 3.166002
2.000737 -1.247436 2.908099
2.028624 -1.266812 3.201721
1.984091 -1.235800 3.564555
2.011366 -1.254754 3.802020
2.035766 -1.271660 4.618331
2.037488 -1.272856 4.630204
2.031070 -1.268396 4.585784
1.967154 -1.223873 5.254878
2.077666 -1.300701 5.886381
2.129167 -1.336545 5.708140
2.113920 -1.325906 6.078457
2.116193 -1.327486 6.090286
2.219811 -1.399528 6.605560
2.240175 -1.413653 7.089168
2.084541 -1.305375 7.154005
2.033811 -1.270070 7.305096
2.106991 -1.320924 7.963354
2.031292 -1.268259 8.003703
2.013575 -1.255910 8.269841
2.059574 -1.287869 8.762278
2.129781 -1.336664 9.311387
2.072476 -1.296789 9.412446
2.135548 -1.140911 1.060999
2.052192 -1.090983 1.134100
2.157840 -1.154218 1.592442
2.078843 -1.106896 1.723925
2.111949 -1.126681 2.243835
2.101054 -1.120169 2.087637
2.140436 -1.143712 2.606952
2.194555 -1.176077 3.181341
2.110715 -1.125863 3.206120
2.021021 -1.072148 3.174467
1.974253 -1.044110 3.539448
2.023990 -1.073863 3.948425
2.025638 -1.074849 3.961232
2.089178 -1.112865 4.425585
2.048830 -1.088675 4.737638
2.069595 -1.101058 5.390254
2.051748 -1.090378 5.288184
2.229768 -1.196954 5.784299
2.148087 -1.148032 5.816794
2.239767 -1.202902 6.276321
2.313730 -1.247170 6.622343
2.220702 -1.191457 6.601875
2.145772 -1.146545 7.056330
2.105416 -1.122359 7.262424
2.307126 -1.243097 8.058142
2.086723 -1.111111 7.903353
2.067259 -1.099432 8.169185
2.243570 -1.204974 8.798121
2.185084 -1.169913 9.210835
2.107538 -1.123467 9.255106
2.019821 -0.885271 0.458712
2.203849 -0.977986 0.749388
2.116286 -0.933855 0.820869
2.132073 -0.941774 1.284927
2.158618 -0.955110 1.804976
2.185921 -0.968837 2.211722
2.191095 -0.971439 2.280343
2.192041 -0.971915 2.292658
2.258797 -1.005497 3.034480
2.154238 -0.952818 2.887835
2.202963 -0.977336 3.349482
2.156258 -0.953771 3.711740
2.242630 -0.997248 4.341824
2.139626 -0.945347 4.256403
2.150104 -0.950576 4.905172
2.093122 -0.921846 5.104343
2.007387 -0.878638 5.134504
2.168659 -0.959878 5.521521
2.346462 -1.049445 5.960057
2.261684 -1.006720 5.993423
2.372470 -1.062509 6.508295
2.275766 -1.013778 6.487564
2.255836 -1.003710 6.803884
2.209304 -0.980216 7.373242
2.214008 -0.982557 7.749634
2.187175 -0.969043 7.648074
2.322994 -1.037422 8.474765
2.176372 -0.963548 8.291850
2.260968 -1.006132 8.896579
2.078128 -0.913990 8.915984
2.018810 -0.884065 9.332801
1.889694 -0.669649 0.403447
1.991172 -0.712476 0.868925
2.168956 -0.787591 0.591608
2.269738 -0.830133 0.938391
2.188343 -0.795731 1.235317
2.229208 -0.812934 1.979795
2.255212 -0.823892 2.328941
2.230748 -0.813583 2.002246
2.194965 -0.798416 2.698992
2.099103 -0.757928 2.663744
2.079842 -0.749739 3.366529
2.081165 -0.750297 3.377825
2.162818 -0.784738 4.011787
2.156506 -0.782075 3.966531
2.198785 -0.799911 4.260150
2.144377 -0.776911 4.513808
2.164305 -0.785319 4.638126
2.062606 -0.742324 5.138937
2.095799 -0.756331 5.320354
2.242306 -0.818192 5.593703
2.325197 -0.853173 5.998466
2.478991 -0.918082 6.680951
2.405890 -0.887198 6.773099
2.230355 -0.813050 6.834930
2.316230 -0.849268 7.547770
2.215724 -0.806817 7.530540
2.302942 -0.843607 8.189778
2.284891 -0.835962 8.456286
2.167007 -0.786175 8.385562
2.203047 -0.801364 8.823336
2.234206 -0.814472 9.521195
2.170651 -0.787620 9.623347
1.738946 -0.476617 0.062692
2.025426 -0.575743 0.473114
2.215489 -0.641523 0.538203
2.233682 -0.647773 1.171149
2.324218 -0.679117 1.066052
2.253753 -0.654689 1.589538
2.275472 -0.662180 1.939510
2.272447 -0.661137 1.894818
2.227892 -0.645668 2.535375
2.079745 -0.594360 2.964123
2.057935 -0.586827 2.748550
2.100817 -0.601639 3.157991
2.142621 -0.616082 3.510012
2.237955 -0.649028 4.200410
2.129491 -0.611492 4.114562
2.259811 -0.656539 4.917950
2.232334 -0.647040 4.760355
2.191506 -0.632886 5.072978
2.129832 -0.611489 5.747898
2.260168 -0.656590 5.907540
2.342869 -0.685219 5.840946
2.381639 -0.698624 6.021044
2.394598 -0.703074 6.504872
2.360002 -0.691080 6.765718
2.327668 -0.679870 7.026898
2.298581 -0.669755 7.654673
2.290995 -0.667106 7.975766
2.270255 -0.659908 8.241661
2.217504 -0.641638 8.395713
2.309232 -0.673342 9.002061
2.150370 -0.618370 8.819347
2.143287 -0.615875 9.405880
1.864939 -0.383256 0.301634
1.865048 -0.383285 0.313960
1.962272 -0.409655 0.382461
2.264690 -0.491655 0.955883
2.370050 -0.520221 1.189515
2.300530 -0.501323 1.713792
2.312288 -0.504500 1.895038
2.317050 -0.505787 1.963505
2.273228 -0.493852 2.604627
2.099051 -0.446586 2.806958
2.130758 -0.455166 3.103219
2.119538 -0.452129 3.001845
2.188885 -0.470900 3.581271
2.192882 -0.471933 4.287876
2.039854 -0.430446 3.917738
2.147818 -0.459684 4.612293
2.178966 -0.468121 4.793249
2.253606 -0.488340 5.200158
2.251799 -0.487815 5.683294
2.208276 -0.475989 5.941958
2.329693 -0.508920 6.043374
2.557595 -0.570707 6.591172
2.494574 -0.553600 6.738572
2.339066 -0.511400 6.912379
2.292553 -0.498767 7.118207
2.293983 -0.499127 7.494412
2.220008 -0.479052 7.589447
2.194995 -0.472247 7.854984
2.294214 -0.499116 8.517430
2.168549 -0.465007 8.760687
2.136262 -0.456233 8.973779
2.203139 -0.474339 9.471367
1.885422 -0.257749 0.134210
2.082592 -0.297317 0.316538
2.281967 -0.337325 0.552548
2.287407 -0.338400 0.790421
2.297104 -0.340325 1.084698
2.352424 -0.351361 2.055508
2.366699 -0.354214 2.236357
2.163043 -0.313337 2.150462
2.122990 -0.305250 2.795411
2.161445 -0.312945 3.147126
2.143424 -0.309339 2.987644
2.198661 -0.320394 3.452454
2.278738 -0.336428 4.029225
2.183452 -0.317298 4.055200
2.071256 -0.294781 3.967366
2.125236 -0.305592 4.319688
2.255776 -0.331744 5.067676
2.239848 -0.328516 5.494220
2.111637 -0.302788 5.355060
2.040720 -0.288542 5.499979
2.204595 -0.321385 6.249959
2.369994 -0.354570 6.519487
2.305524 -0.341617 6.667505
2.227491 -0.325945 6.759698
2.285281 -0.337503 7.362115
2.209655 -0.322315 7.456756
2.072490 -0.294763 7.693459
2.316206 -0.343630 8.498039
2.226457 -0.325610 8.539869
2.155010 -0.311261 8.638577
2.183075 -0.316845 9.338562
2.134634 -0.307109 9.496781
1.799327 -0.118577 -0.021226
1.804989 -0.119280 0.623986
2.000362 -0.145132 0.459932
2.312655 -0.186395 1.031763
2.325157 -0.188028 1.325494
2.325712 -0.188100 1.336958
2.372590 -0.194248 2.081475
2.163122 -0.166554 1.938211
2.087039 -0.156470 2.241893
2.153589 -0.165222 2.936160
2.142639 -0.163781 2.834047
2.104553 -0.158706 3.369113
2.143371 -0.163819 3.665076
2.220176 -0.173941 4.187408
2.142267 -0.163627 4.328347
2.153443 -0.165100 4.396719
2.234378 -0.175772 4.862073
2.268221 -0.180235 5.043374
2.396448 -0.197149 5.675515
2.267944 -0.180130 6.012685
2.026388 -0.148194 5.840797
2.079959 -0.155262 6.080532
2.232108 -0.175370 6.296434
2.324934 -0.187593 7.067734
2.232328 -0.175342 7.105359
2.282445 -0.181932 7.653290
2.207202 -0.171973 7.749625
2.235439 -0.175677 8.186912
2.032148 -0.148789 8.201135
2.086470 -0.155938 8.699456
2.130510 -0.161732 9.141566
1.987031 -0.142741 9.333181
2.103843 -0.017386 0.337445
2.222180 -0.024985 1.086852
2.113259 -0.017961 0.819568
2.125870 -0.018752 1.174334
2.077428 -0.015558 2.047807
2.070010 -0.015086 1.947158
2.113083 -0.017834 2.473215
2.114313 -0.017912 2.486554
2.194845 -0.023067 3.238682
2.083745 -0.015889 3.150198
2.000003 -0.010465 3.289684
2.103719 -0.017118 4.044785
1.998448 -0.010313 4.016084
2.017965 -0.011566 4.143773
2.164539 -0.021024 4.426012
2.314125 -0.030676 4.705431
2.435302 -0.038467 5.338477
2.399508 -0.036130 5.653528
2.219662 -0.024494 5.765835
1.994611 -0.009917 6.129772
2.024410 -0.011835 6.257455
2.192943 -0.022713 6.529655
2.293190 -0.029140 7.302518
2.168746 -0.021099 7.226968
2.027114 -0.011925 7.462648
2.155132 -0.020148 8.242959
2.099434 -0.016535 8.398018
1.989760 -0.009445 8.382414
2.180769 -0.021755 8.963357
2.015322 -0.011048 9.096372
1.890538 -0.002962 9.345209
1.803948 0.135896 0.630284
2.100162 0.138749 0.408172
2.104388 0.138807 0.647910
2.016817 0.137988 1.062115
2.121820 0.139013 1.184112
2.069225 0.138561 1.999268
2.097791 0.138863 2.353128
2.131149 0.139210 2.706569
2.010662 0.138029 2.500249
2.034111 0.138273 2.740722
1.980086 0.137779 3.163705
1.988356 0.137864 3.232958
2.000201 0.138037 4.058955
2.019580 0.138233 4.184158
2.226241 0.140278 4.804095
2.424952 0.142202 4.778978
2.513249 0.143089 5.238787
2.362190 0.141608 4.987763
2.310200 0.141123 5.243406
2.236466 0.140452 5.861231
2.052561 0.138708 6.394795
1.930519 0.137520 6.314719
2.217715 0.140353 7.042057
2.170507 0.139910 7.249374
2.173851 0.139969 7.628172
2.097637 0.139237 7.723937
2.021744 0.138509 7.820148
2.105331 0.139361 8.430712
2.087948 0.139212 8.700346
2.132147 0.139671 9.141789
2.001983 0.138405 9.071373
1.688404 0.236941 0.363028
1.890613 0.251116 0.546138
2.100795 0.265865 0.954070
2.003573 0.259061 1.027754
2.021795 0.260366 1.438178
2.028614 0.260853 1.563027
2.047163 0.262173 1.858957
1.978978 0.257426 2.276993
1.947656 0.255282 2.983995
1.955279 0.255821 3.051962
1.877576 0.250392 3.246292
2.029351 0.261051 3.644874
1.825348 0.246761 3.625250
2.027452 0.260964 4.308821
2.306525 0.280499 4.158512
2.354358 0.283870 4.451123
2.447167 0.290407 4.967960
2.372881 0.285214 5.109905
2.345480 0.283320 5.478368
2.277470 0.278601 6.096617
1.975251 0.257435 6.118157
1.810168 0.245885 6.289089
2.014825 0.260276 7.102385
2.111925 0.267101 7.455018
2.035196 0.261734 7.550051
1.862947 0.249679 7.673288
2.055920 0.263239 8.313442
1.946196 0.255553 8.297035
2.040595 0.262208 8.910191
1.988642 0.258580 9.067354
1.903970 0.252675 9.430371
1.671806 0.350580 0.575967
1.870114 0.377987 0.584009
2.079361 0.406933 0.990304
1.989873 0.394583 1.234117
2.022017 0.399067 1.816631
1.927848 0.386058 1.892401
1.842358 0.374257 2.083559
1.856964 0.376288 2.267681
1.900150 0.382290 2.738350
1.958524 0.390394 3.265343
1.953084 0.389639 3.220003
1.975564 0.392759 3.403315
1.802964 0.368921 3.613119
1.959358 0.390562 4.012288
2.472648 0.461547 4.694684
2.495010 0.464646 4.818311
2.463906 0.460373 5.184929
2.347049 0.444218 5.103525
2.392250 0.450515 5.810865
2.265647 0.433042 6.148931
2.183810 0.421796 7.049585
2.026328 0.400045 7.227426
1.854153 0.376259 7.349574
1.809973 0.370169 7.560830
1.801001 0.368952 7.888176
1.943528 0.388682 8.357838
1.981509 0.393962 8.799597
1.835441 0.373789 8.988628
1.883893 0.380517 9.433954
1.542264 0.439287 0.114564
1.843461 0.501513 0.700082
1.941659 0.521787 0.709955
1.854673 0.503854 1.068822
1.886347 0.510439 1.711474
1.776145 0.487672 1.500086
1.786614 0.489847 1.684938
1.814730 0.495681 2.099486
1.741477 0.480580 2.407640
1.824944 0.497870 3.224991
1.806635 0.494079 3.065060
2.099277 0.554550 3.818876
2.353652 0.607095 4.196497
2.491147 0.635538 4.993606
2.345797 0.605512 4.743612
2.431907 0.623323 5.204855
2.466970 0.630608 5.853847
2.278382 0.591677 5.909082
2.032803 0.540994 6.157515
1.749307 0.482470 6.237152
1.620244 0.455875 6.955403
1.543253 0.439987 7.050154
1.686161 0.469503 7.209568
1.815403 0.496219 7.681588
1.842044 0.501751 8.123328
1.786689 0.490334 8.279141
1.750147 0.482805 8.493271
1.771214 0.487182 8.881073
1.666175 0.465518 9.187385
1.700025 0.608719 0.441553
1.795594 0.636014 0.395091
1.803670 0.638350 0.808973
1.930698 0.674688 1.560798
1.823666 0.644101 1.349617
1.765466 0.627525 1.999202
1.766339 0.627775 2.011542
1.693427 0.606971 2.319445
1.747961 0.622591 2.907263
1.761447 0.626452 3.034541
2.088041 0.719813 4.069821
2.350376 0.794776 4.500167
2.419656 0.814552 4.326542
2.412268 0.812480 4.858767
2.449562 0.823184 5.560793
2.381263 0.803686 5.705076
2.137592 0.734069 5.476535
1.928629 0.674413 5.892083
1.759734 0.626298 7.632451
1.700297 0.609305 7.413822
1.722136 0.615575 7.855816
1.699832 0.609224 8.126304
1.751032 0.623885 8.628087
1.754911 0.625017 8.958330
1.576444 0.574047 9.033819
1.593792 0.579049 9.690022
1.145963 0.451149 9.872351
1.465401 0.651862 0.190278
1.372710 0.618600 0.378224
1.561791 0.686485 0.446355
1.848369 0.789384 0.681830
1.764367 0.759254 1.039481
1.690680 0.732835 1.514688
1.694313 0.734145 1.583425
1.712066 0.740540 1.882056
1.630718 0.711351 2.073179
1.574717 0.691282 2.554627
1.614516 0.705601 2.970035
1.948216 0.825485 4.123502
2.135836 0.892839 4.103809
2.309610 0.955261 4.604906
2.330336 0.962711 4.727954
2.259091 0.937144 4.869221
2.209097 0.919215 5.123982
2.228991 0.926402 5.718159
1.979213 0.836746 5.907214
1.617771 0.707089 7.265910
1.529856 0.675531 7.303486
1.629731 0.711440 8.035597
1.510182 0.668516 7.959986
1.662801 0.723370 8.809812
1.648396 0.718195 8.763470
1.583290 0.694853 9.184678
1.466156 0.652821 9.435445
1.262556 0.579750 9.722262
1.326233 0.709141 0.009388
1.425325 0.752528 0.729955
1.714694 0.879101 1.193113
1.727950 0.884920 1.491528
1.646208 0.849190 1.681345
1.660786 0.855583 1.923128
1.562904 0.812773 1.826739
1.491418 0.781537 2.134765
1.470669 0.772527 2.966469
1.371435 0.729191 3.723294
2.054812 1.028044 3.991037
2.097167 1.046588 4.285054
2.208437 1.095297 4.972127
2.100974 1.048299 4.889750
2.126409 1.059471 5.541112
2.017739 1.011981 5.934440
0.934582 0.538442 7.397798
1.438404 0.758766 7.511618
1.492321 0.782386 8.071923
1.576927 0.819406 8.371748
1.492707 0.782581 8.412800
1.476487 0.775509 8.685823
1.498593 0.785205 9.075628
1.315629 0.705223 9.416780
1.175359 0.643921 9.879639
1.185526 0.752513 0.074261
1.274786 0.799131 0.261501
1.551848 0.943838 0.905117
1.552198 0.944022 0.917484
1.475994 0.904264 1.279732
1.590766 0.964229 1.805061
1.499701 0.916680 1.766344
1.437925 0.884460 2.190357
1.382196 0.855397 2.616982
1.403961 0.866780 2.861266
1.597107 0.967698 3.809376
1.854819 1.102244 3.722572
2.071108 1.215242 4.624048
1.968201 1.161507 4.540535
2.072052 1.215778 5.173242
1.986875 1.171309 5.202806
1.855743 1.102866 5.479412
1.749419 1.047384 5.873355
1.480522 0.906993 5.890984
0.753177 0.527373 7.570267
1.170676 0.745368 7.767747
1.358599 0.843485 7.781048
1.431659 0.881679 8.399918
1.415652 0.873343 8.672253
1.454104 0.893454 9.119221
1.271908 0.798330 9.136100
1.045737 0.780558 0.206558
1.219878 0.887440 0.567971
1.483316 1.049113 0.920632
1.403806 1.000342 1.110057
1.410602 1.004528 1.296201
1.421195 1.011047 1.540011
1.355263 0.970622 1.905976
1.378601 0.984971 2.266047
1.330926 0.955758 2.750132
1.247142 0.904350 2.771994
1.488170 1.052302 3.478723
1.775811 1.228819 3.736111
1.984071 1.356681 4.636800
1.901877 1.306249 4.665714
1.735785 1.204340 4.712240
1.707672 1.187120 5.083738
1.590589 1.115306 5.419880
1.539609 1.084041 5.623912
1.356282 0.971587 6.045513
0.486988 0.438298 7.346565
0.833528 0.650963 7.697502
1.183608 0.865799 8.037478
1.246845 0.904621 8.282317
1.133760 0.835252 8.528661
1.266451 0.916711 9.006834
1.273893 0.921304 9.341543
1.416846 1.149555 1.133101
1.327402 1.086127 0.860207
1.273520 1.047998 1.628851
1.266169 1.042773 1.467021
1.208680 1.002062 1.949431
1.209375 1.002556 1.961460
1.262866 1.040540 2.727945
1.218609 1.009204 3.156849
1.419047 1.151320 3.515140
1.708061 1.356225 3.885859
1.806576 1.426123 4.633933
1.519651 1.222707 4.354583
1.594191 1.275591 4.881003
1.560098 1.251451 5.197084
1.478884 1.193925 5.707324
1.431943 1.160667 5.912860
1.192114 0.990702 6.419303
1.070439 0.904471 6.653354
0.767959 0.690066 6.820375
0.490895 0.493688 7.109509
0.570728 0.550311 7.481426
0.825386 0.730863 7.856315
1.084093 0.914285 8.223234
1.101686 0.926762 8.293742
1.071352 0.905278 8.510847
1.073465 0.906804 8.845889
1.095247 0.922279 9.240387
1.010642 0.862331 9.551134
0.931325 0.913534 0.057320
1.010661 0.978368 0.430999
1.247442 1.171794 0.727240
1.182451 1.118753 1.205042
1.124158 1.071184 1.686052
1.130391 1.076287 1.813676
1.165540 1.105049 2.405805
1.077662 1.033258 2.251162
1.098142 1.050013 2.553768
1.377747 1.278510 3.894193
1.649105 1.500179 4.202460
1.616657 1.473651 3.929984
1.550769 1.419900 4.655310
1.419240 1.312535 5.372875
1.259219 1.181876 5.848572
1.064268 1.022666 6.099032
0.871035 0.864860 6.353280
0.690744 0.717630 6.671139
0.426444 0.501780 6.958170
0.537858 0.592831 7.509926
0.640445 0.676632 7.614906
0.883507 0.875195 7.986221
1.084674 1.039550 8.495821
1.013720 0.981600 8.537795
0.957325 0.935575 8.962461
0.990669 0.962823 9.091488
1.038588 1.002032 9.871108
0.751103 0.767233 10.020721
0.948409 1.051888 0.875340
1.092093 1.186638 0.765533
1.094767 1.189158 0.893786
0.960903 1.063648 1.321284
0.975065 1.076966 1.683905
1.006133 1.106161 2.279387
1.014133 1.113677 2.408190
0.949958 1.053500 2.546152
1.089945 1.184875 3.387457
1.268923 1.352770 3.719132
1.366246 1.444071 3.945502
1.369117 1.446827 4.601605
1.435238 1.508836 4.538713
0.957493 1.060932 6.340761
0.817424 0.929566 6.397873
0.609341 0.734455 6.917906
0.444168 0.579570 7.242840
0.364407 0.504760 7.219682
0.531129 0.661174 7.684951
0.710594 0.829508 7.820507
0.833109 0.944436 8.039971
0.843820 0.954518 8.433092
0.929548 1.034989 9.120285
1.020557 1.120381 9.481856
0.931655 1.037024 9.735515
0.728844 0.846818 9.848822
0.803472 1.034074 0.585469
1.014568 1.260206 0.940913
0.946632 1.187444 0.956248
0.901073 1.138722 1.672506
0.906551 1.144602 1.801298
0.912452 1.150935 1.930049
0.960554 1.202540 2.757678
0.881774 1.118147 2.604583
1.113224 1.366163 3.778606
1.249527 1.512149 3.762664
1.310081 1.577065 4.346045
1.284039 1.549210 4.717267
1.027817 1.274856 5.421618
0.770038 0.998776 5.571610
0.782582 1.012269 6.133647
0.625443 0.844084 7.292556
0.462901 0.670021 7.561532
0.587803 0.803827 7.844752
0.702728 0.926939 8.065806
0.729216 0.955323 8.195920
0.780890 1.010694 8.443419
0.795069 1.025921 8.838274
0.786074 1.016315 9.116721
0.665750 1.004576 -0.018191
0.792536 1.160232 0.286892
0.931134 1.330445 1.109459
0.806707 1.177726 1.187806
0.805511 1.176253 1.141481
0.812433 1.184777 1.387214
0.840579 1.219403 2.099524
0.790120 1.157495 2.353201
0.800623 1.170408 2.540673
0.994577 1.408581 3.496510
1.150464 1.599960 3.826387
1.151131 1.600851 4.483173
0.959419 1.365537 4.487071
0.893443 1.284674 5.564249
0.728639 1.082463 6.245571
0.633423 0.965618 6.479755
0.530335 0.839103 6.656992
0.366614 0.638167 6.859949
0.344476 0.611068 7.522300
0.438681 0.726717 7.687749
0.566029 0.883068 8.029388
0.579327 0.899397 8.100874
0.672660 1.014011 8.584280
0.614633 0.942791 8.625451
0.676882 1.019232 8.931371
0.759039 1.120151 9.620730
0.723573 1.076667 10.051890
0.714281 1.213149 0.509101
0.774232 1.297801 0.694910
0.791054 1.321641 1.464327
0.727183 1.231452 1.248730
0.746211 1.258384 1.845283
0.748993 1.262320 1.916378
0.756866 1.273457 2.104078
0.716661 1.216747 2.475380
0.839015 1.389590 3.492589
0.991332 1.604661 3.939502
1.096395 1.753035 4.451430
0.967174 1.570606 4.324655
0.956822 1.556051 4.814278
0.901701 1.478310 5.383140
0.733160 1.240398 5.454971
0.614413 1.072829 5.937760
0.581978 1.027067 6.147103
0.310814 0.644454 7.574563
0.414735 0.791141 7.473480
0.513735 0.930967 8.078671
0.515630 0.933643 8.089773
0.633431 1.100016 8.749716
0.714011 1.213818 9.170997
0.696363 1.188931 9.389940
0.589375 1.037912 9.466638
0.488708 0.895856 9.873517
0.579511 1.178172 0.741775
0.687349 1.355107 0.981945
0.685604 1.352231 0.877786
0.643365 1.283004 1.360524
0.648408 1.291303 1.548011
0.606113 1.221961 1.858777
0.617594 1.240837 2.163789
0.651562 1.296656 2.877402
0.713864 1.398882 3.053600
0.864858 1.646674 3.756627
0.938964 1.768278 4.040200
0.860532 1.639659 4.369350
0.794895 1.532046 4.817999
0.744740 1.449774 4.847207
0.608936 1.227028 5.087725
0.517676 1.077409 5.745245
0.515032 1.073131 6.190854
0.429060 0.932123 6.365543
0.280190 0.687980 6.888041
0.204445 0.563758 7.129127
0.214106 0.579615 7.201342
0.332942 0.774622 7.666996
0.446723 0.961328 8.067567
0.466856 0.994372 8.197719
0.525353 1.090383 8.563577
0.487356 1.028064 8.664444
0.541115 1.116338 9.296938
0.569290 1.162618 9.753156
0.446955 0.961965 9.985104
0.449576 1.119472 0.338915
0.549587 1.311597 1.048822
0.547891 1.308326 0.942455
0.567997 1.347062 1.828874
0.529847 1.273854 2.080130
0.532276 1.278528 2.149161
0.502834 1.222065 2.578275
0.511165 1.238089 2.764701
0.606244 1.420774 3.660372
0.751521 1.699713 3.745626
0.721812 1.642711 4.000425
0.738326 1.674544 4.833158
0.616602 1.440951 5.576508
0.431052 1.084705 5.609137
0.388522 1.003130 6.134374
0.245868 0.729368 6.996595
0.208313 0.657338 7.477515
0.329028 0.889137 7.674393
0.361577 0.951666 7.922635
0.342746 0.915545 8.139470
0.358583 0.946021 8.594884
0.342215 0.914628 8.813906
0.388653 1.003833 9.121048
0.421690 1.067342 9.637054
0.298915 0.831686 10.079819
0.451647 1.330066 0.226598
0.452663 1.332436 0.472106
0.455168 1.338225 0.776029
0.426497 1.272695 1.494017
0.465487 1.361970 1.441959
0.435487 1.293346 1.868841
0.454143 1.336172 2.465561
0.446569 1.318790 2.243314
0.417265 1.251740 2.556510
0.509248 1.462574 3.689905
0.598848 1.667780 3.847545
0.603349 1.678211 4.566362
0.517406 1.481395 4.495328
0.507150 1.457986 4.931038
0.474651 1.383677 5.563264
0.372815 1.150522 5.812210
0.324696 1.040319 5.726536
0.260772 0.894053 6.396251
0.167711 0.681006 6.716337
0.094582 0.513633 7.222596
0.114823 0.560020 7.415690
0.239367 0.845284 7.794475
0.279166 0.936418 7.778640
0.343196 1.083138 8.323070
0.306300 0.998654 8.363583
0.329269 1.051343 8.878545
0.339971 1.075917 9.276034
0.319875 1.029928 9.438030
0.313409 1.015217 9.989961
0.286460 1.170613 -0.017731
0.287150 1.172664 0.420364
0.355413 1.366710 0.722831
0.358445 1.375388 1.027823
0.329470 1.293117 1.337411
0.310718 1.239984 2.060534
0.306880 1.229043 1.897116
0.319173 1.264076 2.379808
0.288174 1.176004 2.460154
0.353405 1.361561 3.368387
0.437493 1.600592 3.762420
0.509203 1.804525 4.509644
0.461198 1.668184 4.844622
0.325839 1.283652 5.379899
0.265660 1.112771 5.981861
0.201623 0.930811 6.035942
0.146401 0.773926 6.209888
0.119737 0.698270 6.746106
0.065988 0.545572 6.925632
0.129728 0.726853 7.658877
0.194769 0.911667 7.616998
0.240963 1.043038 8.103187
0.222024 0.989253 8.261677
0.240429 1.041662 8.776851
0.286864 1.173705 9.201516
0.205444 0.942314 9.098859
0.208565 0.951255 9.439354
0.171988 0.847442 10.027175
0.183005 1.099112 0.756251
0.209516 1.194345 0.708396
0.240526 1.305878 1.188778
0.248988 1.336437 1.788320
0.222460 1.241136 1.808263
0.222695 1.241983 1.821810
0.213997 1.210955 2.665745
0.217432 1.223331 2.795830
0.270986 1.415953 3.641799
0.344662 1.680779 4.148385
0.335875 1.649152 3.929290
0.300070 1.520636 4.377935
0.241440 1.310268 5.420211
0.169615 1.052274 5.609786
0.141490 0.951355 6.079135
0.123187 0.885751 6.672378
0.079736 0.729693 6.851989
0.057374 0.649482 7.334353
0.049833 0.622360 7.226735
0.159676 1.017182 7.962942
0.174672 1.071108 8.153123
0.185206 1.108985 8.283845
0.159555 1.016928 8.651414
0.196636 1.150259 9.077874
0.157564 1.009936 9.272330
0.166369 1.041675 9.673173
0.132344 0.919574 10.203594
0.086321 1.002948 0.229661
0.107717 1.106656 0.655585
0.126908 1.199429 0.312685
0.129709 1.213215 0.973128
0.134457 1.236383 1.515402
0.136632 1.246977 1.704463
0.140731 1.266923 2.010965
0.120735 1.170143 2.030831
0.107479 1.106134 2.464825
0.108779 1.112449 2.536626
0.173666 1.426890 3.609866
0.234597 1.722048 4.290310
0.205976 1.583425 4.028521
0.205187 1.579815 4.637355
0.150967 1.317637 5.389520
0.089420 1.019909 5.895770
0.046711 0.813337 6.330641
-0.000470 0.585081 6.651811
-0.016596 0.507062 6.748448
-0.023574 0.473384 7.027262
0.032008 0.742636 7.677136
0.081853 0.983946 7.814833
0.110793 1.124195 8.301383
0.103281 1.087909 8.520844
0.084767 0.998312 8.563360
0.085412 1.001551 8.903201
0.063691 0.896525 9.216479
0.025027 1.007415 0.359002
0.053467 1.205506 0.369056
0.055614 1.220787 1.029008
0.058640 1.242105 1.511956
0.060668 1.256351 1.759351
0.048253 1.169975 1.954810
0.034196 1.072079 1.974028
0.038193 1.100094 2.341269
0.042895 1.133029 2.708093
0.095345 1.499015 4.069416
0.124951 1.705243 4.109555
0.135805 1.781078 4.583247
0.102581 1.549578 4.396560
0.080089 1.393576 5.731066
0.026623 1.021257 5.885346
-0.007256 0.785447 6.200073
-0.040635 0.553113 6.519658
-0.049073 0.494642 7.121548
-0.044270 0.528155 7.253269
-0.011898 0.753669 7.333661
0.028046 1.032200 7.973132
0.026045 1.018239 7.924489
0.038187 1.103119 8.556189
0.049330 1.180852 8.802965
0.025506 1.014979 8.934489
0.027574 1.029715 9.602337
0.007272 0.888407 9.798567
-0.033358 0.605604 10.184916
-0.055752 0.911085 0.634801
-0.034880 1.213313 0.758541
-0.041643 1.115498 0.832437
-0.040435 1.133487 1.317320
-0.040206 1.136863 1.388603
-0.037470 1.177147 2.049948
-0.041987 1.112203 2.483527
-0.049485 1.003581 2.386024
-0.041470 1.119766 2.567096
-0.019873 1.433387 3.580210
-0.011871 1.549327 3.694902
-0.005898 1.636382 4.286822
-0.005802 1.638394 4.894530
-0.024685 1.365791 5.587282
-0.052165 0.968575 6.116279
-0.073089 0.665741 6.132976
-0.090309 0.416762 6.391374
-0.085824 0.482392 7.092727
-0.071363 0.692117 7.500965
-0.062249 0.824131 7.606111
-0.053110 0.956519 7.710161
-0.043427 1.097172 8.196102
-0.047326 1.040899 8.355018
-0.048613 1.022553 8.633347
-0.048375 1.026343 8.972020
-0.051575 0.980512 9.462790
-0.116743 0.900137 0.267945
-0.116398 1.109605 0.811428
-0.116399 1.111678 0.883455
-0.116398 1.130532 1.366458
-0.116397 1.133952 1.435889
-0.116359 1.184449 2.213216
-0.116541 1.085591 2.231530
-0.116698 1.012163 2.546629
-0.116482 1.141362 2.843254
-0.116664 1.042955 2.863872
-0.117355 0.678848 3.215789
-0.115764 1.574033 3.901953
-0.115727 1.601236 4.086332
-0.115817 1.568769 4.518705
-0.116106 1.423844 4.854317
-0.116585 1.173734 5.153523
-0.116842 1.048671 5.556810
-0.117363 0.768943 5.686638
-0.117566 0.678336 6.218612
-0.118062 0.415379 6.416001
-0.118083 0.421032 6.873965
-0.117633 0.691732 7.523003
-0.117346 0.857065 7.746253
-0.117163 0.956277 7.729665
-0.117023 1.044526 8.036794
-0.116966 1.095541 8.549722
-0.116954 1.117251 8.945272
-0.117029 1.084600 9.164502
-0.117375 0.898502 9.238585
-0.117346 0.942210 9.969726
-0.171710 0.789887 0.221277
-0.185367 0.992901 0.528664
-0.186548 1.009843 1.133647
-0.193798 1.117593 1.318704
-0.195368 1.140522 1.743718
-0.196209 1.152849 1.932461
-0.192092 1.091037 2.424415
-0.184149 0.973004 2.207479
-0.194908 1.132506 2.861470
-0.213060 1.402123 3.461086
-0.223516 1.557364 3.867233
-0.227764 1.620175 4.285010
-0.222537 1.542202 4.428581
-0.215619 1.438622 4.998687
-0.201352 1.225700 5.477204
-0.178652 0.887918 5.310014
-0.173863 0.815944 5.958227
-0.167486 0.720967 5.991203
-0.146929 0.414439 6.451750
-0.138899 0.294506 6.813398
-0.161345 0.628154 7.320966
-0.169103 0.743605 7.367348
-0.180138 0.907658 7.591891
-0.189483 1.046288 8.078671
-0.190522 1.061340 8.473927
-0.200908 1.215461 8.957120
-0.185817 0.990831 8.912241
-0.189642 1.046963 9.699084
-0.224125 0.776464 0.186485
-0.224254 0.777352 0.319346
-0.252923 0.989679 0.983308
-0.268287 1.103466 1.347541
-0.255419 1.007963 1.424731
-0.245425 0.933598 1.859174
-0.248409 0.955574 2.169439
-0.240013 0.893057 2.607328
-0.252743 0.987521 2.551958
-0.248732 0.957415 3.228323
-0.219673 0.741915 3.085215
-0.269343 1.110085 3.656832
-0.325735 1.528351 3.791644
-0.334045 1.589772 4.210958
-0.322345 1.502937 4.297506
-0.301372 1.347205 4.576135
-0.248730 0.956086 5.724466
-0.208919 0.660487 6.238077
-0.183366 0.470664 6.739003
-0.170746 0.377030 6.773784
-0.198214 0.580583 7.183940
-0.219974 0.741883 7.409908
-0.261529 1.049955 7.784454
-0.258301 1.025868 8.060164
-0.261085 1.046477 8.130470
-0.260768 1.043952 8.466528
-0.248291 0.951199 8.834325
-0.241834 0.903046 9.324391
-0.245159 0.927356 9.996666
-0.199345 0.587527 9.930272
-0.315602 0.955503 0.141114
-0.275716 0.759818 0.214038
-0.276639 0.764217 0.585283
-0.316876 0.961573 0.653350
-0.338162 1.065902 0.900076
-0.323302 0.992794 1.508532
-0.304821 0.902089 1.645308
-0.314200 0.947866 2.311371
-0.292572 0.841806 2.212988
-0.300000 0.878090 2.641504
-0.281483 0.787229 2.722284
-0.273418 0.747472 3.282463
-0.346800 1.107260 3.790786
-0.438135 1.555171 4.154094
-0.447748 1.602220 4.455183
-0.420909 1.470634 4.250230
-0.403642 1.385696 4.936212
-0.322552 0.987727 5.476034
