-0.598345 -1.881217 1.175107
-0.574636 -1.611155 1.961842
-0.582070 -1.767112 2.898436
-0.600453 -2.066087 3.775295
-0.587864 -1.940236 4.484444
-0.580540 -1.891051 5.295857
-0.572884 -1.854915 6.397614
-0.548088 -1.561923 7.045432
-0.456200 -2.132745 -1.732380
-0.453404 -1.922566 -0.814155
-0.449736 -1.910162 0.020704
-0.445749 -1.941387 0.865475
-0.443019 -1.790389 1.685942
-0.438288 -1.865429 2.635089
-0.432634 -2.089626 3.580417
-0.430267 -2.025162 4.198549
-0.426418 -1.962011 5.145047
-0.422532 -1.898024 6.100937
-0.420458 -1.713689 6.821994
-0.268748 -2.178659 -1.516036
-0.284099 -1.979868 -0.834104
-0.280898 -1.966335 0.154717
-0.276069 -1.975870 1.030263
-0.279889 -1.899406 1.755173
-0.270298 -1.964860 2.537495
-0.250242 -2.126571 3.662483
-0.254195 -2.056852 4.219102
-0.257788 -1.978072 5.042088
-0.259854 -1.909814 5.987484
-0.265860 -1.791350 7.091229
-0.099232 -2.127903 -1.693854
-0.118587 -1.993035 -0.689927
-0.116967 -1.983119 0.051703
-0.111698 -1.990066 0.937572
-0.119731 -1.920873 1.868681
-0.123667 -1.881622 2.533438
-0.093981 -2.024718 3.476297
-0.083123 -2.067631 4.188272
-0.089601 -2.010597 4.987426
-0.088652 -1.991609 5.934885
-0.107730 -1.857921 6.953782
0.009460 -1.886947 -1.695851
0.036957 -1.978399 -0.937807
0.044057 -1.985788 0.175320
0.047895 -1.989856 0.772776
0.037694 -1.936878 1.568474
0.003192 -1.788302 2.529326
0.035051 -1.895050 3.363335
0.082515 -2.062375 4.136883
0.059218 -1.955945 5.130972
0.051059 -1.911503 5.884300
0.042659 -1.860553 6.953782
0.227646 -2.047158 -1.748961
0.219489 -2.011176 -0.781988
0.210970 -1.975136 0.113511
0.217557 -1.982096 0.978768
0.193639 -1.905752 1.641651
0.125640 -1.699367 2.732798
0.170323 -1.816535 3.390342
0.258446 -2.054170 4.198549
0.224310 -1.945262 5.141280
0.219893 -1.918903 6.177031
0.167410 -1.761841 6.853077
0.381851 -1.987931 -1.513563
0.342584 -1.890696 -0.588427
0.353692 -1.905315 0.330061
0.370219 -1.934785 0.989613
0.334321 -1.845618 1.860600
0.199760 -1.538876 2.607412
0.282492 -1.710051 3.743335
0.441333 -2.054403 4.486179
0.379321 -1.908597 5.237361
0.339965 -1.812006 6.085432
0.295565 -1.703033 7.042476
0.404912 -1.697902 -2.202380
0.522111 -1.901339 -1.423034
0.501052 -1.856362 -0.650345
0.463446 -1.781444 0.144339
0.473410 -1.790192 1.137096
0.543352 -1.907164 2.082798
0.419957 -1.679034 2.772606
0.430095 -1.689753 3.585492
0.549864 -1.895106 4.657880
0.524736 -1.841648 5.557108
0.509236 -1.808285 6.153894
0.333392 -1.483401 7.113815
0.710572 -1.900061 -0.977510
0.608348 -1.743018 -0.445148
0.653989 -1.801799 0.722382
0.721560 -1.897134 1.420728
0.741076 -1.920570 2.130398
0.548016 -1.625807 2.909231
0.512729 -1.563488 4.098277
0.636020 -1.741307 4.892754
0.601661 -1.684798 5.533328
0.548781 -1.597863 6.515037
0.678615 -1.600926 -1.630607
0.838261 -1.796641 -1.061447
0.767375 -1.700371 -0.010680
0.708634 -1.622313 0.620978
0.886531 -1.837142 1.708778
0.991309 -1.962864 2.461939
0.697851 -1.590282 3.199696
0.604631 -1.467865 3.999298
0.730696 -1.619451 4.860606
0.712126 -1.588814 5.889720
0.627836 -1.478183 6.604349
1.033255 -1.772134 -1.574157
0.929399 -1.656848 -0.702513
0.890829 -1.610958 0.092627
0.761316 -1.468791 0.934347
0.925543 -1.635521 1.943252
1.105795 -1.819507 2.899167
0.772209 -1.462461 3.667219
0.705783 -1.387493 4.413456
0.883681 -1.569726 5.257310
0.866464 -1.545040 6.256312
0.653807 -1.314259 7.231705
0.882360 -1.422073 -2.207038
1.056260 -1.572160 -1.302255
0.966700 -1.486845 -0.435991
1.114626 -1.614723 0.299026
1.390105 -1.855336 1.257621
1.436000 -1.891415 2.082889
1.231815 -1.704058 2.870177
0.949751 -1.445204 3.963561
0.874116 -1.373567 4.626421
0.963733 -1.448280 5.529959
0.904160 -1.390258 6.317677
1.204941 -1.491064 -1.270324
1.090019 -1.400311 -0.498159
0.948666 -1.288893 0.414883
1.289969 -1.539370 1.514218
1.543805 -1.725542 2.352222
1.273391 -1.517381 3.210709
0.920428 -1.246925 4.108543
0.908845 -1.234055 4.849576
1.138565 -1.401311 5.826803
1.004470 -1.296624 6.512868
0.668334 -0.982028 -2.715306
1.025823 -1.202863 -1.836797
1.296523 -1.369574 -1.075019
1.092648 -1.236326 -0.198855
0.608341 -0.926835 0.555530
1.604349 -1.544663 2.521816
1.265534 -1.327338 3.202082
0.839258 -1.054259 3.992843
0.879257 -1.073887 5.048891
1.148551 -1.238515 6.035907
1.100556 -1.204398 6.760392
1.377594 -1.241071 -1.510994
1.156668 -1.122937 -0.771820
1.503603 -1.297904 0.154717
1.892216 -1.494606 1.051062
1.758710 -1.421939 1.750691
1.554791 -1.312180 2.575510
1.368733 -1.211510 3.431724
1.156955 -1.097389 4.314248
1.123434 -1.074449 5.418969
1.126629 -1.072556 6.121304
0.852030 -0.925260 7.131464
1.291934 -1.049317 -2.051162
1.447956 -1.111227 -1.398285
1.238884 -1.018995 -0.365887
0.982881 -0.909165 0.259411
1.343595 -1.055046 1.203224
1.772031 -1.229234 2.135441
1.462224 -1.095267 3.108983
1.077005 -0.931293 3.784249
1.026885 -0.906034 4.679331
1.177475 -0.964665 5.540542
1.247765 -0.902416 -1.964565
1.452273 -0.965390 -1.162885
1.506512 -0.970178 1.574041
1.439225 -0.945257 2.200510
1.103440 -0.830641 3.260956
0.639132 -0.674599 4.209659
0.744676 -0.704603 5.152266
1.174983 -0.842529 5.690378
1.100274 -0.813681 6.635481
1.673462 -0.874072 -1.716510
1.373654 -0.799765 -0.824503
1.630004 -0.855703 0.061600
1.955769 -0.927768 0.974992
1.969669 -0.926106 2.041908
1.616533 -0.840470 2.682995
1.158922 -0.729929 3.420120
0.709893 -0.620472 4.358106
0.786075 -0.634342 5.218943
1.247921 -0.737846 6.224183
1.064162 -0.690350 7.194490
1.337570 -0.670430 -0.900176
1.793533 -0.734037 0.061870
2.173524 -0.786555 0.971756
1.771138 -0.723813 1.579724
1.073188 -0.615633 2.491480
0.771357 -0.566254 3.458133
0.607428 -0.537806 4.342270
0.770137 -0.557752 5.292230
1.159949 -0.612943 5.935753
1.072275 -0.595307 6.942274
0.982807 -0.536038 -1.968468
1.392614 -0.558723 -1.046336
1.548745 -0.564153 0.019475
1.931948 -0.584886 0.988521
1.828016 -0.575051 1.662292
1.161505 -0.528359 2.341443
0.813654 -0.500659 3.436937
0.534794 -0.478954 4.203507
0.637641 -0.481661 5.099004
1.107889 -0.508621 5.950591
1.032171 -0.500113 6.740260
1.430067 -0.437902 -0.879294
1.616062 -0.430276 0.009179
1.994723 -0.419674 0.720537
1.870213 -0.417885 1.662292
1.267089 -0.425521 2.590313
0.823866 -0.430623 3.386009
0.573570 -0.430787 4.440982
0.743927 -0.424781 5.036464
1.181273 -0.411855 6.009940
1.157396 -0.408771 6.801293
1.440770 -0.321189 -1.026233
1.523106 -0.308974 -0.189382
1.948246 -0.261186 0.742259
1.892244 -0.263522 1.497149
1.289007 -0.321099 2.443505
0.858331 -0.360906 3.407220
0.629577 -0.379805 4.416930
0.805078 -0.358888 5.065223
1.196181 -0.314229 6.076773
1.166265 -0.313915 6.826577
1.456063 -0.199685 -0.796392
1.640925 -0.161613 -0.074096
1.943016 -0.099928 0.990160
1.794502 -0.124349 1.760425
1.340164 -0.206368 2.515386
1.257103 -0.217824 3.428568
0.961280 -0.269796 4.233652
0.850831 -0.286097 5.213866
1.082723 -0.238883 6.000791
0.996516 -0.251126 6.871189
1.500596 -0.072228 -1.694586
1.440595 -0.084053 -0.671554
1.551492 -0.049890 0.081641
1.798644 0.022341 0.920961
1.894514 0.052684 1.745897
1.517535 -0.048289 2.442102
0.998405 -0.187593 3.346014
0.827848 -0.229833 4.400717
0.977966 -0.184214 5.285688
1.145867 -0.133751 6.155164
1.045992 -0.157143 7.061437
0.713124 -0.243468 -2.688472
1.270581 -0.034911 -1.780255
1.349018 -0.000940 -0.684215
1.551045 0.076132 -0.043448
1.790342 0.168255 0.889899
1.766670 0.163698 1.751115
1.378122 0.024903 2.492913
0.993437 -0.111531 3.432741
0.831175 -0.166957 4.273166
0.987126 -0.105090 5.264518
1.145394 -0.043106 6.102474
1.097828 -0.055416 7.173162
1.110143 0.000093 -2.212637
1.138978 0.017679 -1.396472
1.554240 0.226718 1.436545
1.809538 0.350404 2.204168
1.330495 0.129251 2.969473
0.776257 -0.127010 3.775481
0.840620 -0.092132 4.714574
1.165673 0.065606 5.743726
1.049883 0.015293 6.562707
1.370218 0.246114 -1.333033
1.439788 0.299463 1.272733
1.558888 0.372665 2.228010
1.053373 0.086658 2.949040
0.634661 -0.147462 4.082850
0.863593 -0.012049 4.895259
1.187082 0.178108 5.813824
1.051800 0.103877 6.453004
1.359379 0.366069 -1.699435
1.169064 0.239034 -0.961848
1.091921 0.190900 -0.046022
1.342057 0.368347 0.908496
1.704026 0.620830 1.500669
1.437840 0.443634 2.621039
0.929738 0.098319 3.460245
0.837931 0.040296 4.414054
1.018383 0.167813 5.011650
1.117225 0.240766 5.909025
0.983674 0.153719 6.811957
0.474021 -0.222981 -2.541675
0.832345 0.077621 -1.495702
1.136769 0.333025 -0.603827
1.128548 0.331100 0.228247
1.350177 0.519279 1.263002
1.482700 0.631931 1.904124
1.055669 0.286180 2.808240
0.634042 -0.055974 3.566859
0.816357 0.100441 4.696195
1.123905 0.357746 5.473462
1.086023 0.330774 6.190623
0.810354 0.109523 7.109642
0.674772 -0.003968 -2.266206
0.801928 0.124510 -1.390295
1.105622 0.423412 -0.572234
0.954327 0.282245 0.260345
1.142727 0.471001 1.300997
0.866918 0.225919 4.783094
1.083722 0.440644 5.582212
1.059306 0.423043 6.546415
0.612645 -0.003045 7.509569
1.172098 0.622670 -1.966578
1.077456 0.520800 -1.077659
0.995998 0.434287 -0.141200
1.062278 0.516966 0.902329
1.286137 0.776590 1.543425
1.156778 0.633996 2.265192
0.790654 0.224138 3.385690
0.814280 0.255869 4.089888
1.005791 0.479931 4.925409
1.086098 0.579052 6.034720
0.922974 0.397729 6.723106
0.380344 -0.281572 -2.535399
0.794537 0.287441 -1.719103
0.992092 0.563529 -0.710266
0.967985 0.538116 0.260033
1.029131 0.626144 0.912375
1.062288 0.679632 2.026290
0.881341 0.440213 2.880298
0.684302 0.179388 3.795367
0.848156 0.407931 4.572885
1.014019 0.638410 5.245728
1.003144 0.632191 6.376338
0.790720 0.350339 7.275304
0.580278 0.041216 -2.382848
0.709581 0.258813 -1.499951
0.926947 0.619920 -0.563111
0.907237 0.594767 0.238975
0.936095 0.649045 1.103628
0.912553 0.619404 2.108621
0.729711 0.330500 3.055733
0.625614 0.167337 3.748797
0.802041 0.463478 4.865007
0.966600 0.738427 5.757615
0.902756 0.642263 6.638977
0.883047 0.697179 -2.073974
0.961731 0.861304 -1.126947
0.826534 0.602331 -0.427457
0.821699 0.604134 0.715245
0.825923 0.619039 1.381663
0.794569 0.566321 2.285648
0.688788 0.365815 3.046926
0.765109 0.527429 4.209659
0.902226 0.804274 4.934235
0.921778 0.851987 5.869632
0.855942 0.731270 6.754999
0.898058 0.972013 -1.893145
0.840072 0.841108 -0.793378
0.796772 0.740181 -0.236241
0.784173 0.720296 0.714534
0.760210 0.670418 1.520013
0.668816 0.453743 2.392373
0.625321 0.357701 3.395977
0.752864 0.687450 4.455854
0.859483 0.961662 5.222174
0.828204 0.892549 5.940073
0.710597 0.611505 6.877633
0.752262 0.819625 -2.615355
0.780018 0.919696 -1.868243
0.720672 0.743003 -0.988101
0.609267 0.396419 -0.326036
0.612601 0.420575 0.570502
0.719100 0.775042 1.475995
0.696838 0.716431 2.316040
0.605784 0.438155 3.189269
0.685114 0.705211 4.064266
0.793908 1.066887 4.960843
0.765356 0.991446 6.020448
0.666541 0.687868 6.862784
0.725336 1.094576 -1.683296
0.683882 0.922858 -1.005474
0.660428 0.834731 -0.183665
0.656864 0.841611 0.925850
0.642503 0.794970 1.784512
0.588338 0.569480 2.615889
0.560839 0.465010 3.524050
0.632235 0.798919 4.209889
0.697349 1.111127 5.208426
0.681542 1.057911 6.062477
0.612788 0.769928 7.032240
0.627576 1.122468 -1.600485
0.593419 0.898160 -0.859859
0.587932 0.885730 -0.025159
0.584541 0.894837 0.999805
0.577604 0.869470 1.762325
0.535540 0.591010 2.606809
0.523279 0.530145 3.468585
0.568004 0.883328 4.302425
0.598389 1.132502 5.148683
0.588075 1.088005 6.076773
0.546073 0.812609 7.000477
0.531750 1.204406 -1.756750
0.514462 0.945295 -0.849295
0.509481 0.932323 0.112216
0.506980 0.936336 0.714534
0.501557 0.910186 1.624880
0.484472 0.654917 2.530749
0.476108 0.563157 3.351249
0.489171 0.901541 4.283929
0.498316 1.162937 5.214927
0.493052 1.137496 6.097797
0.474146 0.835953 6.883973
0.438296 1.073573 -1.860333
0.434509 1.030839 -0.731933
0.433970 0.945988 -0.046429
0.429185 0.953635 0.968629
0.425819 0.951830 1.730609
0.428927 0.720098 2.582416
0.428631 0.605023 3.415254
0.414118 0.947165 4.368527
0.399452 1.278413 5.428656
0.399965 1.167156 6.055747
0.407754 0.776693 6.922259
0.441778 0.303842 -2.572246
0.358641 0.987790 -1.453363
0.343566 1.085016 -0.573186
0.353043 0.978661 0.017015
0.341855 1.036968 1.020382
0.333270 1.083817 1.737115
0.364100 0.779560 2.602125
0.369411 0.689154 3.711568
0.324636 1.054850 4.381546
0.290824 1.320631 5.149532
0.297193 1.222352 6.223905
0.334418 0.862126 7.087731
0.409732 0.368211 -2.635029
0.294860 0.922019 -1.595308
0.243105 1.158287 -0.551171
0.294378 0.881503 0.271139
0.289870 0.888559 0.950012
0.217986 1.231366 1.763565
0.269562 0.953144 2.582171
0.310367 0.726152 3.528283
0.236083 1.075443 4.584825
0.189223 1.289617 5.519401
0.211931 1.160390 6.172392
0.279601 0.797614 7.147783
0.172610 1.101642 -2.297066
0.161074 1.126447 -1.364836
0.157184 1.126603 -0.541551
0.085279 1.360020 0.385092
0.071693 1.394619 1.149288
0.048001 1.458917 2.236111
0.109634 1.234929 2.924188
0.302933 0.549899 3.999687
0.217855 0.830176 4.842127
0.080559 1.289141 5.788840
0.116027 1.152537 6.662331
-0.036476 1.411356 -1.227414
0.074192 1.108213 -0.278195
-0.028046 1.364844 0.699437
-0.186542 1.762387 2.239282
0.026839 1.192444 2.917233
0.275693 0.524275 3.983106
0.146097 0.853441 4.916510
-0.022338 1.288124 5.585841
0.023913 1.153248 6.630723
0.119195 0.849116 -2.732552
-0.075323 1.245622 -1.781515
-0.097011 1.282494 -0.969436
-0.104464 1.289984 -0.191922
-0.239125 1.561441 0.758797
-0.352338 1.787784 1.738681
-0.208777 1.480421 2.454028
0.008322 1.017364 3.367173
0.045814 0.930059 4.230869
-0.050925 1.123964 5.020336
-0.125547 1.269512 6.016692
-0.043609 1.088436 6.968245
-0.100089 1.103104 -2.541473
-0.072434 1.045928 -1.389931
-0.204636 1.265443 -0.811905
-0.366952 1.532687 0.154616
-0.517463 1.779274 1.188790
-0.450071 1.656737 2.096750
-0.178674 1.190127 2.715535
0.001236 0.874675 3.819391
-0.167138 1.152550 4.747741
-0.248499 1.283688 5.550879
-0.219620 1.226551 6.462999
0.040943 0.776667 7.271961
-0.476681 1.487587 -1.430441
-0.061344 0.892673 -0.610286
-0.549327 1.569296 1.298123
-0.152015 0.985541 3.966515
-0.131405 0.950216 4.753064
-0.354604 1.258866 5.732770
-0.276777 1.141711 6.616066
-0.656973 1.511761 -1.749700
-0.619345 1.459301 -0.647458
-0.825346 1.700335 -0.062208
-0.915107 1.799667 1.009105
-0.785944 1.641325 1.676597
-0.545740 1.349125 2.592891
-0.264525 1.008834 3.407403
-0.155255 0.873113 4.225452
-0.321316 1.064550 5.107860
-0.434633 1.192214 6.136010
-0.333657 1.066071 6.995561
-0.461193 1.136698 -2.247056
-0.466418 1.136058 -1.318812
-0.700697 1.368377 -0.638091
-0.961313 1.626259 0.206337
-1.026898 1.686267 1.185411
-0.924802 1.578482 1.914564
-0.733683 1.379871 2.784581
-0.312345 0.948346 3.710125
-0.251068 0.881128 4.543876
-0.473092 1.099771 5.427962
-0.535495 1.156033 6.490473
-0.258463 0.872076 7.134556
-0.895216 1.380483 -1.093588
-0.523141 1.057486 -0.319468
-1.074335 1.518769 1.447228
-0.439859 0.961444 3.874677
-0.374935 0.899820 4.901373
-0.668450 1.146309 5.697731
-0.697381 1.165902 6.572627
-1.026432 1.313885 -1.644534
-1.001192 1.290266 -0.646396
-1.199661 1.427830 0.227036
-1.437492 1.593021 1.211451
-1.318339 1.503642 1.916792
-0.962255 1.244604 2.564149
-0.684284 1.039338 3.622038
-0.390008 0.824664 4.265304
-0.540359 0.926483 5.360379
-0.829515 1.129177 6.221528
-0.694288 1.027716 7.026379
-1.134149 1.225814 -1.113546
-1.226547 1.276519 -0.197666
-1.681535 1.544754 0.767939
-1.614273 1.500431 1.517308
-1.237429 1.270193 2.260004
-0.981574 1.112475 3.031659
-0.484206 0.809423 3.854791
-0.507133 0.817257 4.989172
-0.820581 1.002131 5.638325
-0.881438 1.033796 6.572627
-1.255986 1.139369 -1.164629
-1.306087 1.159317 -0.218642
-1.757118 1.377274 0.625495
-1.728688 1.359526 1.373935
-1.226209 1.107590 2.256495
-1.058594 1.010895 5.081216
-0.953731 0.955317 5.865463
-1.027738 0.987650 6.689929
-1.421648 1.064170 -1.888508
-1.360215 1.034827 -0.810889
-1.071301 0.917717 -0.075655
-2.084870 1.307020 1.813417
-1.802319 1.191975 2.639302
-1.280304 0.982720 3.482253
-0.598243 0.711111 4.209659
-0.596815 0.706455 5.058979
-1.090586 0.896188 5.962767
-1.041714 0.872582 6.874399
-1.718318 1.006035 -1.835171
-1.463815 0.924576 -0.737637
-1.072492 0.804525 -0.160005
-2.188515 1.129704 1.864259
-1.884914 1.035801 2.475248
-1.423871 0.893154 3.413440
-0.734253 0.682319 4.275987
-0.831748 0.706640 5.325388
-1.282696 0.838869 5.964940
-1.148409 0.793969 6.953842
-1.592952 0.810834 -1.638609
-1.954373 0.873943 1.006306
-2.303421 0.942531 1.893604
-2.037295 0.882984 2.799807
-1.568569 0.782635 3.407064
-0.915226 0.642574 4.294461
-0.863799 0.627178 5.318130
-1.236971 0.701564 6.035991
-1.095619 0.667740 6.996618
-1.408453 0.651360 -2.173101
-1.621531 0.674885 -1.484308
-1.639830 0.672058 -0.353097
-1.240613 0.618715 0.405891
-2.450221 0.762866 1.971245
-2.104845 0.715754 2.840746
-1.506227 0.636884 3.731908
-1.111133 0.583044 4.714942
-1.245305 0.596811 5.379990
-1.482938 0.530421 -2.161158
-1.716475 0.535889 -1.326833
-1.694880 0.531735 -0.591408
-1.139389 0.504959 0.490937
-2.413517 0.547920 2.118421
-2.076904 0.523376 4.626954
-1.658344 0.502233 5.657935
-1.905850 0.383770 -1.341577
-1.753199 0.385684 -0.259561
-1.301632 0.402965 0.353657
-2.402623 0.346041 2.151574
-2.076511 0.357006 2.931782
-1.716120 0.369455 3.720262
-1.631228 0.369318 4.589447
-1.684932 0.361655 5.765266
-1.596267 0.362324 6.492073
-1.660359 0.265258 -1.925066
-1.867969 0.234821 -0.971714
-1.853273 0.233540 -0.279394
-1.507011 0.272557 0.728286
-2.298331 0.164611 2.578388
-1.924322 0.208612 3.255989
-1.716590 0.230322 4.235810
-1.768019 0.219934 5.101990
-1.728500 0.221298 5.900088
-1.550583 0.239503 6.825267
-2.086351 0.039176 -1.799065
-1.901366 0.073829 -0.826420
-1.887944 0.072499 0.082392
-1.724059 0.103108 0.963954
-1.962377 0.049761 1.608778
-2.182649 -0.001343 2.596678
-1.931882 0.047463 3.515991
-1.830317 0.065543 4.256197
-1.774970 0.073557 5.060558
-1.694650 0.085829 6.087817
-1.431222 0.137740 6.913771
-1.733027 -0.033841 -2.390686
-1.964504 -0.109367 -1.319968
-1.917920 -0.098851 -0.536827
-1.910779 -0.100065 0.185665
-1.846432 -0.084201 0.982005
-1.966223 -0.124497 1.794295
-1.888441 -0.104709 2.626391
-1.793606 -0.080495 3.622428
-1.896010 -0.115505 4.436725
-1.793888 -0.088054 5.215899
-1.728447 -0.073234 6.305720
-1.335875 0.042942 7.029817
-1.671539 -0.155205 -2.290155
-1.949335 -0.270045 -1.330275
-1.927407 -0.264978 -0.577617
-1.896744 -0.257793 0.454031
-1.976329 -0.292744 1.153842
-2.002081 -0.306786 1.946503
-1.975660 -0.300301 2.774383
-1.949059 -0.294112 3.678691
-1.911878 -0.283406 4.516453
-1.838781 -0.259980 5.671071
-1.675295 -0.300480 -2.278166
-1.945519 -0.438352 -1.380788
-1.898927 -0.419580 -0.536364
-1.891796 -0.420550 0.361006
-1.948576 -0.453059 1.256817
-1.976831 -0.471177 2.090549
-1.943114 -0.457801 2.743490
-1.933823 -0.457419 3.583684
-1.894383 -0.443186 4.629900
-1.862654 -0.432060 5.536468
-1.773438 -0.391482 6.227701
-1.355424 -0.190107 7.218432
-1.689130 -0.467584 -2.316439
-1.924608 -0.614350 -1.420936
-1.857989 -0.578467 -0.598243
-1.849742 -0.578734 0.402265
-1.926058 -0.629522 1.307544
-1.845007 -0.584804 2.105965
-1.845000 -0.589195 2.944614
-1.948655 -0.656245 3.805418
-1.888783 -0.624195 4.582840
-1.849495 -0.605848 5.605141
-1.980467 -0.854137 -1.168576
-1.819609 -0.742720 -0.309148
-1.815905 -0.743868 0.381491
-1.891451 -0.804402 1.461023
-1.732611 -0.693678 2.182156
-1.728856 -0.695159 2.939778
-1.901896 -0.824452 3.720813
-1.870420 -0.807614 4.785719
-1.775819 -0.742971 5.450430
-1.698306 -0.691921 6.341495
-1.715480 -0.851703 -1.777205
-1.744932 -0.881784 -0.959157
-1.712690 -0.858471 -0.227203
-1.768541 -0.912013 0.731576
-1.786767 -0.933478 1.720094
-1.752974 -0.908428 2.382952
-1.794153 -0.948594 3.206689
-1.840280 -0.993797 4.165076
-1.809769 -0.973335 5.128224
-1.719800 -0.899845 5.742800
-1.629338 -0.829177 6.906478
-1.449688 -0.795278 -2.270970
-1.736965 -1.090457 -1.563874
-1.676323 -1.035266 -0.597739
-1.668270 -1.032644 0.268102
-1.692357 -1.062800 1.174438
-1.606525 -0.981324 2.015565
-1.707337 -1.088355 2.803529
-1.804028 -1.191392 3.619164
-1.655848 -1.047304 4.534211
-1.629902 -1.025759 5.271638
-1.616628 -1.018263 6.201599
-1.337914 -0.741523 7.025938
-1.537954 -1.122234 -2.016007
-1.618810 -1.226839 -1.059827
-1.572334 -1.176743 -0.185456
-1.570041 -1.179196 0.556726
-1.594651 -1.214932 1.400969
-1.426189 -1.017447 2.313216
-1.435133 -1.035307 3.311696
-1.608050 -1.248395 3.848970
-1.621480 -1.271155 4.772399
-1.608567 -1.262621 5.779627
-1.526956 -1.169557 6.591533
-1.604596 -1.462262 -2.000202
-1.518969 -1.347982 -1.049538
-1.476123 -1.294388 -0.113301
-1.475358 -1.300534 0.814407
-1.499672 -1.341349 1.617161
-1.340135 -1.119153 2.199173
-1.341228 -1.127603 3.083690
-1.533408 -1.408439 4.072626
-1.528647 -1.406623 4.707723
-1.488054 -1.355526 5.553291
-1.425288 -1.273855 6.519301
-1.361985 -1.404365 -1.000398
-1.336947 -1.370000 -0.051737
-1.360776 -1.417049 0.659801
-1.381392 -1.460332 1.565691
-1.344396 -1.403275 2.260675
-1.345122 -1.412243 3.130240
-1.394155 -1.503801 4.003237
-1.386434 -1.497831 4.816575
-1.390378 -1.513768 5.851601
-1.316261 -1.396034 6.858023
-1.224288 -1.482358 -0.640025
-1.217477 -1.476168 0.134055
-1.227890 -1.504905 0.804524
-1.211890 -1.479198 1.548759
-1.222058 -1.512373 2.695338
-1.232551 -1.541936 3.429153
-1.249193 -1.584351 4.162709
-1.256302 -1.608074 5.015113
-1.250586 -1.606933 6.054569
-1.192596 -1.495184 6.965605
-1.118261 -1.631731 -0.917199
-1.099682 -1.595580 0.092815
-1.134409 -1.697535 0.926262
-1.111695 -1.645958 1.576920
-1.087257 -1.592366 2.427154
-1.095416 -1.624163 3.243644
-1.119222 -1.700658 4.337621
-1.126309 -1.727575 4.991366
-1.121528 -1.728372 6.050711
-1.046226 -1.537776 6.655777
-0.856214 -1.284951 -1.567046
-0.976704 -1.717253 -0.824460
-0.963598 -1.682784 -0.134114
-0.960768 -1.689367 0.876717
-0.951191 -1.671611 1.837726
-0.958117 -1.706677 2.508137
-0.966443 -1.751008 3.447594
-0.961407 -1.744962 4.155045
-0.965712 -1.774528 5.049176
-0.960646 -1.770883 5.910525
-0.918356 -1.637208 6.759102
-0.794567 -1.613196 -1.856095
-0.824533 -1.792706 -0.731714
-0.814231 -1.758579 0.061870
-0.811976 -1.764411 0.804524
-0.803220 -1.739451 1.651972
-0.808659 -1.789926 2.621524
-0.815331 -1.839933 3.301347
-0.821052 -1.894311 4.375987
-0.820323 -1.907609 5.104412
-0.811075 -1.880522 5.968465
-0.783438 -1.761201 6.909609
-0.677216 -1.853917 -0.752325
-0.673022 -1.843959 -0.072069
-0.666786 -1.824583 0.825151
-0.660127 -1.798227 1.641651
-0.661196 -1.842811 2.518446
-0.666686 -1.921125 3.258128
-0.667141 -1.964455 4.239654
-0.665864 -1.985573 5.049816
-0.658696 -1.956580 5.913277
-0.638446 -1.808865 6.709255
-0.531208 -2.123175 -1.362370
-0.521414 -1.901128 -0.649269
-0.512999 -1.909070 1.278149
-0.504980 -1.732258 1.895012
-0.502683 -1.778452 2.712357
-0.505295 -1.997119 3.576921
-0.499420 -1.949351 4.569642
-0.495874 -1.946977 5.343964
-0.490566 -1.902891 6.234948
-0.479093 -1.654908 7.150685
-0.359014 -1.956725 -0.288234
-0.355317 -1.955758 0.546165
-0.354119 -1.919249 1.247954
-0.367944 -1.582481 2.185051
-0.357223 -1.711615 3.031856
-0.332334 -2.096355 3.985377
-0.331943 -2.035906 4.792957
-0.336068 -1.910075 5.374788
-0.335087 -1.840687 6.420146
-0.357755 -1.349070 7.234848
-0.196272 -1.994954 -0.988563
-0.197711 -1.952625 -0.020528
-0.187622 -2.004270 0.638557
-0.183174 -2.004045 1.627455
-0.192074 -1.915054 2.365248
-0.180945 -1.962288 3.387936
-0.163490 -2.062833 4.188272
-0.164561 -2.034359 4.816575
-0.160113 -2.035666 5.759059
-0.172878 -1.907362 6.837385
0.009398 -2.175958 -1.629898
-0.032252 -1.971530 -0.669881
-0.019394 -2.010500 0.216491
-0.025763 -1.968139 0.907165
-0.044735 -1.868072 1.684939
-0.013711 -1.987087 2.599301
0.026391 -2.142934 3.682996
0.011324 -2.062343 4.355430
-0.000344 -1.992910 5.220413
-0.012371 -1.924304 5.966851
-0.038740 -1.787081 6.956654
0.088874 -1.858499 -2.485696
0.159663 -2.070003 -1.583283
0.146454 -2.012501 -0.545269
0.147876 -2.005171 0.247374
0.156644 -2.018269 1.235513
0.128247 -1.919010 1.837726
0.160649 -2.009556 2.669744
0.213487 -2.161617 3.731913
0.183033 -2.055348 4.365709
0.167088 -1.991274 5.261603
0.154496 -1.936490 6.249226
0.075628 -1.676222 6.891191
0.204300 -1.757080 -2.190464
0.314387 -2.018549 -1.378745
0.299035 -1.970554 -0.525139
0.300023 -1.963529 0.268033
0.317504 -1.996396 1.122314
0.288256 -1.912870 2.085335
0.337989 -2.025963 2.873761
0.388996 -2.140874 3.772905
0.326311 -1.975464 4.696113
0.325611 -1.963351 5.567124
0.319819 -1.939228 6.393548
0.190161 -1.609457 7.266907
0.408589 -1.848668 -2.244708
0.482334 -1.985562 -1.389031
0.463670 -1.941731 -0.679629
0.452306 -1.909315 0.329951
0.461979 -1.919798 1.195716
0.452531 -1.894715 1.846933
0.410261 -1.802699 2.722697
0.456005 -1.884293 3.588193
0.485110 -1.931602 4.603438
0.456892 -1.869448 5.261321
0.453081 -1.852814 6.180956
0.309400 -1.559163 7.229845
0.551638 -1.789994 -2.308302
0.661995 -1.961054 -1.439396
0.624953 -1.893876 -0.586936
0.612519 -1.864802 0.463955
0.636780 -1.897099 1.277412
0.644300 -1.902224 2.102119
0.443922 -1.572478 2.769049
0.477946 -1.618885 3.779174
0.640113 -1.874906 4.510737
0.609914 -1.818489 5.398840
0.579631 -1.761684 6.316803
0.360472 -1.400517 7.106321
0.773193 -1.828213 -1.133565
0.720346 -1.751211 -0.382380
0.722219 -1.746965 0.516193
0.688747 -1.696160 1.261881
0.724494 -1.738579 2.036225
0.646820 -1.626064 3.052590
0.632218 -1.600189 3.870197
0.793868 -1.810660 4.897886
0.745049 -1.738412 5.739772
0.721039 -1.699719 6.573082
0.790298 -1.609965 -1.762894
0.985397 -1.825903 -0.893786
0.863347 -1.681894 -0.124179
0.882573 -1.699267 0.536603
1.048287 -1.881300 1.478093
1.077585 -1.908765 2.339031
0.749379 -1.530483 3.087520
0.652483 -1.414519 3.939275
0.817912 -1.595450 4.995242
0.786850 -1.555135 5.730522
0.784938 -1.545797 6.784832
0.919533 -1.539810 -1.762894
1.118477 -1.727858 -1.141273
0.981066 -1.590181 -0.320733
0.913540 -1.518327 0.755681
1.128750 -1.721033 1.543274
1.267632 -1.849880 2.366828
1.016312 -1.602967 3.082527
0.908071 -1.491953 4.139852
0.932337 -1.510935 4.850247
0.916121 -1.489545 5.771991
0.891793 -1.460602 6.649975
0.580935 -1.082601 -2.637960
1.050354 -1.459622 -1.856095
1.142323 -1.529674 -1.043232
1.033661 -1.435567 -0.042228
0.648911 -1.119156 0.595499
1.450782 -1.759381 2.590216
1.233225 -1.579095 3.188108
1.023629 -1.403773 4.046532
1.010798 -1.386885 5.163544
1.040923 -1.405891 6.111229
0.929322 -1.310597 6.904237
1.100423 -1.322942 -1.756317
1.156653 -1.356581 -0.860766
1.147714 -1.345670 0.019948
0.845357 -1.134058 0.855695
1.557123 -1.611277 2.736680
1.308024 -1.435828 3.629446
1.079316 -1.275294 4.347700
1.101261 -1.284834 5.357006
1.102504 -1.281069 6.205900
0.847756 -1.102711 6.922442
1.183883 -1.209178 -1.664119
1.266233 -1.251103 -0.757172
1.323746 -1.279161 0.113312
1.354644 -1.292276 0.960799
1.530392 -1.387665 1.748870
1.690347 -1.472982 2.757139
1.379962 -1.294430 3.322029
1.147720 -1.158512 4.194459
1.183584 -1.173831 5.159669
1.169469 -1.161896 5.925402
0.965166 -1.041007 6.949487
1.435528 -1.180190 -1.604041
1.275705 -1.102611 -0.853075
1.629164 -1.260026 0.350073
1.981005 -1.418976 1.091170
1.848067 -1.353725 1.862016
1.596371 -1.233302 2.690328
1.412678 -1.143910 3.599465
1.209216 -1.046135 4.355888
1.176029 -1.026229 5.280138
1.217175 -1.040387 6.263209
1.011069 -0.941435 7.010556
1.422614 -1.022567 -2.306071
1.424428 -1.018710 -1.359899
1.307584 -0.971563 -0.427955
1.493916 -1.035236 0.496193
1.812051 -1.148165 1.190938
1.910714 -1.180562 1.956342
1.631965 -1.074485 2.839693
1.413237 -0.990640 3.660354
1.263670 -0.931793 4.538488
1.186884 -0.900144 5.290092
1.234077 -0.912535 6.306327
0.811941 -0.753890 7.225918
1.571113 -0.913308 -1.191319
1.310888 -0.838318 -0.345734
0.874561 -0.716112 0.312705
1.804692 -0.960725 2.327134
1.416111 -0.851306 3.039379
0.889370 -0.703181 3.962433
0.882186 -0.697295 4.806368
1.134449 -0.762309 5.638238
1.122218 -0.755519 6.379971
1.239507 -0.706621 -2.065667
1.512903 -0.751817 -0.967320
1.473563 -0.740756 -0.126079
1.132584 -0.674369 0.700134
1.235159 -0.688483 1.735381
1.375396 -0.710544 2.544869
0.973155 -0.633952 3.142095
0.585063 -0.558481 4.062969
0.693930 -0.573127 5.235094
1.135446 -0.651889 5.743262
1.134018 -0.646619 6.841037
1.026672 -0.575245 -1.743159
1.445027 -0.613865 -0.981451
1.653303 -0.630941 -0.125129
2.008371 -0.661946 0.914480
1.836000 -0.640786 1.764435
1.128124 -0.566213 2.521494
0.785230 -0.528189 3.309745
0.541445 -0.499712 4.190273
0.721926 -0.512841 5.302042
1.241224 -0.561352 6.120686
1.110439 -0.545534 6.712971
1.714514 -0.495116 -1.576459
1.389838 -0.487182 -0.911317
1.700056 -0.487732 0.019948
2.086431 -0.488782 1.098625
1.807521 -0.481667 1.736607
1.316652 -0.469334 2.817492
1.266524 -0.465668 3.464158
1.069244 -0.457954 4.513108
0.944734 -0.452334 5.342566
1.279393 -0.453362 6.250280
1.033920 -0.446674 6.906872
1.596386 -0.365070 -2.397386
1.519048 -0.366031 -1.440863
1.366082 -0.372183 -0.494227
1.261174 -0.375271 0.406364
1.598605 -0.348717 1.205271
0.852807 -0.383595 4.734791
1.024014 -0.367739 5.670011
1.194444 -0.353302 6.301370
0.755271 -0.379380 7.147783
1.503467 -0.247750 -2.101599
1.514035 -0.242531 -1.306330
1.364980 -0.260787 -0.327124
1.089673 -0.300384 0.186143
2.026736 -0.149036 2.090549
1.543437 -0.218155 3.078166
0.779204 -0.331552 3.736681
0.675588 -0.343083 4.672871
1.053989 -0.280835 5.691123
1.574247 -0.107407 -1.221074
1.405324 -0.143051 -0.274483
0.843470 -0.272920 0.419982
1.656334 -0.071452 2.360436
1.183149 -0.180664 2.980391
0.680610 -0.295006 3.995767
0.657687 -0.297090 4.721293
1.026626 -0.205156 5.708760
1.091022 -0.186363 6.476646
1.093088 -0.139146 -2.064861
1.386246 -0.039423 -1.186432
1.387225 -0.034209 -0.149113
1.628205 0.049080 0.851638
1.767579 0.098275 1.647504
1.443001 -0.004120 2.373383
0.870971 -0.187031 3.133300
0.540932 -0.289105 4.304616
0.808582 -0.197558 5.212880
1.152992 -0.081538 6.003868
1.090463 -0.098609 6.706436
1.264920 0.023200 -1.654170
1.288509 0.036001 -1.063945
1.498803 0.130383 0.144160
1.778897 0.251385 0.786356
1.750881 0.243433 1.574969
1.406007 0.103418 2.627446
0.956536 -0.081490 3.500521
0.746445 -0.166093 4.283649
0.911142 -0.092424 5.178823
1.100105 -0.009207 5.937483
1.017104 -0.039901 6.807736
1.218981 0.106268 -2.194456
1.230142 0.115593 -1.508129
1.314246 0.164105 -0.632317
0.973099 -0.010528 0.186245
1.269972 0.149890 1.141993
0.709683 -0.125654 4.710621
1.004610 0.032245 5.370353
1.070752 0.071334 6.244423
0.799422 -0.064843 7.431672
1.334025 0.296966 -1.281617
1.204741 0.220106 -0.213653
1.098410 0.156872 0.661060
1.324453 0.305754 1.517392
1.568327 0.466180 2.403474
1.011625 0.114166 3.047845
0.533495 -0.185707 4.063078
0.810083 -0.004122 5.000099
1.153816 0.219584 5.796385
1.047875 0.156359 6.626103
1.304003 0.402744 -1.229226
1.183492 0.316789 -0.255729
0.881748 0.091586 0.409360
0.792702 0.048978 4.840419
1.055460 0.252899 5.648897
0.980214 0.200819 6.539109
1.285582 0.529032 -1.280678
1.171161 0.432117 -0.255458
1.243304 0.502579 0.647362
1.462588 0.705943 1.601343
1.472018 0.719536 2.445070
1.015031 0.311224 3.023006
0.608483 -0.049213 4.002117
0.824855 0.152224 5.071467
1.133844 0.435780 5.919036
1.005344 0.324128 6.604973
1.185268 0.578883 -1.262513
1.063335 0.455334 -0.309242
1.128618 0.530897 0.617084
1.326327 0.746530 1.406913
1.381542 0.810550 2.207192
0.957127 0.364899 3.143047
0.601049 -0.007723 4.122460
0.809124 0.218576 4.855741
1.084431 0.517983 5.824347
0.987905 0.421109 6.721164
1.150940 0.699467 -1.376917
0.991817 0.505256 -0.447038
0.769010 0.229639 0.346097
0.966541 0.487916 1.570196
1.181271 0.762991 2.113239
0.840513 0.339368 3.035886
0.600830 0.044716 4.143894
0.768640 0.261399 4.805520
1.007028 0.568594 5.659449
0.940027 0.489876 6.474134
1.043654 0.712708 -2.086329
1.004947 0.661453 -1.267144
0.933591 0.561820 -0.394636
0.803832 0.375610 0.568682
0.968010 0.630044 1.683407
1.037888 0.739564 2.309934
0.767765 0.344235 3.362365
0.779735 0.368858 4.196167
0.937178 0.612096 5.171152
0.973587 0.672081 5.859563
0.867167 0.521526 6.917768
0.722794 0.327610 -2.695491
0.983043 0.806549 -1.790761
0.929224 0.716038 -1.057393
0.856540 0.592914 -0.162741
0.782576 0.469205 0.918679
0.848228 0.593183 1.487416
0.840421 0.587422 2.388701
0.696456 0.335315 3.272599
0.793089 0.518305 4.164675
0.946061 0.804658 5.218178
0.947535 0.814564 5.999431
0.861923 0.668851 6.978800
0.777333 0.586079 -1.722466
0.843544 0.742444 -0.932386
0.813150 0.684710 -0.014592
0.812570 0.694658 1.010370
0.787849 0.647190 1.710460
0.681245 0.419801 2.660050
0.624605 0.303797 3.603115
0.745056 0.581003 4.379308
0.884979 0.904409 5.407321
0.880866 0.904536 6.255422
0.720781 0.555511 6.992265
0.555995 0.158902 -2.296956
0.658324 0.465371 -1.230570
0.772292 0.801356 -0.436485
0.734315 0.704736 0.429576
0.752351 0.767952 1.295594
0.744145 0.756744 2.195667
0.648662 0.494480 2.947472
0.585227 0.325031 3.799985
0.705039 0.679522 4.728953
0.795691 0.952251 5.764538
0.706907 0.707201 6.376371
0.678739 0.739006 -1.890659
0.756437 1.049280 -1.200445
0.697150 0.836785 -0.362957
0.667805 0.738333 0.429747
0.674463 0.780235 1.349936
0.643110 0.677614 2.341404
0.570137 0.411173 3.097010
0.630022 0.656678 3.986878
0.722930 1.030314 4.959621
0.689976 0.918492 5.778918
0.630206 0.704306 6.625474
0.666083 1.090599 -1.916823
0.645320 0.999309 -0.824968
0.631641 0.939066 -0.109167
0.615486 0.870972 0.851892
0.616010 0.897632 1.749706
0.562962 0.607273 2.369671
0.537478 0.489772 3.502707
0.594739 0.843039 4.347379
0.648175 1.176200 5.268075
0.633132 1.109216 6.027193
0.572942 0.785754 6.958119
0.551599 0.921198 -1.462886
0.553971 0.976713 -0.900737
0.541512 0.887844 0.122756
0.542923 0.945835 0.946475
0.539203 0.951139 1.876399
0.515531 0.734671 2.887277
0.500139 0.604059 3.743526
0.519645 0.869477 4.617335
0.544041 1.180810 5.306142
0.535339 1.136799 6.374928
0.496035 0.728587 7.096495
0.473952 0.336563 -2.372112
0.472660 0.820770 -1.617646
0.469518 0.990869 -0.753626
0.465406 0.905108 0.080406
0.460794 0.968077 1.168834
0.456709 0.977873 2.088754
0.452919 0.764413 2.728010
0.447824 0.589147 3.694756
0.445077 0.881438 4.588426
0.442800 1.153497 5.358132
0.438324 1.058708 6.264408
0.432299 0.633219 7.197388
0.435297 0.505423 -2.471087
0.417631 0.674287 -1.444559
0.390713 0.972046 -0.575092
0.391410 0.914987 0.249757
0.387097 0.924563 1.043764
0.382796 0.915378 2.157246
0.389608 0.784583 2.889022
0.409912 0.464579 3.871179
0.384220 0.749860 4.682678
0.344042 1.224617 5.459839
0.351408 1.077895 6.342116
0.389919 0.519723 7.367475
0.331919 0.892910 -2.180953
0.294626 1.096273 -1.291015
0.294635 1.074508 -0.510351
0.306799 0.971024 0.535381
0.292097 1.037168 1.390656
0.289477 1.027287 2.322453
0.326233 0.780689 3.105205
0.383336 0.407455 3.966470
0.333901 0.683295 4.920987
0.252853 1.161631 5.547160
0.258833 1.095684 6.603218
0.149924 1.342812 -1.975679
0.192439 1.152579 -0.899362
0.301520 0.702648 -0.197465
0.326463 0.583936 0.817546
0.223290 0.985953 1.424777
0.232005 0.932326 2.435385
0.292683 0.673303 3.297904
0.230323 0.905217 4.262683
0.154278 1.197574 4.923713
0.140822 1.232718 5.936371
0.201384 0.976539 6.670196
0.136192 1.054794 -1.749323
0.111277 1.114372 -0.784686
0.199463 0.841713 0.250089
0.144435 0.991867 1.043764
0.000206 1.401050 1.998114
0.134519 1.000450 2.517128
0.239026 0.681709 3.427999
0.119166 1.017761 4.508739
0.018426 1.299227 5.487919
0.027482 1.264140 6.104498
0.148983 0.896093 6.981655
-0.010342 1.201188 -2.206509
-0.024773 1.222602 -1.171541
-0.010738 1.183674 -0.561702
-0.131959 1.451015 0.321808
-0.132657 1.441602 1.304817
-0.127689 1.421787 2.059677
-0.042926 1.217875 2.957533
0.246971 0.545335 3.809220
0.094783 0.881146 4.902864
-0.087723 1.292343 5.456433
-0.028392 1.145788 6.426442
-0.135762 1.239249 -2.192931
-0.133165 1.227923 -1.497613
-0.110589 1.176320 -0.435322
-0.278560 1.478572 0.342477
-0.312769 1.533287 1.228159
-0.021543 0.973488 3.680625
-0.039678 0.997375 4.694283
-0.227507 1.333938 5.715129
-0.354304 1.387653 -1.132381
-0.154918 1.078858 -0.415755
-0.011717 0.816559 5.063949
-0.278562 1.217258 5.645366
-0.230892 1.135290 6.814017
-0.367295 1.247186 -2.664022
-0.538788 1.462600 -1.869374
-0.442947 1.332573 -0.997161
-0.574007 1.496032 -0.230560
-0.792962 1.771593 0.711700
-0.755506 1.711824 2.275161
-0.327845 1.152401 3.329664
0.103818 0.589967 4.090306
-0.089949 0.832827 5.060834
-0.406199 1.233830 6.012935
-0.305128 1.097392 6.839341
-0.743518 1.500814 -1.800398
-0.571703 1.309099 -1.017325
-0.698493 1.440434 -0.063998
-0.955856 1.715523 0.587649
-0.920160 1.671294 1.414567
-0.794887 1.529813 2.242009
-0.432829 1.130533 3.180340
0.032718 0.618752 4.141375
-0.167783 0.831060 4.951430
-0.509645 1.196237 5.851813
-0.421447 1.093556 6.898282
-0.374893 0.988899 -2.800457
-0.652750 1.239544 -2.025245
-0.680659 1.259690 -1.121922
-0.668958 1.243453 -0.222161
-0.930064 1.478161 0.642016
-1.081947 1.611478 1.671617
-0.948992 1.484299 2.489426
-0.550092 1.112844 3.283528
-0.057919 0.655111 4.168426
-0.269651 0.843984 5.107700
-0.622719 1.163112 5.988202
-0.552642 1.092956 6.931758
-0.963153 1.347414 -2.667738
-1.100548 1.449149 -1.803024
-0.917278 1.301987 -0.939050
-0.453787 0.937932 -0.183889
-1.146280 1.466069 1.467901
-0.294684 0.785752 4.866374
-0.687053 1.085371 5.736352
-0.709551 1.097358 6.700408
-1.436691 1.495224 -2.005949
-1.025642 1.222995 -1.053588
-0.635291 0.964429 -0.140610
-1.390298 1.446569 1.452447
-1.115855 1.263029 2.421313
-0.776465 1.038952 3.078087
-0.184017 0.648282 4.133818
-0.431589 0.803753 5.146995
-0.807988 1.044728 5.827182
-0.825076 1.050206 6.878701
-0.962622 1.048460 -1.520391
-1.183859 1.163311 -0.760201
-1.330205 1.237028 0.185723
-1.566950 1.358576 1.264924
-1.506439 1.322261 2.019757
-1.133016 1.117615 2.855759
-0.765794 0.916843 3.584404
-0.569712 0.806508 4.588426
-0.680112 0.861730 5.378162
-0.954376 1.004327 6.277779
-0.728083 0.879206 7.001752
-1.088803 0.986545 -2.377765
-1.140699 1.005065 -1.568176
-1.341656 1.086982 -0.519779
-1.796178 1.280255 0.216211
-1.944965 1.340613 1.052249
-1.594355 1.183459 2.134305
-1.219130 1.017661 2.803697
-0.867253 0.859887 3.900068
-0.624070 0.751707 4.482535
-0.823633 0.832718 5.592744
-1.510387 0.999962 -1.015366
-1.661698 1.046963 -0.195764
-2.115943 1.195256 0.745166
-2.058248 1.173147 1.317328
-1.697696 1.047209 2.309401
-1.183715 0.863163 4.678102
-0.846793 0.745405 5.620794
-1.151607 0.842793 6.700387
-1.106531 0.758344 -1.786961
-1.539126 0.862149 -1.048012
-1.643336 0.883326 -0.041687
-2.135944 1.001119 0.889101
-2.222903 1.020233 1.416749
-1.919752 0.941246 2.249602
-1.511730 0.828210 4.825250
-1.120586 0.726147 5.932044
-1.202934 0.742696 6.767363
-1.179740 0.668032 -2.059537
-1.631640 0.736806 -1.109358
-1.908146 0.776766 -0.061164
-2.380643 0.849764 0.692857
-2.403239 0.849498 1.555423
-2.185194 0.811357 2.187508
-1.274169 0.647828 5.746236
-1.369314 0.659005 6.673152
-1.814204 0.605827 -1.725594
-1.652355 0.589108 -0.685210
-1.518626 0.575009 0.237857
-2.528983 0.642962 1.837170
-2.214341 0.616639 2.486473
-1.749700 0.569969 5.178283
-1.411797 0.541186 5.989558
-1.258700 0.525677 6.905827
-1.510671 0.462841 -2.244500
-1.739869 0.457437 -1.347542
-1.767073 0.453830 -0.580067
-1.385137 0.452035 0.332260
-2.501211 0.438188 1.921726
-2.181508 0.435897 2.861215
-1.534298 0.436714 3.546887
-1.325988 0.433805 4.474671
-1.600532 0.427744 5.457313
-1.595580 0.423429 6.425625
-1.105134 0.423295 7.113232
-1.500360 0.336559 -2.331086
-1.796638 0.304831 -1.325852
-1.795105 0.300446 -0.321372
-1.319738 0.340619 0.447963
-2.410047 0.233401 2.029429
-2.101783 0.256987 3.075498
-1.753478 0.285030 3.948232
-1.649240 0.291617 4.610223
-1.653022 0.287562 5.433101
-1.571082 0.290042 6.552310
-1.554522 0.209872 -2.779362
-1.703358 0.180582 -2.058640
-1.884615 0.144993 -1.198972
-1.789255 0.157755 -0.342402
-1.444735 0.212979 0.750294
-2.347694 0.047257 2.493578
-2.001661 0.104512 3.198403
-1.745340 0.145923 3.940344
-1.744414 0.141973 4.842942
-1.670173 0.150665 5.782937
-1.560258 0.165124 6.825267
-2.072566 -0.057128 -1.521620
-1.880241 -0.009809 -0.889065
-1.842096 -0.003387 -0.124559
-1.752649 0.014602 1.035997
-1.947593 -0.040095 1.846933
-2.147450 -0.095134 2.454738
-1.900124 -0.035011 3.425287
-1.748652 0.001157 4.160587
-1.750666 -0.004390 5.243228
-1.692170 0.007123 6.056672
-1.470612 0.060769 6.972112
-2.083175 -0.238449 -1.499962
-1.898764 -0.175869 -0.970965
-1.857497 -0.166608 0.144352
-1.862253 -0.171631 0.847130
-2.051143 -0.242551 1.738592
-2.107282 -0.265685 2.435734
-1.937512 -0.210444 3.420995
-1.874248 -0.192256 4.292151
-1.819883 -0.176839 5.085199
-1.711635 -0.143280 6.063224
-1.466354 -0.060204 6.800668
-1.958615 -0.368844 -1.349888
-1.912204 -0.352049 -0.515737
-1.882905 -0.341697 0.061802
-1.939854 -0.373073 1.226629
-2.003942 -0.404863 1.821916
-1.843126 -0.336919 2.731346
-1.754102 -0.300297 3.436015
-1.882392 -0.362674 4.372009
-1.839860 -0.348709 5.426356
-1.714731 -0.295425 6.049024
-1.469992 -0.190754 7.174967
-1.925761 -0.534760 -1.483778
-1.897586 -0.524066 -0.515288
-1.868823 -0.512041 0.257856
-1.897214 -0.531690 1.010225
-1.962332 -0.572013 1.811632
-1.912010 -0.548234 2.630202
-1.875731 -0.532173 3.431306
-1.875779 -0.537492 4.462049
-1.805014 -0.502174 5.247335
-1.716455 -0.457451 6.128083
-1.466904 -0.323932 7.149594
-1.882601 -0.694547 -1.658833
-1.853734 -0.679966 -0.783240
-1.820727 -0.663009 0.165020
-1.845878 -0.683892 0.917471
-1.885072 -0.714438 1.720094
-1.917177 -0.740186 2.512229
-1.948661 -0.766024 3.397850
-1.891406 -0.732414 4.265609
-1.812685 -0.685695 5.364475
-1.701159 -0.614625 6.016854
-1.478313 -0.470946 7.011100
-1.824365 -0.860999 -1.348887
-1.784331 -0.833506 -0.556514
-1.777566 -0.831409 0.020704
-1.803117 -0.858137 1.112650
-1.822270 -0.877906 1.884761
-1.894220 -0.940090 2.683649
-1.879425 -0.932647 3.449199
-1.783951 -0.861005 4.281315
-1.772243 -0.858135 5.412598
-1.678980 -0.787764 6.157799
-1.449050 -0.608472 6.985860
-1.750068 -1.009357 -1.420936
-1.727536 -0.993660 -0.514839
-1.720824 -0.992024 0.247430
-1.742323 -1.016467 0.916474
-1.762073 -1.041033 1.873338
-1.849473 -1.128909 2.731562
-1.874786 -1.157771 3.532676
-1.803307 -1.095216 4.339638
-1.747003 -1.048387 5.371423
-1.672621 -0.982420 6.070000
-1.552122 -0.874708 7.064650
-1.668694 -1.155900 -1.637049
-1.592999 -1.078030 -0.681303
-1.617941 -1.110518 0.020704
-1.671390 -1.176943 1.049686
-1.671143 -1.182268 1.883622
-1.736739 -1.261428 2.794805
-1.762958 -1.294272 3.338075
-1.707522 -1.239268 4.339638
-1.658303 -1.190332 5.213777
-1.626878 -1.161521 6.134369
-1.458310 -0.979092 6.919605
-1.567556 -1.300067 -1.770804
-1.508894 -1.230554 -0.649807
-1.515869 -1.245659 0.134095
-1.562531 -1.313277 0.895404
-1.560442 -1.316952 1.760206
-1.611758 -1.390721 2.517827
-1.660924 -1.464469 3.655536
-1.587576 -1.371363 4.226696
-1.530917 -1.303153 5.165634
-1.513678 -1.288136 6.220683
-1.392142 -1.132600 6.998071
-1.406076 -1.344473 -1.889383
-1.394866 -1.334627 -0.949582
-1.396538 -1.344642 -0.072225
-1.422378 -1.392797 0.793377
-1.416871 -1.390405 1.546016
-1.424222 -1.409830 2.474156
-1.442899 -1.447004 3.381559
-1.471001 -1.498740 4.247234
-1.445303 -1.463982 4.950248
-1.405671 -1.409368 5.914289
-1.323028 -1.285299 6.711700
-1.426131 -1.714750 -1.740094
-1.339064 -1.555654 -0.966471
-1.293127 -1.476621 -0.051453
-1.292217 -1.483766 0.865940
-1.298609 -1.502883 1.576920
-1.305985 -1.526486 2.556516
-1.326413 -1.572248 3.245804
-1.335841 -1.598397 4.082900
-1.311848 -1.561418 5.004828
-1.278162 -1.506410 5.979877
-1.218025 -1.399035 6.773727
-1.203885 -1.668176 -1.697552
-1.159780 -1.571688 -0.897292
-1.159648 -1.582797 0.082553
-1.159123 -1.591515 0.938084
-1.108628 -1.480653 1.820362
-1.185719 -1.678023 2.884043
-1.222647 -1.774241 3.537144
-1.169756 -1.658627 4.505021
-1.148727 -1.615554 5.138016
-1.146916 -1.621868 6.051985
-1.082507 -1.479277 7.076397
-1.076612 -1.795155 -1.417790
-1.041788 -1.700346 -0.576637
-1.028871 -1.670664 0.113478
-1.036385 -1.709580 1.205331
-0.971276 -1.519069 1.863956
-1.004863 -1.633901 2.666050
-1.082240 -1.887702 3.772905
-1.036288 -1.754992 4.358193
-1.027176 -1.742777 5.446880
-1.002455 -1.677196 6.162797
-0.927728 -1.462658 7.202545
-0.919439 -1.877225 -1.345884
-0.868568 -1.680883 -0.268774
-0.882152 -1.753418 0.463955
-0.870893 -1.722968 1.362159
-0.783400 -1.363196 2.093943
-0.815054 -1.516277 2.992238
-0.903354 -1.911872 3.903270
-0.886882 -1.858349 4.762120
-0.870401 -1.805756 5.670092
-0.740748 -1.838993 -1.061447
-0.722838 -1.746623 -0.093194
-0.719574 -1.751197 0.774389
-0.718996 -1.763566 1.301008
-0.702252 -1.676228 2.174468
-0.707064 -1.738574 3.125776
-0.725532 -1.892013 4.005770
-0.728107 -1.935269 4.834070
-0.718410 -1.894172 5.645907
-0.698728 -1.788354 6.570898
-0.590594 -1.890842 -1.009932
-0.586247 -1.875332 -0.267918
-0.583029 -1.904851 0.875775
-0.576396 -1.848017 1.527215
-0.571936 -1.839532 2.396202
-0.571944 -1.891580 3.148892
-0.571696 -1.952567 4.088074
-0.568296 -1.969320 5.087098
-0.561095 -1.899296 5.673701
-0.550271 -1.799967 6.641227
-0.431076 -1.902534 -0.804490
-0.428138 -1.865436 -0.000128
-0.423637 -1.896725 0.876717
-0.420764 -1.868393 1.631330
-0.415682 -1.916380 2.569987
-0.410546 -2.019805 3.297205
-0.406271 -2.048416 4.134262
-0.403608 -1.992527 4.953397
-0.399844 -1.954631 5.945183
-0.397339 -1.858035 6.893351
-0.269627 -1.980360 -1.483778
-0.273711 -1.903212 -0.650345
-0.273801 -1.869359 0.092721
-0.264622 -1.908825 1.238352
-0.283264 -1.702587 1.753203
-0.258324 -1.904698 2.727965
-0.228691 -2.154421 3.670417
-0.236701 -2.032195 4.649022
-0.238501 -1.980302 5.419456
-0.240797 -1.927941 6.090625
-0.258285 -1.712742 7.063219
-0.066103 -2.161436 -1.846428
-0.097386 -1.971587 -0.762630
-0.100291 -1.935154 0.123760
-0.091356 -1.964947 0.835020
-0.096711 -1.915856 1.713894
-0.086201 -1.952900 2.466900
-0.054771 -2.094811 3.418390
-0.048057 -2.108188 4.329372
-0.063195 -2.012875 4.997719
-0.060390 -2.003421 6.006959
-0.075583 -1.902104 6.913998
0.105946 -2.144708 -1.538784
0.061942 -1.970362 -0.649269
0.062517 -1.961499 0.000088
0.069637 -1.969732 1.041142
0.067912 -1.949036 1.898489
0.074602 -1.961423 2.600910
0.115136 -2.094084 3.438930
0.122693 -2.106268 4.339638
0.100750 -2.015192 5.028594
0.088999 -1.958343 5.876827
0.055368 -1.817728 6.993642
1.373852 -0.484681 -1.799572
1.552857 -0.481441 -0.248532
1.825213 -0.476442 1.261817
1.860590 -0.475839 2.022741
1.295785 -0.486544 2.964696
1.495260 -0.483054 6.134616
1.385453 -0.485188 6.963048
0.846942 -0.495378 7.665331
1.404619 -0.345004 -1.705888
1.641653 -0.316566 -0.474990
2.140519 -0.256742 2.457307
1.779044 -0.300311 2.979557
1.339022 -0.353626 6.967248
0.982110 -0.396655 7.605297
1.578710 -0.175085 -0.361257
1.849470 -0.115654 2.034760
1.212184 -0.256080 2.796438
1.407913 -0.213319 6.894414
0.905238 -0.324101 7.707477
1.585197 -0.020469 -1.809353
1.541986 -0.034637 -0.747284
1.009746 -0.208060 -0.181666
1.516929 -0.043074 2.404514
0.989368 -0.214994 3.219453
0.188958 -0.475763 3.686349
1.268789 -0.124285 6.773573
1.125003 -0.171176 7.393717
0.283035 -0.445469 7.708049
1.367743 0.046102 -1.721612
1.503979 0.106180 -0.659339
1.757712 0.218020 1.896167
1.333405 0.030519 2.866788
1.178744 -0.037878 3.795900
1.083657 -0.079967 4.793427
1.106468 -0.069983 5.805167
1.334260 0.030540 6.811090
0.941992 -0.142800 7.674370
1.604717 0.325189 -2.350828
1.499385 0.265193 -1.165943
0.968415 -0.036739 -0.418110
1.470601 0.248490 2.400604
1.128137 0.053732 3.065267
0.753280 -0.159440 3.719114
1.249844 0.122605 6.411787
1.139199 0.059634 7.133222
0.504752 -0.301123 7.834944
1.140096 0.182700 -1.909260
1.389971 0.359743 -0.519412
1.594456 0.504599 0.890688
1.668727 0.557125 2.259172
1.282259 0.283009 2.988735
0.826656 -0.040098 3.420834
1.269562 0.273692 6.087094
1.207170 0.229366 6.911443
0.795254 -0.062812 7.816695
1.118598 0.295933 -1.872671
1.179355 0.348586 -0.475301
1.561919 0.680776 2.341655
1.302043 0.454854 2.839194
0.800321 0.018726 3.428298
1.252624 0.411545 6.099894
1.136459 0.310477 7.059878
0.762633 -0.014493 7.640306
1.243902 0.577414 -2.479205
1.082405 0.405612 -1.429094
0.996328 0.313982 -0.368182
1.539535 0.891072 2.534779
1.271322 0.605881 3.149258
0.622600 -0.083761 3.446446
