-1.137607 -0.369863 3.412913
-1.431217 -0.402788 3.897341
-1.675969 -0.430092 4.470331
-1.650762 -0.426683 5.125015
-1.423217 -0.400505 5.540736
-1.638341 -0.424379 6.193514
-1.991134 -0.463732 7.023849
-2.229024 -0.490394 7.433401
-2.201766 -0.486882 7.932445
-2.224424 -0.489115 8.338574
-2.211275 -0.487018 9.060080
-2.202502 -0.485610 9.553542
-2.330650 -0.499787 9.994947
-2.383888 -0.505312 10.615124
-1.935137 -0.454127 10.906271
-1.473026 -0.401608 10.980199
-0.674015 -0.310587 11.360933
-1.199856 -0.492190 3.632869
-1.385716 -0.530057 4.302246
-1.597273 -0.573443 4.731075
-1.575850 -0.568457 5.385558
-1.624380 -0.578216 5.711698
-1.790055 -0.611846 6.454626
-1.967127 -0.647840 7.190171
-2.024978 -0.659339 7.737257
-2.001350 -0.654028 8.237203
-2.069376 -0.667828 8.552242
-2.143475 -0.682694 9.091500
-2.264957 -0.707439 9.536137
-2.092011 -0.671136 10.169633
-2.134312 -0.679545 10.568824
-1.781431 -0.606288 10.901812
-1.303005 -0.507016 11.295306
-0.409485 -0.322134 11.418892
-1.164763 -0.637979 3.186968
-1.256568 -0.667843 3.809802
-1.488874 -0.744288 4.385110
-1.595096 -0.778935 4.998498
-1.375844 -0.705946 5.414986
-1.485262 -0.741454 6.255058
-1.913104 -0.882604 6.902645
-1.965483 -0.899473 7.451646
-2.067340 -0.932813 7.906027
-2.088151 -0.939350 8.313598
-1.947926 -0.892226 9.085475
-1.939377 -0.888960 9.581269
-2.014034 -0.913417 9.892161
-2.052347 -0.925757 10.292997
-1.757692 -0.827750 10.757095
-1.416665 -0.714493 11.094896
-0.653969 -0.461525 11.477239
-1.115843 -0.726877 3.572618
-1.178902 -0.752875 4.050967
-1.309995 -0.807134 4.811339
-1.418129 -0.851903 5.423944
-1.301094 -0.802641 5.656471
-1.537576 -0.901041 6.449787
-1.998555 -1.093747 7.004611
-2.007322 -1.096845 7.644210
-1.858984 -1.034179 8.192422
-1.881321 -1.043173 8.600909
-1.990585 -1.088563 9.050443
-1.988394 -1.086995 9.770715
-2.024134 -1.101612 10.172737
-1.857462 -1.031385 10.584822
-1.488710 -0.876446 11.013517
-1.067573 -0.849242 3.125668
-1.103289 -0.867870 3.843317
-1.072162 -0.850417 4.506918
-1.263045 -0.953192 4.936885
-1.290267 -0.967374 5.500771
-1.401199 -1.026763 6.108878
-1.717246 -1.197030 6.712974
-1.759487 -1.219126 7.493168
-1.855359 -1.270734 7.721309
-1.715583 -1.194445 8.497352
-1.736507 -1.205584 8.678976
-1.803754 -1.241423 9.220149
-1.723886 -1.197608 9.899817
-1.794559 -1.235516 10.211118
-1.635817 -1.149318 10.624804
-1.284293 -0.958895 11.055722
-0.725144 -0.656430 11.287329
-0.984632 -0.940104 3.130410
-1.018066 -0.961555 3.849148
-1.076710 -0.999960 4.327344
-1.284670 -1.137271 4.901072
-1.151860 -1.048515 5.602721
-1.036890 -0.971820 6.070819
-1.376466 -1.196455 6.584753
-1.637766 -1.368785 7.505342
-1.652088 -1.377869 7.917592
-1.632541 -1.364408 8.419958
-1.653992 -1.378223 8.829078
-1.678605 -1.394135 9.236600
-1.671679 -1.389047 9.734030
-1.669512 -1.387115 10.229721
-1.453368 -1.243209 10.828707
-1.185706 -1.065495 11.076758
-0.655702 -0.713857 11.309784
-0.723151 -0.898145 3.487652
-0.951406 -1.083726 3.975206
-1.033510 -1.150004 4.594715
-1.094008 -1.198822 5.068357
-1.109362 -1.210486 5.865172
-1.179836 -1.267445 6.332263
-1.460317 -1.495484 6.934900
-1.466848 -1.500119 7.577707
-1.516086 -1.539921 7.897907
-1.499278 -1.525436 8.626685
-1.484226 -1.512870 8.900334
-1.442356 -1.478098 9.490909
-1.509210 -1.532030 10.028798
-1.509993 -1.532138 10.523236
-1.270842 -1.336648 10.991195
-0.951129 -1.075748 11.202057
-0.759157 -1.086410 3.583569
-0.807736 -1.133863 4.062629
-0.884192 -1.208705 4.681558
-0.966340 -1.289177 5.295966
-1.089644 -1.410439 5.813256
-0.860935 -1.183689 6.417530
-1.027186 -1.347515 6.835505
-1.287123 -1.603457 7.661615
-1.300764 -1.616458 8.073082
-1.381200 -1.695427 8.526488
-1.244380 -1.559453 9.166886
-1.332758 -1.646277 9.614936
-1.330290 -1.643258 10.110804
-1.294841 -1.607798 10.473319
-0.981918 -1.297911 10.995902
-0.688525 -1.007688 11.208613
-0.601243 -1.097335 3.712183
-0.688863 -1.201775 4.477020
-0.827376 -1.367891 4.907501
-1.015206 -1.592989 5.615978
-1.096526 -1.690055 6.221935
-0.817226 -1.353728 6.405860
-0.791812 -1.322482 6.917328
-1.054814 -1.637705 7.880024
-1.097063 -1.688129 8.199402
-1.172282 -1.777758 8.878844
-1.164727 -1.768019 9.377278
-1.213706 -1.826548 9.690752
-1.186249 -1.792746 10.277317
-1.096617 -1.684470 10.599660
-0.841111 -1.376454 11.030702
-0.410459 -0.857818 11.356549
-0.456086 -1.087518 3.442214
-0.512985 -1.169536 4.065194
-0.505656 -1.158226 4.491930
-0.777109 -1.553036 5.067876
-0.994593 -1.868923 5.821061
-0.890769 -1.716782 6.373988
-0.613048 -1.311241 6.883686
-0.724095 -1.472692 7.159588
-0.985457 -1.852368 8.025401
-0.922590 -1.760064 8.482653
-0.913745 -1.746437 8.982586
-0.983384 -1.847282 9.430670
-0.957465 -1.808640 10.018161
-0.951895 -1.800125 10.288308
-0.828398 -1.619377 10.794998
-0.647081 -1.354736 11.041980
-0.139640 -0.614604 11.389009
-0.385181 -1.181990 3.332033
-0.460146 -1.315520 3.860810
-0.460678 -1.315102 4.665162
-0.695487 -1.735201 5.238237
-0.841375 -1.995622 5.940176
-0.800518 -1.921726 6.307493
-0.518116 -1.414515 6.767652
-0.567784 -1.502797 7.228459
-0.772121 -1.867987 7.956359
-0.761874 -1.848758 8.456783
-0.796625 -1.910539 8.771815
-0.794058 -1.904702 9.494496
-0.812301 -1.936728 9.897309
-0.748686 -1.821719 10.442052
-0.655861 -1.654934 10.631945
-0.488157 -1.353232 11.195503
-0.171152 -0.784743 11.202251
-0.276243 -1.241688 3.675987
-0.214317 -1.097398 4.146841
-0.728493 -2.283957 5.723479
-0.655517 -2.113933 6.272367
-0.569185 -1.913288 6.684109
-0.397276 -1.515084 6.868312
-0.419723 -1.565869 7.421059
-0.534004 -1.828708 8.194746
-0.580045 -1.934305 8.646242
-0.594050 -1.965391 9.278295
-0.555583 -1.875421 9.732617
-0.623795 -2.032535 10.083938
-0.588698 -1.950370 10.536110
-0.415068 -1.547478 11.057173
-0.252299 -1.170371 11.266450
-0.141956 -1.207966 3.773280
-0.110331 -1.109786 4.151977
-0.495934 -2.289984 5.822466
-0.454362 -2.161028 6.281661
-0.401753 -1.998534 6.602954
-0.250880 -1.533642 7.112073
-0.297712 -1.676536 7.479689
-0.373045 -1.906269 8.117728
-0.408590 -2.014255 8.570868
-0.432266 -2.085539 9.112689
-0.401585 -1.990055 9.568058
-0.416537 -2.034304 10.196466
-0.332784 -1.775991 10.569129
-0.238106 -1.483852 11.038345
-0.099215 -1.056318 11.343611
-0.010678 -1.129337 3.726988
0.004516 -1.060245 4.250733
-0.271637 -2.273864 5.919799
-0.252987 -2.190091 6.288453
-0.194342 -1.929121 6.794482
-0.157681 -1.765950 7.118555
-0.121570 -1.605205 7.443900
-0.135589 -1.665056 7.995584
-0.201380 -1.952790 8.765175
-0.237585 -2.111375 9.123791
-0.206612 -1.972489 9.671861
-0.235801 -2.099766 10.113670
-0.176054 -1.834437 10.485076
-0.108492 -1.534221 10.952955
-0.017809 -1.132840 11.162664
0.098656 -1.145684 3.493151
0.100581 -1.127299 3.922027
-0.025159 -2.128365 5.592403
-0.014647 -2.041240 5.961260
-0.020441 -2.084146 6.515786
0.011055 -1.828715 6.791197
0.064850 -1.392786 7.210206
0.057049 -1.451865 7.763218
0.014981 -1.785971 8.442817
-0.011062 -1.992313 8.936943
-0.021369 -2.071656 9.476563
-0.009999 -1.977063 9.929275
0.005637 -1.847501 10.474259
0.022340 -1.710853 10.795671
0.061575 -1.393315 11.041471
0.160338 -0.595585 11.425391
0.197719 -1.334979 3.739277
0.169566 -2.198650 5.453213
0.177498 -1.935057 5.724458
0.178528 -1.888116 6.232331
0.177963 -1.895228 6.646679
0.175323 -1.921682 8.836396
0.169937 -2.086200 9.191870
0.175023 -1.904704 9.829404
0.178649 -1.772850 10.375659
0.185546 -1.542371 10.658789
0.189496 -1.406020 10.982811
0.203162 -0.956204 11.288801
0.324663 -1.247752 3.646021
0.394853 -2.296074 5.229405
0.357672 -1.755371 5.587402
0.347982 -1.618969 6.050142
0.365968 -1.889441 6.606361
0.341669 -1.538857 7.067789
0.302818 -0.972215 7.306070
0.371990 -2.002206 8.610342
0.376781 -2.079016 9.149225
0.369696 -1.980683 9.601808
0.366283 -1.937786 10.186966
0.350295 -1.706844 10.467425
0.331683 -1.438582 10.843402
0.291794 -0.858213 11.203682
0.398403 -0.979971 3.853262
0.607487 -2.296674 5.351429
0.507855 -1.674654 5.663979
0.486036 -1.540508 6.126966
0.499224 -1.626724 6.821393
0.451261 -1.328447 7.192714
0.375573 -0.856175 7.479441
0.406620 -1.053168 7.982797
0.530787 -1.833919 8.646669
0.543222 -1.915797 9.413298
0.527669 -1.820831 9.867571
0.519325 -1.770513 10.229518
0.490667 -1.593305 10.644334
0.433575 -1.237720 10.984157
0.347698 -0.701577 11.254379
0.540942 -1.129467 3.512746
0.478380 -0.890419 3.937072
0.775334 -2.037558 5.705437
0.611206 -1.406563 5.647389
0.519569 -1.055907 6.112758
0.563448 -1.227008 6.857027
0.522067 -1.082483 11.255100
0.633574 -0.995694 3.836626
1.025817 -2.032127 5.324986
0.801074 -1.443506 6.702963
0.695517 -1.165856 6.842435
0.683136 -1.134443 7.351732
0.433279 -0.477154 7.647437
0.883588 -1.666568 9.165392
0.897968 -1.705912 9.795571
0.893895 -1.695819 10.065239
0.800920 -1.452378 10.664613
0.719474 -1.238564 10.949671
0.507360 -0.680293 11.085885
0.719076 -0.930622 3.645246
0.650498 -0.790705 4.114446
0.843969 -1.191525 5.996551
0.713086 -0.923047 6.132909
0.712708 -0.923506 6.783437
0.598888 -0.690779 7.297258
0.509187 -0.506958 7.485803
0.636218 -0.768820 8.031205
0.961084 -1.438659 9.508237
1.017551 -1.555440 9.951159
1.035779 -1.593626 10.351029
0.900243 -1.316220 10.816842
0.709655 -0.925895 11.343371
0.819009 -0.893536 3.780600
1.023419 -1.235982 6.360880
0.794257 -0.857392 6.779040
0.798541 -0.865525 7.427060
0.529536 -0.420565 7.577706
1.022715 -1.239156 9.060839
1.134136 -1.424342 9.548882
1.200895 -1.535539 9.991837
1.065486 -1.312399 10.589310
0.994674 -1.195723 10.911194
0.694008 -0.698700 11.270399
0.928902 -0.851541 3.499217
0.833963 -0.724128 3.970452
1.443770 -1.548748 5.406396
0.853440 -0.753497 6.187159
0.963153 -0.902211 6.698545
0.863577 -0.768341 7.025218
1.215417 -1.246398 9.484377
1.345912 -1.423111 9.970619
1.267871 -1.318598 10.516813
1.107396 -1.102648 10.893406
0.884764 -0.802484 11.010221
1.263835 -1.052698 6.071153
0.853265 -0.595610 6.163078
0.793051 -0.529315 6.771847
0.622015 -0.339207 7.056660
1.292010 -1.088462 9.599032
1.439361 -1.253153 10.084679
1.379446 -1.186999 10.538818
1.199582 -0.987174 10.915551
0.774575 -0.514180 11.144707
0.950952 -0.543815 3.588157
1.815324 -1.334667 5.779325
1.447028 -0.999311 6.280939
1.124732 -0.705556 6.465613
1.096198 -0.680105 6.976780
0.974310 -0.569300 7.303674
0.620985 -0.247363 7.594763
1.417141 -0.975707 9.529571
1.549323 -1.096919 10.107723
1.483309 -1.037219 10.561911
1.187679 -0.768064 10.993375
0.758165 -0.376717 11.357172
0.976957 -0.438284 3.631482
1.885350 -1.125997 5.264668
1.843046 -1.094578 5.772356
1.524109 -0.854051 6.090082
1.168021 -0.585570 6.506873
1.181458 -0.595910 6.691609
0.935164 -0.410545 7.299819
0.768862 -0.285395 7.722959
1.554636 -0.880534 9.383222
1.695998 -0.987892 9.961629
1.623616 -0.933702 10.415147
1.408127 -0.771358 10.790729
0.912436 -0.397489 11.243906
1.106586 -0.393354 3.450640
1.136796 -0.412061 3.785725
1.950038 -0.908595 5.550870
1.949644 -0.908761 5.967376
1.567215 -0.676473 6.379278
1.311924 -0.521276 6.518381
1.086242 -0.384461 7.032549
1.021939 -0.345699 7.405695
1.860585 -0.858037 9.526784
1.778775 -0.808702 9.981407
1.769936 -0.803587 10.251694
1.436782 -0.601516 10.905748
1.084182 -0.387182 11.117201
1.919497 -0.657745 5.155381
2.027839 -0.710316 5.763048
1.666493 -0.537145 6.082854
1.307168 -0.364950 6.408323
1.233994 -0.330168 6.782196
0.998254 -0.217477 7.299084
0.689066 -0.069274 7.542119
1.872948 -0.639131 9.201744
1.947376 -0.675357 9.741118
1.936253 -0.670268 10.012419
1.771504 -0.591563 10.427399
1.527414 -0.474735 10.805235
0.932451 -0.189628 11.355076
1.244146 -0.195175 3.304240
1.386492 -0.247084 3.835301
1.951755 -0.452743 5.406629
2.032111 -0.482194 5.873740
1.526391 -0.299766 6.240887
1.152436 -0.164920 6.569513
1.206042 -0.184581 6.896300
0.664374 0.010739 7.376127
2.049056 -0.491433 9.399133
1.957176 -0.458634 9.854901
1.745821 -0.382705 10.363021
1.614162 -0.335415 10.688157
1.274696 -0.213045 11.030909
1.018085 -0.018780 3.724093
1.389946 -0.116292 4.258315
1.914181 -0.254215 5.538934
1.391210 -0.118038 5.905722
1.214299 -0.072347 6.466603
1.217195 -0.073663 7.118658
0.798137 0.035540 7.314112
1.928337 -0.260713 8.801858
2.003932 -0.280907 9.342899
2.037715 -0.290072 9.747576
1.858750 -0.243719 10.161755
1.772647 -0.221638 10.617140
1.423375 -0.130773 10.956953
0.680875 0.062767 11.246571
1.200905 0.044619 3.403393
1.182147 0.047348 3.831498
1.338753 0.021111 4.357512
1.672922 -0.034452 4.977427
1.567872 -0.017660 5.583482
1.432764 0.004202 6.048604
1.438111 0.002968 6.467030
1.042456 0.067663 7.028936
1.011276 0.072368 7.540560
2.034655 -0.097289 8.841777
2.112650 -0.110589 9.380860
2.107070 -0.110087 9.875450
1.875947 -0.072255 10.155630
1.788573 -0.058246 10.609919
1.394511 0.006295 11.041835
1.056178 0.164321 3.634788
1.179871 0.155184 4.018916
1.409188 0.138162 4.828582
1.614639 0.122967 5.488445
1.477058 0.132387 5.953260
1.442243 0.134636 6.231961
1.175913 0.153194 6.744970
1.141067 0.155252 7.256375
2.303135 0.071176 8.742441
2.199731 0.078169 9.195477
2.059616 0.087703 9.740401
2.048194 0.088293 10.009908
1.826942 0.103643 10.515370
1.689460 0.113175 10.838001
1.016455 0.160883 11.158582
1.064872 0.269317 3.583018
1.274315 0.274889 4.018427
1.416073 0.278273 4.779421
1.722881 0.286571 5.255336
1.619696 0.283144 5.860824
1.347812 0.275014 6.372583
1.082085 0.267056 6.887568
1.414823 0.276295 7.115500
2.260463 0.298861 8.793097
2.156924 0.295550 9.247331
2.058258 0.292376 9.701668
2.096528 0.293125 10.104713
1.915244 0.287645 10.518296
1.646662 0.279723 10.893021
1.011381 0.261533 11.119621
1.088478 0.371350 3.690688
1.190360 0.383060 4.313449
1.525259 0.422745 4.936159
1.555581 0.425913 5.500409
1.379733 0.404528 5.827042
1.118554 0.372937 6.108362
0.980013 0.355715 6.812090
1.524661 0.420526 7.500846
1.988380 0.475475 8.363429
2.192973 0.499623 8.858423
2.180460 0.497705 9.355947
2.033921 0.479843 9.677647
2.030855 0.479059 10.173520
1.852419 0.457292 10.585238
1.677983 0.436004 10.998693
0.955931 0.349161 11.187261
0.938431 0.451862 3.682918
1.038602 0.473442 4.306797
1.197567 0.508084 4.832636
1.447530 0.562774 5.402640
1.299830 0.529574 6.104335
1.217868 0.511163 6.479121
1.179514 0.502260 6.992857
1.541972 0.581759 7.590109
2.042743 0.691642 8.359810
2.113033 0.706695 8.903073
2.189769 0.723174 9.442924
2.094802 0.701824 9.897165
1.994235 0.679429 10.127643
1.830535 0.642754 10.763571
1.645779 0.601809 10.953874
1.065844 0.600128 3.960342
1.166921 0.632675 4.580620
1.373767 0.700015 5.010213
1.511831 0.744351 5.995107
1.179154 0.635239 6.227588
1.016369 0.581661 6.555955
1.020456 0.582428 7.208735
1.505215 0.740646 7.754834
2.081053 0.928451 8.564966
2.152084 0.951231 9.105533
2.142956 0.947810 9.600960
2.178054 0.958948 10.003491
1.794203 0.832919 10.422281
1.626512 0.777663 10.833250
1.250490 0.654188 11.262878
1.548643 0.926237 4.945785
1.416565 0.868915 5.410181
1.704120 0.992373 5.880171
1.284268 0.810909 6.526414
1.136405 0.747123 6.619356
1.102880 0.732217 7.130110
2.085653 1.154304 8.576409
2.072196 1.148059 9.071343
2.063944 1.144057 9.564625
2.023463 1.126089 10.147419
1.810375 1.034035 10.425984
1.526949 0.911509 10.891738
0.958108 0.666034 11.342639
1.848602 1.298937 4.948593
1.690161 1.210627 5.270251
1.753191 1.244972 5.968807
1.636054 1.179470 6.430209
1.212720 0.944069 6.708061
1.066084 0.862310 7.035246
1.233555 0.954632 7.769982
2.023584 1.392385 8.886377
2.019700 1.389546 9.603566
2.088708 1.427582 9.912456
1.849222 1.294212 10.280143
1.578092 1.143174 10.743426
1.298078 0.987411 10.987566
1.735032 1.481010 6.145588
1.188590 1.104953 6.326074
1.003880 0.977243 6.975828
1.166400 1.088757 7.250219
1.854539 1.560142 9.189726
1.923101 1.606764 9.724110
1.737762 1.478772 10.224105
1.481635 1.302126 10.687332
1.401310 1.246642 10.916584
1.570562 1.609814 4.765102
1.244106 1.338857 5.313951
1.512879 1.560789 5.925507
1.372032 1.443547 6.478343
1.074628 1.197146 6.568338
0.909019 1.059541 6.985667
0.467749 0.693577 7.460349
1.548821 1.587065 9.160089
1.645101 1.666322 9.604523
1.776218 1.774533 9.955030
1.565585 1.599693 10.322997
1.357436 1.426908 10.694522
0.920775 1.064650 11.271986
0.918770 1.269413 2.785834
1.533257 1.888037 4.846073
1.211587 1.562451 5.248777
1.325886 1.677093 5.991720
1.267837 1.617992 6.356987
0.894699 1.240432 6.722592
0.841183 1.185908 7.090748
0.757267 1.100549 7.552176
1.427092 1.775790 9.030456
1.514674 1.863785 9.473495
1.605271 1.954831 9.913520
1.485815 1.833354 10.542418
1.288109 1.633361 10.688389
0.943883 1.284996 11.076033
0.889426 1.487675 2.894378
1.298557 1.993455 4.939284
1.209355 1.881984 5.395680
1.257393 1.940771 6.087447
1.236816 1.914836 6.359620
0.990356 1.608101 6.675490
0.771521 1.335511 7.135313
0.724561 1.276354 7.733015
1.181626 1.842759 8.986002
1.316553 2.009812 9.471360
1.346182 2.045812 10.092820
1.316078 2.007925 10.448439
1.148048 1.798599 10.816310
0.890409 1.478123 11.018217
0.824506 1.662500 2.314136
0.776797 1.590490 2.833666
0.653885 1.406140 3.393859
1.339981 2.428342 4.852076
1.231155 2.265044 5.397883
1.035630 1.972785 5.617851
0.883396 1.744738 6.121129
0.931999 1.816272 6.812683
0.714548 1.491124 7.134953
0.548238 1.242258 7.507298
0.258951 0.810110 7.657956
1.192517 2.201595 9.253171
1.244446 2.277999 10.008982
1.239173 2.269729 10.275168
1.045004 1.979001 10.825620
0.794462 1.604485 11.121086
0.484170 1.141141 11.161049
0.607399 1.625421 2.509439
0.608447 1.626357 3.081547
1.178159 2.674652 5.193510
0.968819 2.287810 5.360925
0.837046 2.043617 5.861496
0.922761 2.201001 6.370518
0.861708 2.087470 6.826972
0.937509 2.222857 9.450015
1.022338 2.378494 10.024211
0.979727 2.299029 10.472321
0.833249 2.027751 10.933196
0.655713 1.699733 11.045296
0.464428 1.729381 2.609016
0.465652 1.731070 3.181008
0.875879 2.705679 5.332072
0.880190 2.715573 5.516110
0.803823 2.531616 6.289853
0.719649 2.329810 6.697947
0.620950 2.093622 6.970625
0.459357 1.706111 7.798118
0.753194 2.403948 9.456562
0.790640 2.491710 10.211785
0.751971 2.398917 10.438251
0.617970 2.077859 10.991143
0.444373 1.662832 11.289469
0.308267 1.780547 2.392767
0.283190 1.699357 2.911734
0.259936 1.623969 3.429833
0.677844 2.948038 5.215485
0.666145 2.910080 5.487280
0.625089 2.778262 5.938812
0.559070 2.567193 6.343268
0.439040 2.183972 6.885903
0.349052 1.896783 7.250964
0.233118 1.527198 7.575261
0.050234 0.944663 7.911964
0.541926 2.504299 9.363655
0.567951 2.585592 9.895021
0.565096 2.575777 10.160472
0.460298 2.240979 10.709243
0.313678 1.773636 11.095094
0.135069 1.205263 11.227644
0.108062 1.742728 2.491727
0.108829 1.744126 3.063112
0.104750 1.722197 3.488288
0.364654 2.998465 5.223195
0.354376 2.945610 5.724061
0.300641 2.678174 6.218101
0.267128 2.511347 6.533529
0.197674 2.166451 6.986722
0.120643 1.784689 7.307650
0.026245 1.317320 7.589775
0.260630 2.468658 9.064285
0.303556 2.678614 9.549614
0.287190 2.594987 10.219218
0.275442 2.536404 10.353484
0.206743 2.194827 10.904235
0.099335 1.663314 11.161872
-0.048167 1.868087 2.293231
-0.054008 1.809322 2.577251
-0.064729 1.699556 3.334974
-0.066536 1.678645 3.761779
0.055534 2.844435 5.533356
0.065865 2.942429 5.766540
0.028222 2.573042 6.444186
-0.002968 2.268574 6.807338
-0.033417 1.973102 6.944502
-0.045889 1.846958 7.634631
0.011894 2.401933 8.084511
0.033585 2.605826 8.804024
0.032631 2.592608 9.298111
0.028081 2.543911 9.881248
0.036557 2.623352 10.190548
0.000848 2.273675 10.742071
-0.037551 1.901552 10.853910
-0.097171 1.322287 11.210713
-0.218521 1.959875 2.315398
-0.219056 1.872047 2.836152
-0.218536 1.876094 3.407540
-0.219452 1.746904 4.018127
-0.205504 2.890076 5.643908
-0.206645 2.752187 6.098783
-0.209201 2.482589 6.597764
-0.212257 2.177698 6.962399
-0.210759 2.279125 7.420557
-0.208615 2.429084 8.011605
-0.208447 2.406699 8.510227
-0.206155 2.570804 9.092891
-0.204687 2.687269 9.314773
-0.205495 2.556325 10.078419
-0.205385 2.546018 10.346748
-0.208065 2.274897 10.717092
-0.212801 1.822657 11.013553
-0.222062 0.963608 11.260095
-0.386121 1.777307 2.563179
-0.378812 1.693289 3.083716
-0.383533 1.755861 3.561874
-0.391183 1.855660 4.180208
-0.466437 2.789473 5.563283
-0.466012 2.788490 5.976132
-0.425175 2.294439 6.470242
-0.407133 2.078132 6.881865
-0.425576 2.310056 7.522282
-0.426426 2.326932 8.158193
-0.428024 2.350607 8.565019
-0.441016 2.515316 9.146758
-0.443354 2.547997 9.548957
-0.445996 2.584372 9.949506
-0.438167 2.493263 10.398518
-0.415812 2.223823 10.768485
-0.372313 1.697101 11.249697
-0.308523 0.918122 11.311625
-0.564306 1.736700 2.551273
-0.548675 1.654345 3.070702
-0.590840 1.885587 3.650180
-0.593119 1.900530 4.215432
-0.643834 2.178723 4.926461
-0.705595 2.516347 5.538893
-0.687028 2.418418 6.133477
-0.639755 2.163381 6.403881
-0.655532 2.252060 7.091362
-0.681608 2.396136 7.682512
-0.709324 2.548041 8.043086
-0.696979 2.483800 8.628790
-0.693933 2.469549 9.122301
-0.723716 2.632627 9.475103
-0.698406 2.497880 10.013586
-0.681662 2.409164 10.461673
-0.608680 2.015447 10.883296
-0.495957 1.406392 11.328800
-0.758365 1.774741 2.383016
-0.718743 1.638340 2.994116
-0.720347 1.645655 3.563318
-0.771437 1.825926 4.230525
-0.801096 1.931252 4.842158
-0.837265 2.058582 5.217484
-0.846294 2.091764 5.773255
-0.857209 2.131516 6.326083
-0.918728 2.348099 6.968725
-0.920788 2.357204 7.604442
-0.901119 2.289669 7.966115
-0.907191 2.312758 8.597233
-0.951507 2.468452 8.952709
-0.973094 2.545380 9.486399
-0.934974 2.414002 10.024565
-0.909818 2.327581 10.472321
-0.824551 2.031467 10.932838
-0.696361 1.584424 11.005924
-0.474583 0.811761 11.383807
-0.875198 1.610511 2.540091
-0.864690 1.584129 2.968124
-0.846718 1.538848 3.631217
-0.901761 1.683459 4.157163
-0.939909 1.784264 4.771140
-0.999316 1.940226 5.288986
-0.930414 1.762012 5.842075
-0.994107 1.929125 6.353185
-1.140287 2.311118 6.862364
-1.142290 2.317814 7.499520
-1.148204 2.334168 7.907332
-1.139439 2.312488 8.404282
-1.149480 2.340105 9.033392
-1.130261 2.291390 9.616993
-1.143254 2.326168 10.017481
-1.096042 2.204427 10.557551
-0.980525 1.904051 10.797691
-0.832431 1.518729 11.003031
-0.543997 0.768209 11.381228
-0.977275 1.402383 2.742371
-0.990093 1.428369 3.079016
-1.070400 1.588535 3.752698
-1.115835 1.679585 4.370203
-1.164895 1.777801 4.983261
-1.132425 1.714917 5.726824
-1.256495 1.961051 6.056788
-1.355220 2.157613 6.703958
-1.399128 2.245348 7.161952
-1.302294 2.054895 7.798689
-1.331102 2.112905 8.342512
-1.362905 2.176838 8.883013
-1.376046 2.203588 9.287133
-1.390876 2.233676 9.689623
-1.370637 2.194698 10.271626
-1.265672 1.987493 10.550609
-1.084726 1.630199 10.976727
-0.857359 1.180567 11.145274
-1.110374 1.319536 2.526795
-1.124686 1.342894 2.864016
-1.113633 1.326527 3.672783
-1.223995 1.503255 4.107497
-1.298344 1.623039 4.864028
-1.340448 1.690938 5.333351
-1.265222 1.571663 5.795739
-1.307239 1.639775 6.491410
-1.524717 1.987489 7.000306
-1.578151 2.073441 7.457023
-1.514151 1.972415 8.138165
-1.526037 1.992013 8.545406
-1.587851 2.091320 8.994103
-1.607260 2.123261 9.620652
-1.578055 2.077237 9.980301
-1.486640 1.932402 10.612280
-1.315458 1.659714 10.853917
-1.075408 1.277261 11.153544
-0.689122 0.661367 11.345868
-1.179899 1.142883 2.852428
-1.253349 1.239569 3.620378
-1.334267 1.345972 4.381629
-1.411814 1.447465 4.761804
-1.397227 1.429363 5.415251
-1.334887 1.349013 6.018335
-1.504061 1.569741 6.346029
-1.694409 1.818537 7.037581
-1.699648 1.826229 7.675412
-1.765315 1.912352 8.128375
-1.725296 1.861046 8.715985
-1.823579 1.989507 9.072798
-1.816918 1.981507 9.565513
-1.758226 1.905698 10.015356
-1.702476 1.833719 10.465222
-1.537728 1.619708 10.836337
-1.159486 1.127807 11.281074
-0.707303 0.538974 11.247567
-1.238190 0.969959 2.968466
-1.263623 0.997945 3.684547
-1.428931 1.174894 4.260923
-1.539134 1.293024 4.782632
-1.523331 1.276968 5.435371
-1.522144 1.276211 5.853574
-1.610825 1.371493 6.456294
-1.826203 1.601963 7.146309
-1.896627 1.677602 7.601605
-1.970135 1.756525 8.054052
-1.954971 1.740959 8.550177
-1.943722 1.729567 9.044722
-1.998417 1.788532 9.579648
-1.877055 1.659904 10.210350
-1.835540 1.615808 10.346733
-1.534052 1.294989 10.859208
-1.252385 0.994930 11.063701
-0.676883 0.381918 11.538247
-1.265611 0.802729 3.092694
-1.336269 0.866108 3.715012
-1.598063 1.098805 4.106058
-1.638850 1.135774 4.811370
-1.622274 1.121792 5.463406
-1.584168 1.088552 5.972973
-1.821640 1.299751 6.438165
-2.026261 1.481903 6.990014
-1.998348 1.457947 7.717313
-2.012990 1.471389 8.124318
-2.064735 1.517897 8.664224
-2.053755 1.508705 9.158102
-2.114591 1.563273 9.693161
-2.142506 1.588483 10.093278
-2.006391 1.468177 10.501788
-1.637639 1.141451 10.886149
-1.328867 0.867741 11.093808
-0.518858 0.149411 11.366053
-1.419722 0.731339 3.315471
-1.480689 0.776304 4.172204
-1.583247 0.850855 4.553258
-1.745453 0.968825 5.214279
-1.477745 0.775860 5.814463
-1.662497 0.909887 6.234852
-2.026119 1.173489 6.883015
-2.179607 1.284993 7.385810
-2.154501 1.267583 8.111539
-2.102210 1.230373 8.698138
-2.199062 1.300864 9.143922
-2.333506 1.398443 9.496285
-2.255770 1.342691 9.943844
-2.181910 1.289742 10.391424
-1.856774 1.055065 10.812013
-1.522713 0.813713 11.016048
-0.871202 0.342988 11.394123
-1.262161 0.452167 3.165434
-1.344316 0.500191 3.790137
-1.554750 0.622219 4.367368
-1.650158 0.677884 4.982608
-1.644787 0.675188 5.404546
-1.708979 0.712915 6.104812
-1.984457 0.872383 6.570799
-2.104387 0.942187 7.168712
-2.232049 1.016446 7.759235
-2.327357 1.071896 8.209853
-2.272645 1.040875 8.795460
-2.298642 1.056268 9.197820
-2.298605 1.056933 9.912456
-2.298665 1.057437 10.401355
-2.133411 0.962222 10.587304
-1.707816 0.716916 10.972447
-1.204850 0.426921 11.329054
-1.349245 0.372584 3.065514
-1.407111 0.400362 3.543617
-1.480384 0.435765 4.398117
-1.755044 0.565965 4.875077
-1.703670 0.542164 5.386491
-1.737221 0.558527 5.944204
-2.025564 0.695179 6.407228
-2.103192 0.732695 7.322204
-2.158412 0.759283 7.865702
-2.259910 0.807648 8.314820
-2.404992 0.876518 8.670250
-2.392999 0.871304 9.161648
-2.393184 0.872047 9.874511
-2.466699 0.907060 10.180286
-2.185703 0.774724 10.636845
-1.860955 0.621603 10.967378
-1.218479 0.318445 11.376208
-1.389049 0.239040 3.049118
-1.345907 0.224309 3.713378
-1.626541 0.324372 4.195380
-1.714785 0.356449 5.041129
-1.760078 0.372817 5.365913
-1.748825 0.369394 6.014221
-2.133525 0.506429 6.523225
-2.305024 0.567964 7.253761
-2.234470 0.543433 7.842515
-2.382479 0.596299 8.200325
-2.323980 0.576045 8.784925
-2.438556 0.617116 9.228330
-2.557186 0.659624 9.668749
-2.431251 0.615385 10.205382
-2.225302 0.542702 10.702821
-1.887501 0.423058 11.033560
-1.500838 0.285955 11.238662
-1.319364 0.089741 3.588680
-1.470641 0.128768 4.114858
-1.711499 0.190676 4.686581
-1.789140 0.210876 5.155649
-1.603378 0.163985 5.711410
-1.910033 0.242581 6.177970
-2.074770 0.285417 7.144638
-2.262606 0.333744 7.644923
-2.455435 0.383340 8.141005
-2.478923 0.389677 8.545406
-2.334858 0.353405 9.087368
-2.414262 0.374112 9.622047
-2.411469 0.373820 10.112368
-2.197921 0.319796 10.612411
-1.938379 0.253932 10.984279
-1.539849 0.152486 11.190718
-0.655776 -0.072847 11.309978
-1.398032 -0.048660 3.066972
-1.406695 -0.046983 3.639013
-1.647113 -0.013294 4.215302
-1.807609 0.009311 4.737046
-1.735002 -0.000091 5.483318
-1.734876 0.000243 5.901779
-2.137008 0.056214 6.414389
-2.179766 0.062774 7.194324
-2.329230 0.083723 7.558271
-2.213584 0.068322 8.240355
-2.284379 0.078554 8.781323
-2.403838 0.095428 9.227785
-2.445367 0.101689 9.853032
-2.354257 0.089482 10.302736
-2.255452 0.076026 10.529899
-1.859297 0.021668 10.955144
-1.283845 -0.057511 11.311879
-1.215847 -0.169727 3.358739
-1.423578 -0.157422 3.793779
-1.475169 -0.153864 4.504602
-1.640693 -0.143915 5.024871
-1.498251 -0.151717 5.489830
-1.625062 -0.143921 6.096517
-1.977516 -0.122965 6.929046
-2.122367 -0.114142 7.523248
-2.230470 -0.107549 7.976731
-2.208919 -0.108373 8.475004
-2.326517 -0.101239 8.923108
-2.406285 -0.096207 9.459264
-2.310502 -0.101339 9.909697
-2.351066 -0.098674 10.309148
-2.172586 -0.108594 10.718958
-1.721869 -0.134260 11.014601
-1.049918 -0.172624 11.335897
-1.345797 -0.286671 3.496373
-1.446295 -0.289695 4.117040
-1.554810 -0.293005 4.733289
-1.583774 -0.293556 5.296691
-1.443739 -0.288236 5.762261
-1.711293 -0.297195 6.322140
-2.114755 -0.310792 7.060449
-2.217936 -0.314047 7.516940
-2.145597 -0.311006 8.109014
-2.259369 -0.314639 8.559970
-2.377557 -0.318429 9.007984
-2.325398 -0.316105 9.593122
-2.362773 -0.317088 9.994236
-2.192712 -0.310571 10.627420
-2.002747 -0.303723 10.816475
-1.437215 -0.283322 11.394271
-0.601286 -0.253932 11.328895
-1.315706 -0.422041 3.683477
-1.504591 -0.447441 4.351282
-1.478007 -0.443236 5.008034
-1.474363 -0.442383 5.428060
-1.638195 -0.464274 6.173975
-2.091837 -0.526273 6.591197
-2.138354 -0.532014 7.368665
-2.199199 -0.539920 7.913166
-2.177488 -0.536518 8.410691
-2.204482 -0.539889 8.815224
-2.192975 -0.537892 9.309521
-2.187057 -0.536666 9.802133
-2.186696 -0.536204 10.292997
-2.009805 -0.511548 10.703090
-1.615838 -0.457043 11.130374
-1.025569 -0.375803 11.264661
-1.173673 -0.520948 3.457913
-1.323516 -0.555645 3.986857
-1.291293 -0.547521 4.648762
-1.503997 -0.597049 5.077057
-1.266685 -0.540826 5.730103
-1.536942 -0.603939 6.058836
-1.972754 -0.705611 6.709390
-2.019597 -0.715933 7.488871
-2.079919 -0.729616 8.035339
-2.189719 -0.754985 8.487207
-2.173780 -0.750822 8.984434
-2.034007 -0.717570 9.529718
-2.198591 -0.755875 9.882602
-2.148347 -0.743782 10.243019
-1.845276 -0.672294 10.707465
-1.367301 -0.559842 11.100161
-0.658487 -0.393410 11.295805
-1.212004 -0.657390 3.100871
-1.250606 -0.669658 3.817451
-1.299624 -0.685411 4.529338
-1.373915 -0.709818 5.001860
-1.369489 -0.707969 5.423702
-1.572333 -0.775166 6.078879
-1.822071 -0.857913 6.865816
-2.047084 -0.932729 7.278268
-2.062181 -0.937413 7.688462
-1.996676 -0.914810 8.506820
-2.105229 -0.950882 8.730316
-2.052195 -0.932648 9.317733
-2.006790 -0.916965 9.903599
-2.006904 -0.916572 10.396250
-1.825493 -0.855797 10.585294
-1.483312 -0.741179 10.921991
-0.859677 -0.532341 11.470421
-1.051657 -0.736827 3.457913
-1.192806 -0.800026 3.985400
-1.290836 -0.843691 4.601979
-1.443037 -0.911884 5.121397
-1.176591 -0.790996 5.864915
-1.422373 -0.901374 6.423425
-1.711457 -1.031166 7.114333
-1.848960 -1.092869 7.478847
-1.906053 -1.118130 8.023900
-1.927434 -1.127405 8.430694
-1.795127 -1.067010 9.202265
-1.903118 -1.115530 9.422413
-1.898707 -1.113090 9.915754
-1.815912 -1.075325 10.367206
-1.617957 -0.985556 10.871555
-1.256805 -0.822226 11.302623
-0.340690 -0.408837 11.387632
-0.875734 -0.782163 3.648543
-1.058595 -0.887430 4.081585
-1.062573 -0.888959 4.883971
-1.134406 -0.930023 5.353800
-1.177549 -0.954644 5.680452
-1.443212 -1.107512 6.379040
-1.676231 -1.241433 7.161127
-1.689894 -1.248935 7.571256
-1.667665 -1.235608 8.071647
-1.766629 -1.292371 8.522197
-1.679496 -1.241361 9.201906
-1.745781 -1.279370 9.513256
-1.672179 -1.236183 10.189654
-1.516717 -1.145939 10.601801
-1.364751 -1.057714 11.015686
-1.041963 -0.871049 11.131164
-0.952028 -0.966243 3.333778
-1.033381 -1.023139 3.954095
-1.007164 -1.003928 4.613789
-1.102214 -1.070519 5.225837
-1.059941 -1.040104 5.738255
-0.958889 -0.968411 5.969160
-1.213483 -1.147735 6.665298
-1.621416 -1.435407 7.443773
-1.599403 -1.419331 7.943726
-1.472375 -1.328948 8.490559
-1.604807 -1.422232 8.847334
-1.630569 -1.440039 9.250909
-1.557972 -1.388014 9.927776
-1.517110 -1.358752 10.287590
-1.371449 -1.255330 10.699794
-1.185265 -1.123385 10.982492
-0.711504 -0.788006 11.341775
-0.749683 -0.958500 3.574208
-0.868086 -1.059549 4.102004
-0.884690 -1.073178 4.669900
-1.051109 -1.215550 5.097361
-1.134305 -1.286036 5.939386
-1.003339 -1.173271 6.263401
-1.071303 -1.230844 6.958270
-1.317975 -1.441814 7.644814
-1.401240 -1.512784 8.099263
-1.487887 -1.586659 8.550811
-1.444011 -1.548355 9.139910
-1.437829 -1.542506 9.635716
-1.466854 -1.566977 10.038105
-1.398809 -1.508077 10.490538
-1.065646 -1.221548 11.011488
-0.811593 -1.003465 11.035293
-0.687785 -1.084660 3.261474
-0.754453 -1.155101 3.885233
-0.790564 -1.192799 4.597765
-0.904306 -1.313636 5.119484
-1.081795 -1.502500 5.685166
-1.075826 -1.495334 6.335396
-1.053157 -1.470787 6.613258
-1.149455 -1.572901 7.212469
-1.219823 -1.647216 7.898570
-1.326672 -1.760887 8.260730
-1.225091 -1.651460 9.035126
-1.276042 -1.705492 9.349340
-1.300085 -1.730677 9.753709
-1.208881 -1.632610 10.299435
-1.086373 -1.501272 10.714213
-0.930328 -1.334277 10.998077
-0.482014 -0.854827 11.546946
-0.595921 -1.136758 3.262935
-0.616773 -1.162605 3.599633
-0.592785 -1.131461 4.265556
-0.824287 -1.422407 5.030305
-1.093696 -1.761297 5.693465
-1.063599 -1.722657 6.203263
-0.816890 -1.411076 6.526287
-0.907355 -1.524674 6.897315
-1.079496 -1.740735 7.677402
-1.035829 -1.684865 8.272695
-1.134683 -1.809056 8.633846
-1.099089 -1.763374 9.224852
-1.068533 -1.724048 9.814325
-1.010982 -1.650856 10.270042
-0.948492 -1.571733 10.501664
-0.839077 -1.433185 10.915834
-0.478326 -0.977728 11.274206
-0.517886 -1.235483 3.167259
-0.506684 -1.217606 3.594887
-0.439117 -1.112770 4.208598
-1.050551 -2.050737 5.686186
-0.901863 -1.821329 6.188544
-0.782730 -1.637505 6.601711
-0.665807 -1.457077 7.017001
-0.796792 -1.657868 7.428202
-0.928969 -1.860151 8.064117
-0.919697 -1.844786 8.790107
-0.913437 -1.834402 9.286907
-0.932861 -1.863657 9.690195
-0.860668 -1.751814 10.233350
-0.835196 -1.712098 10.592439
-0.718939 -1.532556 11.097438
-0.424184 -1.078900 11.361694
-0.382703 -1.262956 3.593426
-0.221417 -0.949282 4.203109
-0.856874 -2.177838 5.827454
-0.795284 -2.057646 6.285950
-0.695315 -1.863162 6.698481
-0.412019 -1.313550 7.024307
-0.459911 -1.405528 7.485224
-0.675021 -1.820843 8.347129
-0.749461 -1.964461 8.702983
-0.763908 -1.991729 9.105526
-0.741782 -1.947789 9.689836
-0.699822 -1.865655 10.140245
-0.678230 -1.823163 10.498510
-0.495507 -1.468276 10.924991
-0.289637 -1.068757 11.226860
-0.261816 -1.291389 3.400200
-0.298849 -1.382030 4.024369
-0.676285 -2.316273 5.695017
-0.606927 -2.142682 6.246638
-0.525047 -1.938281 6.661118
-0.462345 -1.781737 6.985382
-0.434468 -1.711643 7.353155
-0.474718 -1.810650 7.809691
-0.450667 -1.749050 8.632145
-0.529569 -1.944034 9.124142
-0.558029 -2.014061 9.436764
-0.507192 -1.886513 9.982486
-0.439536 -1.717459 10.396606
-0.344418 -1.479742 10.998366
-0.211244 -1.148028 11.341539
-0.135279 -1.294060 3.823606
-0.447041 -2.338438 5.547226
-0.407867 -2.205234 6.007254
-0.370118 -2.076824 6.467758
-0.322194 -1.914569 6.789445
-0.133155 -1.277025 7.210463
-0.189776 -1.466813 7.484861
-0.298474 -1.829642 8.531510
-0.332480 -1.942789 8.982586
-0.355814 -2.019759 9.522478
-0.366571 -2.054787 9.926342
-0.352274 -2.005607 10.288308
-0.252996 -1.669796 10.848496
-0.124649 -1.236884 11.152271
0.066808 -0.591461 11.484071
0.019872 -1.156608 3.678958
-0.171175 -2.137846 5.356976
-0.213842 -2.356777 5.779722
-0.188419 -2.223214 6.238778
-0.147248 -2.008364 6.650344
-0.097947 -1.751037 7.156489
0.001319 -1.235729 7.532629
-0.153029 -2.029683 8.612495
-0.159917 -2.062558 9.244576
-0.151184 -2.014794 9.831918
-0.141705 -1.964162 10.193437
-0.117940 -1.838797 10.739091
-0.064609 -1.562160 10.891591
0.052650 -0.953401 11.346605
0.110451 -1.306707 3.805710
0.125464 -1.151355 4.276738
0.031009 -2.092191 5.658329
0.048821 -1.907935 6.209646
0.034306 -2.051194 6.578192
0.059775 -1.790115 7.082805
0.119902 -1.182976 7.180164
0.043851 -1.938041 8.584768
0.026868 -2.104397 9.167140
0.031233 -2.055441 9.753316
0.039971 -1.963512 10.205661
0.057337 -1.784915 10.618584
0.079679 -1.557236 10.901755
0.120153 -1.147330 11.111336
0.240303 -1.114879 3.906626
0.240528 -2.264544 5.528582
0.239850 -1.789360 5.561773
0.239362 -1.741452 6.069845
0.239131 -1.965213 6.715731
0.238356 -1.705095 7.220112
0.237187 -1.816596 8.810630
0.237072 -2.029834 9.299107
0.236522 -1.983008 9.884356
0.235891 -1.852396 10.428119
0.235606 -1.702090 10.523828
0.234702 -1.302749 10.954217
0.233702 -0.814892 11.354219
0.348192 -1.153666 3.594707
0.439990 -2.148215 5.270389
0.402105 -1.746734 5.585597
0.393695 -1.660277 5.955302
0.405604 -1.792736 6.557340
0.367900 -1.395320 7.112588
0.335762 -1.054460 7.348431
0.414230 -1.902689 8.566421
0.412766 -1.893520 9.290924
0.411782 -1.887438 9.786575
0.410554 -1.876727 10.055881
0.393319 -1.696493 10.469594
0.364173 -1.389646 10.939476
0.313292 -0.849056 11.207370
0.451072 -1.051788 3.700586
0.633739 -1.985213 5.466963
0.558345 -1.603447 5.551675
0.512091 -1.371803 6.201756
0.547363 -1.552767 6.711657
0.479130 -1.208931 7.177217
0.395331 -0.785032 7.371018
0.468037 -1.156080 7.963022
0.577276 -1.713615 8.861501
0.600530 -1.833403 9.309994
0.590846 -1.786846 9.898547
0.598398 -1.826853 10.300989
0.545642 -1.561072 10.676204
0.483273 -1.246017 10.923192
0.352438 -0.584291 11.250278
0.584535 -1.142088 3.656983
0.506470 -0.877125 3.933394
0.829294 -1.981007 5.557671
0.652332 -1.379447 5.872198
0.564540 -1.081644 6.243538
0.655087 -1.391286 6.706245
0.619620 -1.271901 7.169032
0.446183 -0.682406 7.505419
0.725425 -1.637229 8.899041
0.759661 -1.755111 9.346705
0.771734 -1.798068 9.975294
0.720157 -1.623689 10.388660
0.669721 -1.453197 10.803785
0.553297 -1.057434 11.012784
0.660049 -1.009734 3.592510
0.796767 -1.358879 6.417472
0.716135 -1.157641 6.835140
0.846980 -1.491257 9.301069
0.893571 -1.609080 9.747345
0.926701 -1.693352 10.282636
0.840791 -1.478572 10.564704
0.712201 -1.157412 11.128975
0.525397 -0.689414 11.305124
0.762922 -0.948536 3.573476
0.930056 -1.275308 6.627102
0.789703 -1.006184 6.998704
0.995256 -1.404999 9.047911
1.074938 -1.559213 9.628419
1.134649 -1.674789 10.071284
1.032476 -1.479297 10.575986
0.847922 -1.125315 11.006490
0.632987 -0.712301 11.086132
0.786735 -0.762828 3.786060
1.364868 -1.645580 5.369149
1.219052 -1.423952 5.642637
0.998418 -1.088468 5.964535
0.822718 -0.821840 6.572078
0.876861 -0.904989 7.036720
1.050062 -1.172271 9.372504
1.146844 -1.320525 9.953838
1.168985 -1.354853 10.357966
1.070513 -1.205535 10.774775
0.915500 -0.969725 10.930126
0.523789 -0.373885 11.353382
0.922743 -0.790254 3.380697
0.876256 -0.731603 3.904792
1.527196 -1.564905 5.486824
1.278446 -1.247712 5.805673
0.970245 -0.854868 6.317046
1.004051 -0.898475 6.644163
0.896543 -0.761957 7.205438
1.286242 -1.262445 9.348926
1.419812 -1.433656 9.838022
1.312643 -1.297678 10.478225
1.145730 -1.085061 10.856749
0.923853 -0.802216 11.200928
0.963558 -0.656155 3.465662
0.987932 -0.681878 3.801102
1.718488 -1.442710 5.383536
1.429921 -1.143592 5.932661
1.180179 -0.884704 6.395702
1.062284 -0.762620 6.722280
0.975191 -0.672704 7.188954
1.414620 -1.131767 9.328355
1.507863 -1.229438 10.000470
1.472598 -1.193238 10.363273
1.348338 -1.064649 10.779033
1.034667 -0.739157 11.082068
1.104298 -0.636827 3.473993
1.785789 -1.226983 5.522955
1.472465 -0.957289 6.072736
1.349739 -0.851516 6.163954
1.177382 -0.703542 6.814717
0.983808 -0.536859 7.096354
1.530627 -1.010984 9.278570
1.531878 -1.012856 10.001636
1.593600 -1.066443 10.312147
1.457829 -0.949773 10.726967
1.056884 -0.604424 11.215932
1.878574 -1.030524 5.566621
1.581487 -0.822124 6.023609
1.368452 -0.672631 6.299726
1.184310 -0.543832 6.950478
1.049385 -0.449306 7.276905
0.769640 -0.252876 7.516505
1.654100 -0.876886 9.676692
1.793899 -0.975528 10.028209
1.655169 -0.878642 10.665197
1.360636 -0.671915 11.002727
0.948016 -0.382002 11.176230
1.897350 -0.798150 5.720725
1.711825 -0.693641 5.902729
1.236060 -0.425764 6.505412
1.208323 -0.410380 6.784754
1.140906 -0.372696 7.157460
0.723312 -0.137344 7.447662
1.902176 -0.804019 9.016114
1.893233 -0.799447 9.513150
1.809716 -0.752757 9.967742
1.615647 -0.643736 10.475016
1.507240 -0.583091 11.023451
0.953727 -0.270989 11.253472
1.253079 -0.300341 3.845525
2.009254 -0.640977 5.421444
2.007460 -0.640552 5.839333
1.481456 -0.404807 6.065426
1.117666 -0.241920 6.392989
1.037837 -0.206664 7.001378
0.680656 -0.046749 7.337565
2.061940 -0.668115 9.268082
2.017067 -0.648522 9.855746
1.849072 -0.573541 10.269682
1.600894 -0.462558 10.646144
1.320465 -0.337196 11.119492
1.174356 -0.148594 3.830399
2.090133 -0.462625 5.364136
1.957250 -0.417659 5.825908
1.448199 -0.244171 6.193387
1.239961 -0.173439 6.613950
1.165061 -0.148194 6.987841
0.964223 -0.079991 7.411303
2.029930 -0.445253 8.988141
2.145566 -0.485129 9.435998
2.014817 -0.440966 9.981925
1.879868 -0.395172 10.304228
1.635572 -0.312287 10.905332
1.157331 -0.149148 11.078353
1.283378 -0.054098 3.457182
1.021830 0.006412 4.118123
1.535835 -0.114031 4.605611
1.717787 -0.157284 5.501757
1.276392 -0.054569 5.919193
1.375483 -0.077908 6.153905
1.373416 -0.077983 6.806695
0.903734 0.031448 7.094071
1.976319 -0.220795 9.180900
2.097182 -0.249400 9.628550
2.004625 -0.228175 10.083492
1.916813 -0.208058 10.538446
1.692299 -0.155875 10.823165
1.071972 -0.011216 11.051291
1.122045 0.099687 3.732123
1.138095 0.097188 4.305331
1.438110 0.059052 4.786338
1.590188 0.039293 5.541390
1.464424 0.054914 5.774995
1.280807 0.077537 6.336411
1.057165 0.105115 6.992929
1.163449 0.091553 7.224856
2.229667 -0.043947 8.898785
2.259614 -0.048054 9.304880
2.071341 -0.024721 9.718163
1.937685 -0.008370 10.265725
1.850055 0.002270 10.721424
1.530862 0.042207 10.968937
0.807401 0.133033 11.163448
1.189219 0.189509 3.596171
1.182974 0.189095 4.407494
1.468973 0.176538 5.123611
1.639498 0.168974 5.643637
1.452272 0.176338 6.204303
1.240130 0.185053 6.393436
1.021423 0.193846 6.817970
1.568960 0.170373 7.507741
2.240504 0.141156 8.867351
2.227454 0.141287 9.365949
1.996680 0.150517 9.872501
1.984662 0.150793 10.145276
1.855148 0.155753 10.694027
1.455737 0.172096 11.128536
1.141085 0.300743 3.638286
1.350010 0.311621 4.074294
1.543994 0.321503 4.742360
1.659497 0.327207 5.355877
1.519195 0.319269 5.822439
1.158111 0.299452 6.290029
1.076111 0.294727 6.665579
1.574920 0.320913 7.448976
2.332765 0.360710 8.624832
2.141567 0.349892 9.262715
2.084327 0.346509 9.626400
2.080613 0.345897 10.122269
1.899233 0.335792 10.537006
1.629890 0.320986 10.914748
0.955868 0.284450 11.238755
1.108307 0.415751 3.830399
1.298203 0.444998 4.499990
1.599148 0.491839 4.977789
1.580506 0.488362 5.632407
1.183788 0.425811 5.956479
1.092028 0.410895 6.564383
1.278323 0.439711 7.073909
1.646705 0.497041 7.668356
2.199121 0.583192 8.343571
2.185329 0.580419 9.066863
2.265691 0.592582 9.603811
2.122403 0.569820 9.923262
1.851174 0.526928 10.295591
1.803912 0.519204 10.657631
1.447960 0.463041 10.996186
1.173918 0.541617 4.037423
1.245837 0.559314 4.512024
1.441747 0.608061 5.174276
1.646210 0.658967 5.830231
1.344753 0.582767 6.199209
1.265589 0.562521 6.570493
1.138503 0.529933 7.267486
1.547632 0.632493 7.766419
2.179215 0.790863 8.482929
2.251614 0.808625 9.021506
2.201604 0.795536 9.605948
2.149914 0.782216 9.965337
1.934558 0.727575 10.467581
1.622336 0.648774 10.709618
1.199259 0.541826 11.235174
1.509593 0.784830 5.131527
1.450370 0.762906 6.295631
1.206343 0.676548 6.574139
1.171380 0.663760 7.084854
2.205018 1.026875 8.936848
2.155006 1.008712 9.521896
2.151795 1.007146 10.012391
2.018894 0.959969 10.329427
1.727297 0.856663 10.791995
1.266097 0.693571 11.183126
2.025606 1.216818 4.766383
1.813872 1.116752 5.178514
1.798434 1.108885 5.828943
1.631734 1.029892 6.382623
1.317336 0.881655 6.614040
1.160027 0.807079 7.172311
1.416964 0.927544 7.722259
1.843284 1.127473 8.580866
2.111320 1.253386 8.888509
2.101551 1.248334 9.381035
2.059660 1.228077 9.962917
1.931699 1.167539 10.280143
1.615856 1.018325 10.834827
1.361804 0.898574 10.986116
1.841888 1.360504 4.894703
1.641513 1.242140 5.307192
1.749930 1.304982 6.329217
1.172965 0.964907 6.743302
1.146637 0.949138 7.021992
1.310563 1.044936 7.757730
2.013549 1.457550 9.057183
2.083618 1.498286 9.592182
1.923419 1.403578 10.000643
1.801270 1.331358 10.319425
1.500404 1.153693 10.875877
1.224786 0.991192 11.121746
1.877998 1.671135 4.703642
1.366739 1.296238 5.007805
1.474028 1.374028 5.800407
1.468608 1.369391 6.447088
1.189456 1.164630 6.676161
0.978626 1.009635 7.186519
0.991788 1.018851 7.601331
1.725459 1.554771 9.170388
1.793034 1.603730 9.704191
1.817315 1.621340 9.879691
1.637882 1.489360 10.379093
1.389006 1.306540 10.842028
0.951318 0.985592 11.102352
1.754412 1.870400 4.616050
1.475425 1.623045 5.065431
1.276271 1.446527 5.335812
1.576144 1.711290 5.852758
1.439580 1.589846 6.401142
1.042207 1.237832 6.766743
0.883462 1.096909 7.181783
0.829512 1.048764 7.549622
1.636137 1.760358 9.469937
1.565357 1.697233 9.918255
1.536832 1.671349 10.498128
1.434492 1.580444 10.814878
1.057546 1.246730 10.978144
0.980070 1.430647 2.892932
1.478106 1.974331 4.987439
1.171472 1.636993 5.804357
1.260218 1.733594 6.404006
1.000704 1.448840 6.490603
0.915965 1.355327 6.950297
0.863574 1.297125 7.548029
1.314978 1.789972 9.389531
1.524131 2.018734 9.913520
1.552204 2.049037 10.309888
1.335511 1.811068 10.544896
1.004971 1.448043 10.929304
0.857219 1.515562 2.499679
0.824094 1.471348 3.165105
1.552903 2.421224 5.274716
1.233044 2.002912 5.393807
1.011748 1.712995 5.847824
1.067627 1.785412 6.310361
0.823392 1.465372 6.861926
0.668869 1.262984 7.140259
0.432740 0.953844 7.470713
1.175129 1.922151 9.084358
1.386524 2.197906 9.522041
1.359529 2.161822 10.102521
1.281599 2.059208 10.641434
1.063281 1.773351 10.972562
0.734076 1.342629 11.232850
0.653001 1.491832 2.684276
0.714531 1.589287 3.071425
1.371925 2.634084 4.910792
1.128917 2.244891 6.135961
0.965319 1.983603 6.498198
0.778077 1.684482 6.956539
0.545929 1.313857 7.375352
0.246152 0.836092 7.386515
1.064542 2.137402 9.266216
1.153531 2.278670 9.619119
1.222195 2.387410 10.060052
1.104879 2.199665 10.558261
0.872260 1.828141 11.073037
0.625029 1.434013 11.149329
0.589725 1.699842 2.405400
0.564841 1.649354 3.069979
0.541073 1.601780 3.351981
1.104083 2.712998 5.182268
1.023868 2.553617 5.496649
1.001343 2.508096 5.999481
0.941703 2.389189 6.453754
0.782855 2.073881 6.906986
0.708571 1.926232 7.226760
0.493519 1.499978 7.505926
0.339799 1.194795 7.973629
1.036594 2.571642 9.384080
1.034214 2.566030 9.873296
0.933827 2.366375 10.370147
0.770859 2.043141 10.699284
0.491042 1.488370 11.142070
0.455405 1.817909 2.284583
0.414425 1.711754 3.040346
0.280981 1.371188 3.260128
0.851796 2.821542 5.150308
0.813978 2.723821 5.741706
0.800925 2.689939 6.013470
0.703003 2.439267 6.509056
0.609596 2.200618 6.778787
0.515032 1.958491 7.280596
0.325363 1.474820 7.421596
0.134970 0.988761 7.801524
0.782890 2.636197 9.432755
0.766505 2.593124 10.011296
0.700565 2.424162 10.416963
0.568892 2.087860 10.745434
0.404390 1.667976 11.040639
0.091171 0.869212 11.286673
0.200881 1.682277 2.576353
0.230952 1.793659 2.961989
0.197054 1.664737 3.571506
0.548684 2.976414 5.212681
0.512721 2.840266 5.663949
0.452748 2.613612 6.296572
0.421789 2.496939 6.520760
0.319280 2.111257 7.064746
0.254357 1.867216 7.338455
0.097372 1.278940 7.436469
0.445204 2.575063 9.490530
0.468074 2.659011 10.020480
0.401259 2.406875 10.607659
0.332565 2.148404 10.976474
0.179056 1.573057 11.103241
0.113018 2.015506 2.240667
0.073331 1.788724 2.800442
0.064956 1.738269 3.464426
0.268532 2.877402 5.657268
0.253521 2.790900 6.021222
0.230628 2.659460 6.475610
0.169387 2.311471 6.928636
0.094099 1.885451 7.111827
0.049700 1.632301 7.620544
0.163154 2.270624 8.113929
0.222936 2.605005 8.786323
0.236842 2.680975 9.322545
0.259023 2.804122 9.765090
0.206279 2.503037 10.443929
0.143449 2.146664 10.774780
0.087726 1.830834 11.018602
-0.006690 1.296407 11.283747
-0.097943 1.904705 2.419730
-0.099834 1.874707 2.848401
-0.099045 1.878877 3.419788
-0.078263 2.148170 4.140384
-0.017655 2.941035 5.565903
-0.031277 2.753208 6.110777
-0.043891 2.581359 6.428243
-0.073142 2.187524 6.745136
-0.075470 2.150845 7.250143
-0.063834 2.296995 8.070402
-0.051500 2.455045 8.656909
-0.049075 2.482897 9.062154
-0.036481 2.646986 9.417285
-0.026712 2.772422 9.860248
-0.052864 2.417349 10.409308
-0.072779 2.147472 10.781223
-0.111894 1.620157 11.265125
-0.177252 0.747757 11.292105
-0.269462 1.718012 2.693552
-0.269683 1.747038 3.029508
-0.272208 1.925832 3.702679
-0.274895 2.113720 4.369825
-0.285572 2.791959 5.602030
-0.280956 2.555131 6.238649
-0.273858 2.158918 6.554700
-0.273665 2.167668 6.968479
-0.275423 2.309195 7.790457
-0.278646 2.509069 8.061504
-0.276191 2.399526 8.740809
-0.278694 2.561769 9.097497
