0.239380 1.184222 3.627161
0.238359 1.011561 3.843812
0.238127 0.958285 4.802646
0.237235 0.806002 5.088664
0.240091 1.267290 5.871482
0.239868 1.232746 5.708234
0.239373 1.142658 6.234336
0.238079 0.922302 6.610342
0.237593 0.834264 7.087039
0.070566 2.465768 0.220582
0.089519 2.177967 0.882424
0.115176 1.787443 1.137122
0.149629 1.264310 2.374396
0.174649 0.883440 2.599571
0.166954 1.000929 2.781047
0.146549 1.311949 2.881351
0.141622 1.387952 3.537538
0.154999 1.184123 3.516808
0.171841 0.928033 3.863756
0.181865 0.776697 4.839548
0.180996 0.790846 5.467088
0.163052 1.063985 5.302897
0.151104 1.246600 5.707546
0.160489 1.104029 5.996540
0.171416 0.937802 6.169860
0.183166 0.759584 6.726498
0.184504 0.739668 7.061581
-0.039354 2.083613 0.995490
0.059079 1.333878 1.882035
0.117872 0.886156 2.524222
0.116314 0.898125 2.656303
0.102476 1.003662 2.719223
0.085460 1.133593 3.017695
0.092928 1.076934 3.396396
0.101750 1.009877 3.658677
0.137083 0.740696 3.890451
0.156991 0.589179 4.232251
0.175072 0.451637 4.638529
0.145337 0.678828 5.357258
0.100650 1.019619 5.551078
0.076368 1.205020 5.956855
0.069227 1.259633 6.204838
0.105144 0.985932 6.343553
0.126510 0.823182 6.520825
0.129425 0.801203 6.855832
-0.231032 2.356362 0.289663
0.064155 0.869370 2.249651
0.059085 0.895073 2.559573
0.052147 0.930223 2.928643
0.045579 0.963482 3.237818
0.061913 0.881216 3.380552
0.062339 0.879424 4.120779
0.073072 0.825758 5.024325
0.085387 0.763782 5.233809
0.044513 0.969828 5.268431
-0.000627 1.197675 5.910877
0.005197 1.168476 6.238939
0.061593 0.884239 6.317560
0.068211 0.851224 7.032079
0.108290 0.649202 7.033398
0.065601 0.654319 1.911595
0.058634 0.680566 2.285061
-0.028086 1.005719 2.689579
-0.004223 0.916317 2.771592
0.009699 0.864298 3.212029
0.033153 0.776428 3.296260
0.017272 0.836125 3.787265
0.050093 0.713309 4.307377
0.037194 0.761976 5.202022
0.011222 0.859313 5.196766
-0.048228 1.082349 5.843298
-0.062031 1.134171 6.090608
-0.044329 1.067881 6.241706
-0.008887 0.935161 6.535126
0.062025 0.669450 6.675440
-0.567515 2.400860 -0.071148
-0.007227 0.745431 1.801177
-0.083803 0.971914 2.335482
-0.090727 0.992451 2.584876
-0.030844 0.815505 2.734703
-0.017686 0.776778 3.294858
-0.005608 0.741230 3.797829
0.028227 0.641216 3.762818
-0.003043 0.733833 4.434726
0.047109 0.585690 4.718886
0.119278 0.372346 4.581630
0.014954 0.680890 5.283647
-0.076666 0.951650 5.180277
-0.150354 1.169628 5.823012
-0.092490 0.998638 5.935406
-0.007628 0.747881 6.129926
0.023359 0.656436 6.605986
0.035041 0.621989 6.881679
-0.062722 0.760747 2.080370
-0.153786 0.981646 2.551280
-0.120375 0.900675 2.689779
-0.099192 0.849425 3.127490
-0.023841 0.666746 3.160090
-0.027157 0.674998 4.024033
0.016479 0.569177 3.928205
-0.026134 0.672814 5.239791
-1.404931 4.015854 5.892980
-0.146774 0.965560 6.276564
-0.083777 0.812866 6.450865
-0.043286 0.714798 6.866921
-0.872503 2.307511 0.253216
-0.157794 0.849437 2.144882
-0.252110 1.041942 2.320119
-0.215419 0.967109 2.519070
-0.179370 0.893588 2.719300
-0.123765 0.780265 3.409773
-0.094023 0.719627 3.674503
-0.010988 0.550204 3.773649
-0.054158 0.638442 4.449156
-1.985721 4.580235 5.086349
-1.977255 4.562939 4.996078
-1.968944 4.545959 4.905732
-1.950671 4.508732 5.190846
-1.987986 4.585048 5.984232
-1.085881 2.324993 0.064767
-1.036435 2.240055 -0.202116
-0.371302 1.098590 2.185554
-0.434325 1.206845 2.485575
-0.404918 1.156439 2.920607
-0.302456 0.980527 2.896554
-0.233696 0.862586 3.468023
-0.142305 0.705714 3.626978
-0.063813 0.571022 3.968709
-0.096304 0.626884 4.404762
-2.209299 4.254537 4.614783
-2.334661 4.469891 5.316519
-2.335703 4.471593 4.851563
-2.446042 4.661204 5.815352
-2.355626 4.505917 5.497807
-2.283196 4.381617 5.756347
-0.618542 1.334233 2.370723
-0.633958 1.357179 2.674829
-0.517231 1.183805 2.589153
-0.360607 0.951228 2.807209
-0.164336 0.659811 3.280183
-0.121717 0.596549 3.485049
-0.122302 0.597543 4.233662
-0.058142 0.502239 4.140379
-2.493244 4.118964 5.211056
-2.526539 4.168457 5.476133
-2.527922 4.170514 5.486849
-2.631071 4.323765 5.828388
-2.578568 4.245723 5.435047
-2.539880 4.188359 5.999549
-1.306088 2.092463 0.007916
-1.306084 2.092486 0.189920
-0.612909 1.185005 1.865795
-0.873754 1.526652 2.255472
-0.209495 0.656949 3.366931
-0.108034 0.524125 3.645157
-0.096011 0.508568 4.861468
-0.210116 0.658067 5.338272
-0.317188 0.798259 5.194437
-0.293903 0.767818 5.524473
-0.304155 0.781332 6.094938
-0.751916 1.212694 1.770784
-1.133012 1.648764 2.723088
-1.240446 1.771599 2.317533
-0.236359 0.623264 3.956474
-0.172288 0.549977 3.982366
-0.198028 0.579547 4.877196
-0.329400 0.729900 5.410847
-0.330921 0.731641 5.422750
-0.379952 0.787779 5.792649
-0.732685 1.053977 0.707728
-0.595586 0.917943 0.961602
-0.616324 0.938612 1.624226
-0.848131 1.168727 2.028510
-1.303564 1.620795 2.510412
-1.536041 1.851557 2.776245
-1.695357 2.009702 2.990708
-0.232723 0.558238 4.196506
-0.150967 0.477170 4.748619
-0.315379 0.640439 5.465027
-0.370250 0.694881 5.338003
-0.448752 0.772864 5.886650
-0.805114 1.007473 0.935056
-0.736379 0.947739 1.186518
-0.585974 0.816961 1.207560
-0.919743 1.107274 1.962898
-1.372079 1.500584 1.933591
-1.799828 1.872614 2.691935
-1.942518 1.996671 2.572266
-1.974214 2.024280 2.970778
-1.909911 1.968385 3.104277
-0.291719 0.561409 3.688124
-0.236064 0.513198 5.156668
-0.354803 0.616480 5.450975
-0.466644 0.713757 5.682741
-0.451831 0.700925 6.073493
-3.053054 2.962715 5.891961
-0.798679 0.900542 1.271349
-0.742371 0.857684 1.819257
-0.904759 0.981475 1.877232
-1.397946 1.357448 2.135511
-1.909593 1.747517 2.603235
-2.077644 1.875630 2.705897
-2.265563 2.018913 3.025990
-2.345608 2.079928 3.025717
-2.342246 2.077452 3.760055
-0.326561 0.541099 4.997295
-3.124588 2.674091 6.151641
-3.239970 2.762015 5.905203
-3.010238 2.586906 5.986967
-0.929216 0.896040 0.973550
-0.846313 0.840948 0.989228
-0.871180 0.857548 1.648913
-1.136580 1.033949 1.934597
-1.599725 1.341803 2.595774
-2.002241 1.609269 2.392371
-2.278625 1.792973 2.708153
-2.454961 1.910167 2.808469
-2.581372 1.994221 3.244268
-2.754827 2.109575 3.999066
-2.722006 2.087734 3.740857
-2.757826 2.111570 4.021792
-2.811777 2.147466 4.409709
-3.051994 2.307207 5.363257
-3.194428 2.401895 5.670056
-3.238064 2.430869 5.448437
-0.895852 0.780506 0.822252
-0.900855 0.783392 1.012225
-0.921563 0.795313 1.555179
-1.024086 0.854074 1.855958
-2.144986 1.496271 2.864015
-2.474849 1.685296 3.504245
-2.605861 1.760301 3.108036
-2.693300 1.810389 3.108403
-2.938869 1.951192 4.349676
-2.943900 1.954010 3.754829
-3.004288 1.988650 4.196262
-3.115334 2.052278 4.351887
-3.133224 2.062538 4.468646
-3.195329 2.098155 4.851091
-3.302313 2.159503 5.443897
-0.261010 0.417483 6.712247
-0.115320 0.334089 7.281413
-0.853787 0.675475 0.760295
-0.878338 0.687550 1.483089
-0.971491 0.733086 1.550584
-1.287872 0.887795 2.303512
-1.638674 1.059236 2.169475
-2.010390 1.240928 2.319428
-2.323256 1.393892 2.806393
-2.548895 1.504218 3.237859
-2.741040 1.598139 3.334348
-2.857769 1.655212 3.550675
-3.113608 1.780371 4.679322
-3.250068 1.847093 4.939595
-3.170797 1.808301 4.471026
-3.313403 1.878084 5.282549
-3.192587 1.819069 5.603577
-0.707974 0.604762 6.066083
-0.435527 0.471605 6.083544
-0.373943 0.441569 6.683149
-1.997982 1.072144 0.134803
-2.090516 1.110176 0.035494
-0.902835 0.622000 1.027156
-0.914217 0.626710 1.334763
-1.015195 0.668243 1.518876
-1.400932 0.826855 1.799466
-1.626354 0.919588 2.372873
-1.759916 0.974544 2.833009
-0.312348 0.379544 4.030080
-0.259161 0.357771 4.946621
-0.251441 0.354592 4.898555
-0.480674 0.448913 5.677260
-0.540461 0.473474 5.490083
-0.772527 0.568952 6.197937
-0.684836 0.532904 6.232145
-0.741374 0.556218 6.922497
-1.043375 0.595318 1.213187
-1.054114 0.598950 1.459819
-0.854851 0.531978 1.244153
-0.979978 0.574079 1.841613
-1.378429 0.707983 2.117515
-1.482357 0.742913 2.236731
-1.462970 0.736481 3.067590
-1.106668 0.616790 3.299536
-0.724761 0.488472 3.298633
-0.399698 0.379301 3.779541
-0.228879 0.321923 3.939066
-0.264537 0.333992 4.838867
-0.475140 0.404818 5.496891
-0.652268 0.464323 5.410146
-0.815463 0.519190 5.759245
-0.865617 0.536066 6.007885
-0.890928 0.544626 6.574591
-0.879757 0.472296 1.019006
-0.889091 0.474786 1.269628
-0.994283 0.502586 1.455872
-1.222960 0.563039 2.044864
-1.357219 0.598544 2.517015
-1.379888 0.604555 2.763020
-1.225144 0.563723 3.147614
-0.862600 0.467994 3.384375
-0.487378 0.368905 3.506212
-0.304447 0.320601 3.605089
-0.178636 0.287487 4.782204
-0.348232 0.332320 5.202094
-0.512320 0.375691 5.557509
-0.800041 0.451725 6.007540
-1.016592 0.508927 6.095217
-0.976671 0.498410 6.365487
-0.804393 0.452921 6.482166
-1.000421 0.432285 0.806470
-0.921765 0.416934 1.355772
-1.152604 0.462197 1.960298
-1.361765 0.503173 2.133738
-1.283452 0.487861 2.387660
-1.207513 0.473015 2.643219
-0.951096 0.422839 3.039537
-0.722498 0.378128 3.622632
-0.432114 0.321268 3.673691
-0.287870 0.293059 4.076608
-0.112866 0.258804 4.240016
0.158229 0.205733 4.420355
0.067379 0.223578 4.987560
-0.364007 0.308074 5.174202
-0.746222 0.382964 5.610972
-0.989101 0.430547 5.820665
-0.920583 0.417143 5.972461
-0.892175 0.411612 6.303225
-1.130781 0.379328 0.977729
-1.164851 0.383780 1.718282
-1.227460 0.391911 2.552035
-1.208168 0.389409 2.328767
-1.048796 0.368953 2.770523
-0.864493 0.345264 2.920746
-0.510784 0.299811 3.335446
-0.336990 0.277479 3.552527
-0.181045 0.257455 3.894167
0.002626 0.233907 4.684484
0.078327 0.224185 4.835720
-0.227332 0.263499 4.858774
-0.488760 0.297154 5.199062
-0.802306 0.337535 5.771699
-0.901808 0.350331 5.762956
-0.980226 0.360451 6.130287
-0.884535 0.348189 6.601987
-1.190463 0.306088 1.763986
-1.103253 0.300716 1.960288
-1.135909 0.302774 2.386053
-1.075949 0.299108 2.821267
-0.930848 0.290187 3.329891
-0.528886 0.265340 3.330269
-0.401637 0.257529 3.912391
-0.214210 0.245953 4.014152
0.016557 0.231734 4.500048
0.031520 0.230858 5.021657
-0.276509 0.249901 5.044339
-0.565450 0.267804 5.504881
-0.811868 0.283056 5.718378
-0.937060 0.290805 5.830202
-1.017245 0.295797 6.198954
-0.880162 0.287351 6.494247
-1.130437 0.227574 2.097583
-1.154950 0.227504 2.404923
-1.089216 0.227802 2.780672
-0.823325 0.228897 3.121434
-0.632711 0.229667 3.216391
-0.411800 0.230611 3.869363
-0.267710 0.231225 4.274818
0.116763 0.232774 4.407585
0.066126 0.232601 4.727522
-0.195901 0.231587 5.073260
-0.560289 0.230160 5.393920
-0.769860 0.229373 5.925375
-0.844965 0.229061 5.796839
-0.951186 0.228682 6.283983
-0.925754 0.228814 6.614983
-1.073714 0.152328 2.470482
-1.090873 0.151060 2.659313
-0.992691 0.158418 2.680315
-0.838250 0.170031 3.128655
-0.648061 0.184290 3.222489
-0.388306 0.203784 3.571469
-0.132953 0.222950 3.926751
0.117891 0.241778 4.288278
0.038649 0.235888 4.793411
-0.257003 0.213787 5.321590
-0.564596 0.190742 5.338407
-0.687827 0.181520 5.451443
-0.762503 0.175959 5.822408
-0.815908 0.171982 6.073026
-0.898951 0.165794 6.442198
-1.060103 0.091830 2.218684
-0.953191 0.106177 2.119310
-1.034471 0.095348 3.020570
-0.820034 0.124129 2.874634
-0.649357 0.147074 3.146951
-0.397660 0.180911 3.555842
-0.151987 0.213940 3.972148
0.194756 0.260537 4.348898
0.252880 0.268368 4.624221
-0.135449 0.216271 5.140752
-0.463239 0.172268 5.281015
-0.608671 0.152761 5.515220
-0.658971 0.146030 5.767355
-0.724427 0.137270 6.078928
-0.738338 0.135451 6.591872
-0.658833 0.146136 6.686698
-2.260420 -0.220157 -0.340834
-2.158925 -0.199617 0.010203
-1.055930 0.023436 2.112826
-1.003477 0.034087 2.667345
-0.993884 0.036015 2.561707
-0.822189 0.070731 2.831730
-0.659624 0.103608 3.165251
-0.396519 0.156794 3.454472
-0.225024 0.191533 4.386922
-0.187930 0.199065 4.782529
-0.501073 0.135858 5.428819
-0.658377 0.104104 5.723723
-0.564988 0.122976 5.756932
-0.599845 0.115994 6.393618
-0.480416 0.140116 6.308223
-0.484379 0.139359 6.767279
-0.960916 -0.025730 2.149239
-0.910196 -0.011604 2.706980
-0.911507 -0.011967 2.721159
-0.852585 0.004417 3.103031
-0.649998 0.060614 3.019047
-0.440395 0.118834 3.732417
-0.348005 0.144538 4.469842
-0.283063 0.162575 4.680851
-0.471983 0.110215 5.222656
-0.613039 0.071104 5.457874
-0.567162 0.083859 5.730797
-0.310645 0.155044 5.925128
-0.375984 0.136991 6.688983
-0.365033 0.140024 6.640828
-0.778220 -0.025798 2.291150
-0.897436 -0.067380 2.593060
-0.804466 -0.034927 2.614307
-0.839012 -0.046949 2.984663
-0.652449 0.018175 3.017873
-0.446793 0.090030 3.729105
-0.310907 0.137566 4.794572
-0.373355 0.115806 5.171804
-0.593011 0.039151 5.328996
-0.465662 0.083637 5.681518
-0.318306 0.135095 5.916093
-0.197982 0.177130 6.275470
-0.348473 0.124668 6.958576
-1.984468 -0.589673 0.389103
-0.853661 -0.109933 2.099240
-0.766774 -0.073077 2.178297
-0.790146 -0.082957 2.489193
-0.766251 -0.072748 3.228733
-0.591003 0.001583 3.323680
-0.470343 0.052880 4.560525
-0.308714 0.121442 4.726301
-0.521655 0.031209 5.448641
-0.658097 -0.026632 5.682188
-0.562148 0.014108 6.156849
-0.397084 0.084122 6.272490
-0.245107 0.148592 6.450186
-0.278348 0.134554 7.034665
-0.145175 0.191057 7.279121
0.372238 0.410510 7.502727
-2.119606 -0.809679 -0.187226
-2.029739 -0.764332 -0.119194
-0.830516 -0.159085 1.872347
-0.773910 -0.130474 2.370568
-0.798622 -0.142909 2.682444
-0.715988 -0.101209 2.764898
-0.699627 -0.092876 3.508472
-0.504612 0.005646 4.776485
-0.505948 0.005032 5.351394
-0.585730 -0.035227 5.285698
-0.596514 -0.040607 5.860483
-0.359801 0.078842 6.056774
-0.160748 0.179309 6.439768
-0.252751 0.132937 6.879962
-0.278662 0.119919 7.404578
-1.978713 -0.897867 -0.409871
-1.888377 -0.844537 0.055245
-0.844289 -0.228491 2.287825
-0.763488 -0.180826 2.367765
-0.773169 -0.186521 2.499465
-0.751084 -0.173415 3.239248
-0.581148 -0.073183 3.274260
-0.417760 0.023347 4.784844
-0.465265 -0.004637 5.100902
-0.580751 -0.072731 5.276989
-0.506639 -0.028956 5.871950
-0.431658 0.015327 6.411832
-0.315073 0.084121 6.713223
-0.246506 0.124573 6.810528
-0.200978 0.151492 7.422691
-1.912919 -1.021384 0.262797
-1.831181 -0.965739 0.390215
0.381639 0.540392 1.293994
0.206362 0.421128 1.549116
-0.730276 -0.216283 2.055592
-0.767353 -0.241455 2.605438
-0.768239 -0.242057 2.617107
-0.634065 -0.150695 3.008014
-0.563691 -0.102783 3.150898
-0.460965 -0.032650 5.080561
-0.462724 -0.033845 5.092387
-0.661693 -0.169181 5.808628
-0.371879 0.028096 6.084323
-0.201514 0.144044 6.077072
-0.259056 0.104917 6.394838
-1.762881 -1.083282 -0.069535
0.195342 0.447065 1.030668
0.167669 0.425532 1.792478
-0.307842 0.053957 1.831453
-0.629213 -0.197160 1.940228
-0.662863 -0.223389 2.493909
-0.612126 -0.183696 2.876988
-0.613194 -0.184528 2.890375
-0.601693 -0.175230 5.510520
-0.476056 -0.076970 6.215374
-0.203214 0.136271 6.499128
-0.185530 0.150130 6.841983
0.155170 0.449686 1.387951
0.235172 0.521118 1.217987
-0.620143 -0.242708 2.042068
-0.637983 -0.258603 2.354926
-0.576009 -0.203225 2.556444
-0.637472 -0.258022 3.350522
-0.394092 -0.040412 5.207390
-0.542547 -0.173009 5.183990
-0.475398 -0.112900 6.248222
-0.300457 0.043390 6.570339
-0.189510 0.142513 6.811325
0.210339 0.545375 0.770621
0.260547 0.596621 1.539662
0.194367 0.529192 1.422762
-0.540048 -0.218802 2.186139
-0.554328 -0.233314 2.439798
-0.604961 -0.284793 3.174166
-0.531642 -0.210112 3.137711
-0.278963 0.047322 3.499928
-0.874519 -0.559116 5.093469
-0.692978 -0.374159 5.338937
-0.427905 -0.104061 5.991359
-0.204427 0.123635 6.405288
-0.208152 0.119903 6.869042
-0.005888 0.325945 6.951438
0.163304 0.544893 1.296190
0.228177 0.620173 1.313121
-0.516623 -0.243966 2.015207
-0.610464 -0.352778 2.560683
-0.573066 -0.309319 3.002849
-0.535591 -0.265779 3.387206
-0.436914 -0.151220 3.786828
-1.200810 -1.037471 4.808227
-1.051691 -0.864379 5.223916
-0.819394 -0.594792 5.489038
-0.549398 -0.281503 5.458814
-0.431890 -0.144997 6.532798
-0.344285 -0.043300 6.834063
-0.195461 0.129437 7.162691
0.247939 0.714224 1.295936
0.236539 0.699166 1.686831
-0.504486 -0.283582 2.128229
-0.519476 -0.303414 2.441915
-0.551227 -0.345440 2.995806
-1.365878 -1.425638 4.721239
-1.117798 -1.096616 4.686739
-0.992477 -0.930322 5.218660
-0.246712 0.058998 6.608676
-0.027702 0.349567 7.231670
-1.267660 -1.509115 0.389776
-0.475459 -0.301576 1.879539
-0.503934 -0.344855 2.554328
-0.513728 -0.359748 2.746839
-0.545995 -0.408828 3.299646
-0.453881 -0.268402 3.576518
-1.189021 -1.388579 4.452660
-0.995375 -1.093417 4.762673
-0.159200 0.181227 6.778537
0.350166 1.090511 1.253405
-0.403537 -0.242139 1.826392
-0.480175 -0.377518 2.556444
-0.491915 -0.398229 2.810277
-0.492555 -0.399359 2.823432
-1.245826 -1.731041 4.468519
0.326436 1.211990 0.896763
-0.440140 -0.378814 2.157420
-0.448901 -0.396944 2.411571
-0.461144 -0.422287 2.725690
-0.440442 -0.379210 3.230949
-0.373920 -0.241053 3.630655
-1.081014 -1.708504 4.406662
-0.921858 -1.377996 5.196498
-0.747556 -1.016213 5.226183
-0.603526 -0.717188 5.611644
-0.456737 -0.412345 6.414307
-0.184246 0.153402 7.223609
0.243487 1.221852 1.190755
-0.424800 -0.431707 2.493188
-0.431368 -0.447913 2.686678
-0.433983 -0.454365 2.759763
-0.411254 -0.398020 3.144305
-0.359105 -0.268832 3.664502
-0.571929 -0.794992 5.821392
-0.347920 -0.313354 1.781936
-0.360344 -0.350792 2.338940
-0.368923 -0.376666 2.653567
-0.405980 -0.488777 2.837292
-0.396183 -0.458936 3.462474
-0.341578 -0.293589 3.681069
-0.516093 -0.821197 5.775017
-0.726883 -1.940616 0.536557
-0.632939 -1.566614 1.075618
-0.563768 -1.291246 1.449494
-0.490894 -1.001278 1.477093
-0.396966 -0.627444 1.749715
-0.353384 -0.453909 2.075960
-0.368691 -0.514532 2.811216
-0.375076 -0.539839 3.064349
-0.352790 -0.451136 3.148073
-0.309769 -0.279877 3.364908
-0.905967 -2.651527 4.824236
-0.689073 -2.474333 0.450473
-0.689266 -2.475353 0.518969
-0.620556 -2.099943 1.162095
-0.566203 -1.803264 1.127806
-0.513627 -1.516164 1.324376
-0.311376 -0.411506 2.514348
-0.334586 -0.538045 2.817794
-0.325023 -0.485616 3.261079
-0.271557 -0.193733 3.306646
-0.722240 -2.653261 4.533863
-0.716045 -2.618987 5.414297
-0.578085 -2.807141 0.332062
-0.529563 -2.411576 0.459739
-0.482698 -2.029164 1.046616
-0.448466 -1.749832 1.472444
-0.412062 -1.453107 1.500347
-0.364732 -1.067196 1.710917
-0.322676 -0.723845 2.465378
-0.299198 -0.532422 2.555503
-0.299337 -0.533548 2.568200
-0.293207 -0.483191 3.072707
-0.282079 -0.392433 3.156685
-0.553712 -2.605201 4.618016
-0.401287 -2.941978 0.577862
-0.318337 -1.495575 1.822216
-0.300788 -1.190143 1.737115
-0.273399 -0.712670 2.080136
-0.263400 -0.538033 2.409218
-0.265381 -0.571912 2.783729
-0.263159 -0.532302 3.349563
-0.252287 -0.342826 3.447128
-0.194436 -2.558896 0.202647
-0.190007 -2.863656 0.600251
-0.208716 -1.592349 1.432607
-0.223887 -0.563963 2.507063
-0.222870 -0.638059 3.242191
-0.225763 -0.440889 3.278131
-0.192242 -2.739653 5.065003
-0.042298 -2.368627 0.423557
-0.033775 -2.475077 0.771555
-0.057657 -2.178033 0.848095
-0.087380 -1.809082 1.562307
-0.095326 -1.710235 1.580034
-0.110158 -1.525999 1.836067
-0.175429 -0.715183 2.905328
-0.146655 -1.073779 3.419951
-0.145951 -1.082625 3.491526
-0.021334 -2.634821 5.013275
-0.034257 -2.474286 5.231196
-0.249334 0.199527 6.991102
0.126987 -2.465583 0.446380
0.018220 -1.724399 1.775936
0.006129 -1.642071 2.025851
-0.017220 -1.483701 3.451111
-0.026988 -1.417225 3.709316
0.119698 -2.418770 4.958319
0.107316 -2.334351 5.044912
-0.273854 0.265086 6.639475
0.191772 -2.003817 1.614513
0.106955 -1.607680 1.534478
0.077621 -1.471075 2.400078
0.072980 -1.449753 3.180499
0.144523 -1.784007 3.504324
0.100247 -1.577200 3.426631
0.020618 -1.205407 3.606934
-0.236843 -0.004297 6.414696
-0.285661 0.223541 6.741290
0.218074 -1.616092 1.861220
0.272858 -1.808841 1.860300
0.259525 -1.762153 2.513313
0.258408 -1.758207 2.468105
0.276370 -1.821627 3.113105
0.249574 -1.727356 3.136199
0.240572 -1.695871 3.679549
0.166375 -1.434899 3.906688
0.089921 -1.166178 4.707790
0.003101 -0.860889 5.205150
-0.043814 -0.695882 5.374131
-0.070344 -0.602722 5.906584
-0.183610 -0.204203 5.879237
-0.291295 0.174482 6.427440
-0.338852 0.341608 7.005207
0.253136 -1.401919 1.733171
0.355094 -1.688107 1.784726
0.431981 -1.904021 2.184668
0.447792 -1.948545 2.711045
0.454137 -1.966408 2.894304
0.434313 -1.910867 3.260367
0.372923 -1.738603 3.411677
0.286362 -1.495742 3.752270
-0.032695 -0.600673 5.370400
-0.056998 -0.532503 5.522712
-0.162888 -0.235425 5.979453
-0.289645 0.120182 6.591446
-0.362168 0.323628 6.983774
0.669987 -2.139312 2.059233
0.634381 -2.056793 2.192736
0.701908 -2.213525 2.931121
0.649170 -2.091181 2.614575
0.651548 -2.096912 3.545180
0.582927 -1.937870 3.755190
0.047541 -0.696999 5.381630
0.004272 -0.596793 5.854837
0.069793 -0.645991 1.779438
0.916352 -2.301053 2.480349
0.878941 -2.227959 2.670845
0.823952 -2.120609 3.382247
0.773045 -2.021074 3.294026
0.648074 -1.776816 3.515477
0.523942 -1.534200 3.740943
0.079579 -0.665831 5.224074
0.067597 -0.642488 5.615284
-0.564287 0.592439 7.204311
-0.361550 0.153428 1.349466
-0.145264 -0.209534 1.773350
1.075334 -2.257625 2.725657
0.974048 -2.087693 2.757057
0.929808 -2.013493 2.891606
0.859575 -1.895755 3.436993
0.096403 -0.615682 5.491250
0.065806 -0.564386 5.703243
-0.120807 -0.251325 5.916946
-0.307740 0.062186 6.589029
-0.513265 0.407010 6.627777
-0.541849 0.377354 1.326117
1.233964 -2.199587 2.927895
1.148391 -2.075493 3.355810
1.092929 -1.995023 3.380040
1.016286 -1.883896 3.871804
0.231892 -0.745988 5.304136
0.128275 -0.595660 5.414144
-0.698720 0.604078 6.742726
-0.632438 0.427139 1.099295
-0.804030 0.644580 1.632270
1.230166 -1.934262 2.642858
1.229845 -1.933986 3.513054
1.138777 -1.818486 3.141061
1.052349 -1.708998 3.633495
0.822809 -1.418053 3.873040
0.161969 -0.580554 5.376986
0.063784 -0.456123 5.609151
-0.729626 0.455083 1.072383
1.237901 -1.700184 2.749979
1.317897 -1.787828 2.921902
1.374817 -1.850269 3.612260
1.232033 -1.693866 3.537678
0.324916 -0.700539 5.254373
0.201762 -0.565663 5.364755
1.109835 -1.386363 2.454384
1.376910 -1.642663 3.121988
1.392652 -1.657789 3.304220
1.250485 -1.521408 3.340762
1.241971 -1.513325 3.995250
0.983486 -1.265392 4.298362
0.579490 -0.877865 4.594736
0.333422 -0.641853 4.972769
0.178661 -0.493450 5.461382
0.570918 -0.791740 2.342901
1.054778 -1.204292 2.712314
1.300924 -1.414165 2.924626
1.423693 -1.518893 3.439216
1.349430 -1.455585 3.464422
1.199709 -1.327947 3.502526
1.004427 -1.161505 3.844457
0.227222 -0.499129 5.594858
0.289291 -0.552149 6.451916
0.599489 -0.736024 1.978219
0.966658 -1.009647 2.664368
1.330921 -1.281082 3.155282
1.417060 -1.345262 3.212562
1.379423 -1.317272 3.637492
1.295029 -1.254395 3.605019
1.090209 -1.101843 3.947038
0.228357 -0.459929 5.395777
0.160859 -0.409653 5.487509
0.253922 -0.479105 6.513045
0.325563 -0.532522 6.886849
0.930121 -0.870484 2.383796
1.219655 -1.055733 2.834793
1.304532 -1.110023 2.836940
1.445054 -1.199972 3.413331
1.338967 -1.132176 3.970199
1.152713 -1.013025 3.837420
0.849378 -0.819033 4.141474
0.364120 -0.508792 5.504881
0.180985 -0.391643 5.434465
0.300711 -0.468353 6.580927
0.376746 -0.517029 6.954511
0.323124 -0.482748 7.111509
1.012613 -0.822591 2.725215
1.173475 -0.911148 2.542945
1.344274 -1.005288 3.414206
1.458703 -1.068321 3.643665
1.408768 -1.040859 3.957140
1.244431 -0.950380 4.055910
0.899413 -0.760410 4.126748
0.563092 -0.575301 4.883429
0.363779 -0.465599 5.309231
0.498324 -0.539813 6.520289
0.517925 -0.550661 7.035163
0.588452 -0.589528 7.346151
0.592202 -0.591636 7.742606
2.036698 -1.209099 -0.192945
1.944693 -1.166069 0.042761
0.973635 -0.711931 2.728055
1.170978 -0.804297 2.894978
1.297355 -0.863472 3.244349
1.298547 -0.864031 3.255463
1.229178 -0.831590 3.453158
1.197694 -0.816907 3.943815
0.970204 -0.710487 4.292347
0.686851 -0.577948 4.853653
0.490550 -0.486137 5.337335
0.504162 -0.492615 6.384253
0.557267 -0.517492 6.635363
0.695051 -0.582032 7.243613
0.740712 -0.603419 7.433373
0.876187 -0.591189 2.123691
1.104705 -0.680449 2.649633
1.198555 -0.717085 2.652730
1.319873 -0.764474 2.946581
1.392228 -0.792785 3.597661
1.308633 -0.760160 3.681396
1.140529 -0.694553 3.837785
0.897202 -0.599594 4.128577
0.702248 -0.523549 4.722670
0.549621 -0.463990 4.948889
0.409093 -0.409161 5.237913
0.248644 -0.346594 5.913680
0.327187 -0.377294 6.303027
0.549879 -0.464242 6.452173
0.736636 -0.537187 6.859758
0.973030 -0.629527 7.438924
0.766435 -0.548873 7.384631
0.744946 -0.540550 8.045151
0.924002 -0.535764 2.270676
1.239329 -0.635556 2.610965
1.400380 -0.686570 3.254555
1.395362 -0.684978 3.209871
1.475677 -0.710451 3.861055
1.250646 -0.639234 3.610784
1.101761 -0.592165 3.944319
0.880329 -0.522158 4.415689
0.750517 -0.481130 4.816905
0.615754 -0.438530 5.162747
0.729997 -0.474822 6.686694
0.839202 -0.509375 6.734665
0.962432 -0.548371 6.841158
1.004685 -0.561794 7.409445
0.854663 -0.514351 7.592431
0.430356 -0.380141 7.858229
2.137115 -0.762405 0.384434
0.940431 -0.469364 2.040696
1.060479 -0.498806 2.341867
1.314894 -0.561203 2.981376
1.431773 -0.589856 3.158371
1.433271 -0.590225 3.171758
1.387293 -0.579001 3.604360
1.315736 -0.561488 3.805976
1.166434 -0.524940 4.140642
0.934698 -0.468202 4.554502
0.688694 -0.407957 4.856122
0.435208 -0.345874 5.102480
0.194988 -0.287048 5.413627
0.560927 -0.376787 6.247360
0.914453 -0.463428 6.492230
0.987045 -0.481244 6.801699
1.033592 -0.492667 6.992402
1.002482 -0.485108 7.647771
0.681343 -0.406454 7.948541
0.984940 -0.410048 2.255195
1.201794 -0.448454 2.486951
1.322573 -0.469854 2.724606
1.513153 -0.503665 3.540817
1.493059 -0.500093 3.379488
1.441763 -0.491049 3.753632
1.281157 -0.462648 4.027771
1.160484 -0.441337 4.540446
0.921114 -0.399002 4.899031
0.653664 -0.351681 5.084164
0.376308 -0.302600 5.211548
0.060803 -0.246798 5.665196
0.425347 -0.311397 6.440406
1.031147 -0.418624 6.437478
1.075645 -0.426519 6.627393
1.004646 -0.414003 7.161298
0.737583 -0.366746 7.309777
1.029811 -0.352707 2.517586
1.245054 -0.377603 2.687885
1.492801 -0.406282 3.145891
1.528913 -0.410485 3.448159
1.560580 -0.414168 3.692062
1.521772 -0.409723 4.124148
1.284647 -0.382291 3.873694
1.267308 -0.380339 4.427854
0.994350 -0.348805 4.606295
0.721650 -0.317354 5.343374
0.419879 -0.282474 5.351866
0.091425 -0.244546 5.745261
1.165827 -0.368802 6.477399
1.072035 -0.357964 6.512652
1.235876 -0.376964 7.172028
1.016257 -0.351574 7.116956
0.841685 -0.331443 7.621104
1.028520 -0.276463 2.231163
1.275750 -0.287125 2.756587
1.470159 -0.295463 2.691651
1.534600 -0.298285 3.285852
1.604083 -0.301318 3.820574
1.467670 -0.295437 3.556624
1.470607 -0.295631 4.282161
1.266101 -0.286852 4.267587
1.049861 -0.277620 4.800374
0.810241 -0.267368 5.162294
0.442293 -0.251594 5.368393
0.099865 -0.236927 5.700574
1.249144 -0.286314 6.293803
1.265487 -0.287022 6.364377
1.217977 -0.285043 7.010835
2.360900 -0.179672 -0.105441
1.048585 -0.208949 2.284771
1.185798 -0.205950 2.700700
1.403512 -0.201146 2.868301
1.529365 -0.198382 3.102094
1.579839 -0.197303 3.519979
1.521364 -0.198627 3.835150
1.484575 -0.199482 4.268521
1.326645 -0.203005 4.545438
1.141201 -0.207120 4.648855
0.847445 -0.213629 4.710567
0.507988 -0.221180 5.091169
0.248741 -0.226943 5.339431
1.169842 -0.206600 5.864652
1.277305 -0.204266 6.346508
1.238508 -0.205150 6.616062
1.135437 -0.207470 7.029258
0.894478 -0.212830 7.294281
2.370623 -0.022442 0.539635
1.039648 -0.140716 2.012950
1.152975 -0.130674 2.194995
1.416317 -0.107366 2.892926
1.522786 -0.097921 2.952713
1.536792 -0.096690 3.080986
1.579480 -0.092935 3.441361
1.429720 -0.106264 3.828766
1.393041 -0.109561 4.264120
1.187514 -0.127858 4.853194
0.895392 -0.153793 4.917593
0.603323 -0.179722 4.982258
0.268873 -0.209444 5.369399
1.292240 -0.118705 6.364606
1.322613 -0.116021 6.493954
1.242652 -0.123127 6.588067
1.169920 -0.129633 7.119500
0.868525 -0.156387 7.147789
2.463171 0.134906 0.237228
1.078002 -0.073042 2.423372
1.395665 -0.025421 2.644286
1.524407 -0.006141 2.938406
1.608684 0.006431 3.647697
1.566478 0.000133 3.312382
1.588828 0.003400 4.209125
1.502044 -0.009623 4.295344
1.375838 -0.028594 4.749061
1.075639 -0.073617 4.754186
0.740748 -0.123878 5.134686
0.446718 -0.168030 5.705160
0.534269 -0.154893 5.638222
1.010559 -0.083494 5.988206
1.258226 -0.046370 6.193828
1.328605 -0.035844 6.499903
1.315731 -0.037847 7.264776
1.111960 -0.068444 7.649155
1.076176 0.004010 2.371634
1.179373 0.027202 2.435066
1.406913 0.078318 2.781181
1.554968 0.111555 3.248885
1.570161 0.114958 3.377674
1.578766 0.116885 3.448385
1.424377 0.082148 3.778169
1.405533 0.077859 4.330970
1.242454 0.041179 4.550087
0.965227 -0.021151 4.670020
0.622926 -0.098129 4.988837
0.329593 -0.164123 5.557869
1.194765 0.030329 5.898920
1.260625 0.045105 6.204379
1.248725 0.042393 6.591051
1.301846 0.054274 7.213947
1.052829 -0.001723 7.420766
2.421475 0.472163 -0.079471
1.047664 0.066921 2.022661
1.156806 0.099081 2.203975
1.410558 0.173826 2.901134
1.531559 0.209478 3.134546
1.595163 0.228178 3.668070
1.604185 0.230831 3.737322
1.518385 0.205527 3.820393
1.354110 0.157073 4.035083
1.264994 0.130732 4.722607
1.023558 0.059521 5.022204
0.796254 -0.007530 5.386570
0.399483 -0.124505 5.352966
1.277414 0.134240 6.306638
1.186506 0.107434 6.340638
1.390778 0.167614 6.797848
1.309507 0.143608 7.268897
0.989431 0.049249 7.180040
2.386517 0.628453 0.365130
1.039616 0.134179 2.000001
1.174064 0.183448 2.534448
1.394035 0.264110 2.877878
1.506114 0.305209 3.052840
1.513390 0.307871 3.121838
1.575351 0.330549 3.654941
1.513985 0.308011 3.911640
1.337554 0.243277 4.009490
1.186631 0.187884 4.284990
0.993156 0.116848 4.876794
0.800925 0.046275 5.418783
0.401683 -0.100178 5.324526
1.186060 0.187511 5.925591
1.237117 0.206216 6.171803
1.316420 0.235272 6.534674
1.275420 0.220168 7.180505
1.126116 0.165377 7.360601
0.869488 0.131351 2.347639
1.135135 0.249058 2.218250
1.340971 0.340223 2.508010
1.464110 0.394744 2.861178
1.585329 0.448419 3.153276
1.521385 0.420063 3.409860
1.430035 0.379515 4.147764
1.227086 0.289613 4.014753
1.141935 0.251816 4.706179
0.911878 0.149859 5.007993
0.764345 0.084472 5.236380
0.505961 -0.030069 5.868645
0.758438 0.081756 6.200774
1.004945 0.190987 6.030338
1.260502 0.304134 6.787085
1.352187 0.344756 6.775941
1.204675 0.279383 6.954141
1.086172 0.226811 7.632776
0.931565 0.226418 2.113742
1.227398 0.381500 2.516286
1.475100 0.511307 3.267936
1.570663 0.561411 3.327489
1.692664 0.625353 3.616703
1.569615 0.560783 4.061973
1.411973 0.478104 4.221684
1.230812 0.383111 4.207334
1.038060 0.281983 4.739403
0.844674 0.180527 5.220985
0.693001 0.100977 5.391003
0.792245 0.152958 5.942878
0.881321 0.199667 5.935020
1.004702 0.264347 6.104845
1.215338 0.374735 6.684640
1.310194 0.424430 7.107532
0.853251 0.248549 2.462348
1.190068 0.454002 2.381503
1.521811 0.656257 3.237575
1.686818 0.756911 3.168742
1.609059 0.709473 3.250123
1.556487 0.677372 3.563165
1.415552 0.591378 3.834015
1.239521 0.483936 4.474760
1.013795 0.346228 4.713068
0.826906 0.232181 5.193972
0.814603 0.224627 5.643133
0.692443 0.150138 5.435984
0.916887 0.286954 6.203969
0.953990 0.309565 6.394522
1.194787 0.456405 6.714444
1.356079 0.554749 7.053092
-0.120436 -0.368716 1.480481
-0.089432 -0.346941 2.114226
1.193741 0.557163 2.854343
1.424519 0.719803 2.662038
1.617450 0.855714 2.999996
1.681965 0.901101 3.643311
1.589757 0.836137 3.553779
1.489282 0.765273 4.113015
1.293835 0.627504 4.520652
0.949321 0.384753 4.420781
0.749230 0.243717 4.779776
0.660791 0.181338 5.307094
0.720586 0.223430 5.679382
0.833100 0.302694 5.850826
0.786742 0.270003 6.063235
1.036802 0.446158 6.506198
1.232871 0.584302 6.648063
1.174248 0.542932 7.178214
1.018450 0.433099 7.622164
2.057136 1.360977 0.020838
-0.106344 -0.383795 1.183962
-0.183736 -0.446207 1.200929
-0.152902 -0.421433 1.961787
0.967454 0.481967 2.427991
1.400089 0.830778 2.977122
1.658795 1.039367 3.242944
1.682169 1.058188 3.483612
1.649158 1.031516 3.909452
1.471063 0.887923 3.719680
0.728014 0.288536 5.314648
0.642117 0.219211 5.785648
0.673675 0.244637 5.978276
0.803052 0.348931 6.268227
0.881185 0.411939 6.258709
1.001918 0.509271 6.485448
1.229002 0.692301 7.235571
1.044665 0.543666 7.121801
1.061297 0.556978 7.951762
-0.222763 -0.521390 1.343841
-0.210973 -0.510548 1.669477
0.088239 -0.234362 1.783598
0.690032 0.321116 2.047644
1.255872 0.843341 2.825509
1.549156 1.114074 2.796643
1.631997 1.190529 2.912355
1.638497 1.196417 3.792174
1.476664 1.047047 3.659615
1.374941 0.953090 4.103530
0.752872 0.378667 5.631481
0.817735 0.438551 5.563336
1.054810 0.657213 6.978704
1.065665 0.667176 7.426467
0.949994 0.560377 7.608319
-0.180718 -0.527108 1.569827
-0.040465 -0.379491 1.633295
1.542669 1.286712 2.805143
1.569516 1.314923 3.158023
1.531348 1.274698 3.523324
1.479979 1.220602 3.718942
1.385203 1.120783 4.160559
0.680078 0.378436 5.288018
0.645995 0.342524 5.557737
2.133073 1.907710 6.075239
1.067278 0.785667 7.675752
1.003138 0.718150 7.713940
1.752340 1.736462 -0.064578
-0.095523 -0.476299 1.101066
-0.076627 -0.453766 1.736515
0.977337 0.808142 2.314090
1.324437 1.223690 2.744858
1.460266 1.386313 2.850173
1.494535 1.427278 3.317352
1.470685 1.398650 3.797520
1.324477 1.223611 3.606816
0.652000 0.418160 5.267458
2.650771 2.811341 5.977082
2.565596 2.709372 5.851219
0.990808 0.823509 7.541566
1.013871 0.851105 7.670260
0.907993 0.724255 8.176790
-0.114295 -0.549452 1.481886
0.814204 0.720305 2.500962
1.229470 1.288267 2.509264
1.354053 1.458643 2.617806
1.403440 1.526072 3.371622
1.372652 1.483903 3.739147
1.324832 1.418478 3.879949
1.160709 1.193977 4.051131
2.479975 2.998098 5.655303
-0.068033 -0.545831 1.716364
0.091353 -0.291330 1.712966
1.133167 1.372053 2.494871
1.300937 1.639912 2.650889
1.289377 1.621328 3.357389
1.249267 1.557248 3.553661
1.222946 1.515156 3.922860
1.132525 1.370738 4.135819
2.465035 3.498257 5.096017
2.417410 3.422120 5.618981
2.270033 3.186772 5.749583
2.274093 3.193105 6.602073
0.903669 1.004805 7.006540
0.877904 0.963560 7.597004
0.863969 0.941261 7.870411
0.791324 0.825223 8.114602
1.371056 2.054142 0.502662
0.142993 -0.223616 1.032683
0.105749 -0.292793 1.544277
0.060226 -0.377238 1.624564
1.033219 1.427211 2.291483
1.254163 1.836861 2.950424
1.196156 1.729317 2.745980
1.164116 1.669832 3.053373
1.086707 1.526201 3.375013
1.038796 1.437198 4.104328
1.823937 2.893125 5.374502
0.762618 0.924532 6.371912
0.718991 0.843524 6.843927
0.681484 0.773942 6.939863
0.665974 0.745123 7.214331
0.715017 0.835933 7.963793
0.692523 0.794247 7.798870
1.331355 2.312568 0.472559
1.040506 1.686754 2.528552
1.122746 1.863594 2.465317
1.088059 1.788970 2.657111
1.061820 1.732473 3.021300
1.047066 1.700631 3.559014
0.999033 1.597219 4.171774
0.587198 0.711217 6.478449
0.618562 0.778585 6.787970
1.055639 2.083392 1.978606
0.939637 1.783908 1.670236
0.994158 1.924525 2.357644
0.964172 1.847040 2.549095
0.970623 1.863651 2.731763
0.941635 1.788743 2.925056
0.915574 1.721377 3.176813
0.883242 1.637667 4.017585
0.773642 1.354638 4.015997
0.622302 0.963523 5.146798
0.550707 0.778258 6.614055
0.578040 0.848763 6.922277
1.000589 2.471056 -0.025728
0.811686 1.854683 1.803049
0.837075 1.937518 1.581406
0.813292 1.859891 1.884587
0.796216 1.804056 2.418507
0.827259 1.905232 2.478840
0.842896 1.956039 3.002858
0.785009 1.767327 3.037339
0.748035 1.646604 3.647259
0.690374 1.458626 3.685725
0.515458 0.887998 5.030536
0.750798 1.655019 5.493305
0.476466 0.760329 6.799310
0.527720 0.927318 7.083687
0.466582 0.727895 7.469169
0.839192 2.530967 -0.106567
0.885416 2.725510 0.294116
0.734434 2.088989 1.652473
0.714960 2.006862 1.897291
0.674049 1.834410 2.208797
0.653461 1.747636 2.343284
0.662403 1.785136 2.756355
0.662677 1.786285 2.767994
0.655046 1.753899 3.364256
0.639350 1.687682 3.618501
0.580431 1.439362 3.960650
0.392731 0.648238 5.173969
0.405692 0.702151 6.853032
0.468560 0.966863 7.113260
0.424264 0.780095 7.558543
0.669097 2.580517 -0.002476
0.623949 2.311313 1.281743
0.576819 2.030876 1.591843
0.560379 1.933106 1.609609
0.549077 1.865629 2.085453
0.539216 1.806717 2.564231
0.521127 1.699199 2.470579
0.506580 1.612617 2.607299
0.513711 1.654789 3.023570
0.485449 1.486576 3.290160
0.457632 1.321008 3.560130
0.354272 0.705361 5.348745
0.429491 1.152524 5.580150
0.470491 1.396220 5.785802
0.445225 1.245582 6.472902
0.384617 0.884833 7.077098
0.358183 0.727536 7.258924
0.483353 2.330217 0.913521
0.452576 2.043130 1.220417
0.433922 1.868864 1.700403
0.404621 1.595470 2.079204
0.387671 1.437081 2.573420
0.401509 1.565775 2.867158
0.401010 1.561165 2.822344
0.402468 1.574639 2.951332
0.399443 1.545925 3.555766
0.385463 1.415197 4.061524
0.362722 1.203330 3.986766
0.341188 1.002077 4.635884
0.286685 0.494176 4.611533
0.293536 0.557686 4.986487
0.337341 0.965435 5.541357
0.366507 1.237387 5.378406
0.366809 1.238979 6.768528
0.322567 0.826685 6.757441
0.321204 2.546113 -0.014646
0.315052 2.367358 1.146869
0.304495 2.066019 1.114630
0.265518 0.949464 2.461595
0.280075 1.364729 2.615073
0.285329 1.513472 3.083710
0.282382 1.428972 3.224220
0.279979 1.359662 3.482073
0.275986 1.243972 4.107401
0.263817 0.893976 5.053522
0.255872 0.667473 4.922194
0.264761 0.920530 5.197448
0.277664 1.286846 5.996067
0.278220 1.302515 6.067006
0.270960 1.094066 6.499281
0.263940 0.892453 6.938292
0.259088 0.754276 6.796086
0.152179 2.567433 -0.453554
0.152401 2.562686 0.340743
0.155355 2.468722 0.703024
0.161518 2.270596 0.776807
0.167578 2.076171 0.963923
0.205459 0.861541 2.426055
0.199239 1.061708 2.420600
0.191110 1.325212 3.059806
0.187380 1.445779 3.235148
0.189101 1.391514 3.608959
0.196810 1.144654 4.013502
0.199834 1.047413 4.039403
0.207343 0.807028 4.452695
0.219264 0.423808 4.587948
0.212609 0.639958 5.245654
0.203717 0.925803 5.142680
0.197036 1.142562 5.726797
0.196583 1.157328 5.797239
0.199387 1.068688 6.323933
0.205341 0.878582 6.820238
0.207358 0.814149 6.975226
-0.025959 2.668527 0.487986
0.134028 1.021254 1.711551
0.151391 0.842660 2.033562
0.150039 0.856779 2.224276
0.149950 0.857702 2.236149
0.123155 1.134589 3.059405
0.109492 1.275718 3.412568
0.111385 1.256050 3.248161
0.126223 1.103543 3.637833
0.138842 0.974012 4.150941
0.149168 0.868207 4.753157
0.148049 0.880340 5.378542
0.126629 1.101132 5.470494
0.113496 1.236611 5.639158
0.118528 1.185449 6.340638
0.143824 0.924992 6.539073
0.160988 0.748259 6.656868
0.163457 0.723517 7.376213
-0.151101 2.362514 -0.047616
0.046881 1.152213 2.098274
0.088629 0.897038 2.609337
0.089319 0.892788 2.562132
0.066525 1.032517 2.980318
0.057542 1.087771 3.465900
0.048498 1.143362 3.891431
0.096135 0.851877 3.945476
0.110866 0.762154 4.669980
0.105558 0.795067 5.417616
0.050107 1.134514 5.608848
0.028024 1.269746 5.777044
0.059179 1.079126 5.830365
0.080138 0.951320 6.619624
0.108721 0.776482 6.738177
0.120101 0.707151 7.278144
0.088965 0.644966 1.802445
0.082167 0.674528 2.236757
0.033707 0.884046 2.413723
0.020573 0.941063 3.022457
0.045508 0.833252 2.926624
0.009117 0.990760 3.463643
0.051820 0.806237 3.560803
0.090897 0.637433 3.779257
0.074310 0.709596 4.913997
0.029157 0.904969 5.446212
-0.023617 1.133123 5.597555
-0.049726 1.246192 6.140136
-0.034395 1.179994 6.292561
0.033928 0.884709 6.312907
0.056534 0.787362 7.172325
-0.048034 0.967069 2.242721
-0.036816 0.929928 2.918424
-0.012232 0.848102 3.061096
-0.004620 0.822952 3.682811
-0.014423 0.855680 3.934529
0.044416 0.659717 3.915411
0.018453 0.746572 5.110363
-0.023371 0.885941 5.343881
-0.076223 1.062095 5.752742
-0.095220 1.125462 6.061104
-0.071733 1.047271 6.154799
-0.036055 0.928563 6.509113
0.017636 0.749912 7.010844
-0.607804 2.288787 -0.150293
-0.045227 0.784084 2.377575
-0.108787 0.954097 2.135783
-0.100599 0.932417 2.989023
-0.061895 0.828824 2.892587
-0.034160 0.754663 3.094791
-0.011920 0.695238 3.418262
-0.002504 0.670194 3.983922
0.018252 0.614896 4.894124
-0.020672 0.719066 4.949357
-0.121305 0.988467 5.402181
-0.138730 1.035161 5.651486
-0.154935 1.078706 6.335708
-0.048787 0.794676 6.355654
-0.026750 0.735866 6.953063
-0.015275 0.705236 7.229896
-0.796216 2.335035 -0.075529
-0.138074 0.872674 2.399530
-0.210714 1.034071 2.100806
-0.190955 0.990289 2.715518
-0.157987 0.917054 2.917495
-0.084856 0.754547 3.131731
-0.071496 0.724980 3.696740
-0.048454 0.673835 4.024267
-1.788054 4.540870 5.040561
-1.762356 4.483789 5.224385
-1.727837 4.407079 5.307151
-0.111404 0.814321 6.472091
-0.022214 0.616155 6.853473
0.051969 0.451376 7.361813
-0.902382 2.188637 -0.052234
-0.226226 0.918852 1.933189
-0.337346 1.127689 2.404003
-0.298456 1.054672 2.602538
-0.213471 0.895067 2.811793
-0.141718 0.760366 3.263083
-0.109266 0.699457 3.526978
-0.023965 0.539247 3.685009
-0.086974 0.657794 4.600806
-2.088330 4.417396 4.565258
-2.112866 4.463541 4.829366
-2.227309 4.678739 5.898351
-2.188989 4.606770 5.983577
-0.518677 1.286004 2.543854
-0.464279 1.197582 2.506202
-0.388247 1.074105 3.067470
-0.274778 0.889656 2.923069
-0.136310 0.664659 3.266582
-0.104082 0.612336 3.591311
-0.017612 0.471843 3.871018
-2.399244 4.342982 4.942314
-2.347793 4.259269 4.445395
-2.459977 4.441787 5.467713
-2.492684 4.494993 5.729392
-2.450271 4.425997 5.387420
-2.425213 4.385312 5.622251
-2.333600 4.236507 6.161402
-1.175217 2.058832 -0.341343
-1.231108 2.137726 -0.047495
-0.535103 1.156254 2.385630
-0.723823 1.422529 2.662491
-0.654492 1.324689 2.451500
-0.488484 1.090524 2.608043
-0.279550 0.795842 3.015891
-0.140133 0.599250 3.542418
-0.116155 0.565496 3.989900
-0.293127 0.815356 5.235887
-0.264344 0.774794 5.506047
-2.756890 4.291214 6.376000
-2.536537 3.980315 6.108290
1.650344 1.543224 2.810005
1.445839 1.368752 3.588547
1.481608 1.399258 3.489126
1.358011 1.293846 3.837018
0.648493 0.688800 5.549609
0.419449 0.493567 5.785095
0.494806 0.557693 6.100528
0.771865 0.793559 6.889700
0.957084 0.951324 7.110713
0.912033 0.912887 7.295257
0.861486 0.869663 7.854348
-0.152528 -0.002127 0.649866
1.548368 1.647918 2.806551
1.393536 1.497466 3.473009
3.030889 3.085821 5.710445
0.538016 0.666622 5.504872
0.436383 0.567964 5.597420
0.461154 0.591861 6.087026
0.710202 0.833404 6.611297
0.761103 0.882680 7.031586
0.628694 0.754011 7.620969
0.047774 0.208661 0.316176
-0.118875 0.024857 0.350883
1.519440 1.831022 2.575618
1.444227 1.747935 3.017028
2.639116 3.064866 5.862333
2.679731 3.109704 5.717801
2.619615 3.043337 5.932627
0.608588 0.825528 5.620775
0.484892 0.689044 5.829338
0.366718 0.558464 6.634647
0.644483 0.864698 6.977125
0.607778 0.824060 7.481338
0.482581 0.685901 7.754158
0.544910 0.754630 7.793090
-0.070188 0.080251 0.410533
1.328520 1.863762 2.752167
1.211158 1.713841 3.362064
1.158655 1.646804 3.540558
1.682178 2.314221 4.814949
1.961920 2.671011 5.026102
1.916572 2.613104 5.196054
0.465163 0.761211 6.282990
0.552530 0.872382 7.119419
0.597609 0.929855 7.219460
0.448253 0.739175 7.666389
0.295829 0.544686 7.797637
1.139677 1.849045 2.984354
1.151689 1.866606 2.941685
1.121668 1.822635 3.276079
0.998690 1.642848 3.735176
0.819904 1.381643 3.946907
1.312479 2.100522 5.470467
0.489399 0.897742 7.151350
0.572327 1.018911 7.021900
0.369488 0.722477 7.496841
0.091491 0.316350 7.749751
0.472827 1.004700 0.722279
0.932903 1.781581 2.417827
0.990995 1.879675 2.633640
1.004371 1.902213 2.802997
0.976378 1.854765 3.138431
0.798198 1.553321 3.879864
0.775058 1.514269 3.738622
0.626747 1.263545 3.896561
1.269059 2.348558 5.264030
0.990374 1.877325 5.824115
0.775949 1.514934 5.805368
0.572094 1.170429 5.733070
0.292055 0.696999 6.071695
0.296022 0.703590 6.351657
0.407257 0.891339 6.958112
0.444067 0.953510 7.059440
0.365230 0.820206 7.215783
0.144147 0.446393 7.610621
0.824604 1.853922 1.328991
0.871198 1.945436 1.763665
0.854091 1.911635 2.044799
0.839476 1.882642 2.538533
0.826106 1.856196 2.818068
0.777188 1.759707 3.264818
0.726338 1.659510 3.500768
0.600192 1.411047 3.866338
0.476376 1.167168 4.237679
0.427873 1.071465 4.748928
0.803746 1.810896 5.635768
0.597166 1.404118 5.991726
0.519849 1.251987 5.876701
0.309446 0.837798 5.981785
0.251444 0.723465 6.344109
0.333393 0.884437 7.066173
0.325345 0.868417 7.457005
0.280391 0.779941 7.439553
0.105463 0.435676 7.334493
0.811468 2.155639 1.048078
0.705412 1.908208 1.733255
0.713575 1.927135 1.905383
0.652440 1.784559 2.197968
0.650415 1.779722 2.425350
0.651212 1.781347 2.865163
0.662218 1.806899 3.034663
0.641787 1.759124 3.371701
0.551456 1.548554 3.624278
0.366136 1.116534 4.184449
0.363830 1.111155 4.197963
0.402838 1.201607 4.998971
0.558846 1.564714 5.631807
0.506188 1.441854 5.985505
0.447017 1.304099 5.815000
0.283963 0.924109 6.071142
0.204342 0.738479 6.343195
0.305342 0.973512 6.834789
0.282429 0.919865 7.343419
0.219842 0.774148 7.180686
-0.027420 0.197941 7.521571
0.631888 2.097203 1.245979
0.536924 1.828773 1.760740
0.504484 1.737073 1.942379
0.492303 1.702508 2.227285
0.491974 1.701304 2.669524
0.457930 1.604774 3.335112
0.394270 1.424791 3.745882
0.400905 1.443550 3.702268
0.269595 1.072585 4.093184
0.250939 1.019834 4.222473
0.171004 0.794124 4.273943
0.439001 1.549826 5.764562
0.339285 1.268158 5.993098
0.254093 1.027566 6.110143
0.122188 0.654833 6.640615
0.222306 0.937463 6.689996
0.227017 0.950593 6.966280
0.089150 0.560951 7.621927
-0.019833 0.253232 7.668799
0.412814 1.841924 1.585086
0.403925 1.810638 1.436542
0.328196 1.542894 1.739557
0.294387 1.422953 2.412901
0.312207 1.485489 2.957015
0.337316 1.573980 3.226874
0.360272 1.655029 3.282544
0.248304 1.259007 3.937012
0.194302 1.068090 4.140167
0.120777 0.808075 4.521058
0.075616 0.648640 4.398680
0.294491 1.420879 5.623090
0.258194 1.292386 5.978986
0.188635 1.046584 6.096346
0.117482 0.794896 6.541775
0.147469 0.900837 6.528636
0.145620 0.894050 6.864531
0.113928 0.781822 7.227744
-0.035183 0.254761 7.656906
0.361392 2.194707 0.985143
0.282957 1.826718 1.448610
0.239911 1.625262 1.201310
0.117154 1.048721 2.540863
0.175063 1.319494 3.115741
0.223023 1.544241 3.098951
0.182723 1.354999 3.509009
0.119356 1.057648 3.939384
0.093915 0.938409 3.968303
0.046314 0.714826 4.505182
-0.042673 0.297605 4.758366
0.172613 1.305166 5.982793
0.103853 0.982345 6.617386
0.079008 0.865569 6.977679
0.070458 0.825379 7.105585
0.014563 0.563280 7.291794
0.163148 1.842849 0.834255
0.156348 1.795842 1.120025
0.124675 1.578519 1.308938
0.031092 0.935738 2.332034
0.064917 1.167244 2.535300
0.091868 1.351174 3.066960
0.088523 1.327843 3.350515
0.046434 1.038486 3.996174
0.036129 0.967990 3.909717
0.034764 0.956727 5.241203
0.073324 1.219951 5.950565
0.078814 1.257726 5.847233
0.025300 0.890800 5.987248
0.006873 0.764002 6.349599
0.035876 0.962261 6.691585
0.008204 0.771773 7.286717
0.008852 1.415892 0.789502
-0.012031 1.154986 1.260901
-0.040383 0.800095 2.157253
-0.028558 0.946163 2.536360
-0.016359 1.096897 2.911626
-0.018581 1.067256 3.686796
-0.019893 1.050205 3.971279
-0.045088 0.736311 4.195506
-0.045469 0.731551 4.206725
-0.079849 0.303377 4.457022
0.001961 1.317516 5.693862
-0.029907 0.918298 6.824955
-0.033232 0.876610 6.952623
-0.039457 0.798572 7.197359
-0.067873 0.443956 7.680261
-0.105785 -0.028005 7.880265
-0.131410 -0.345782 7.539646
-0.177471 -0.920079 8.122559
-0.089906 0.989786 0.932243
-0.088947 1.034462 2.350413
-0.093132 0.745252 2.945165
-0.091686 0.838520 3.217542
-0.091719 0.829290 3.721126
-0.092170 0.798010 3.791656
-0.093356 0.715803 3.979449
-0.100122 0.253528 4.565060
-0.098053 0.385674 5.045154
-0.088673 1.010808 5.369023
-0.085493 1.220206 5.661403
-0.089164 0.963973 6.367318
-0.094617 0.595839 6.516153
-0.094098 0.627650 6.736631
-0.091499 0.795730 7.192791
-0.094931 0.564366 7.262761
-0.101554 0.113394 7.724423
-0.108291 -0.335340 7.476781
-0.113899 -0.715088 7.713775
-0.154993 0.905951 1.923427
-0.150037 0.820022 2.770376
-0.151553 0.847924 2.943896
-0.154661 0.904211 3.058590
-0.142922 0.695789 3.756732
-0.139696 0.638291 3.887967
-0.174602 1.271813 5.502211
-0.153524 0.897931 6.848835
-0.145858 0.760491 6.948238
-0.144549 0.737229 7.020518
-0.124467 0.378048 7.505936
-0.109647 0.112366 7.702175
-0.080444 -0.411141 8.093008
-0.049979 -0.959774 7.826906
-0.160868 0.454973 0.422307
-0.238360 1.095375 2.407782
-0.206717 0.836189 2.943896
-0.199257 0.775090 3.074398
-0.178849 0.607960 3.440094
-0.178067 0.602403 3.946792
-0.185347 0.662445 4.058993
-0.143630 0.320495 4.625352
-0.111846 0.059438 4.744388
-0.238452 1.102158 5.918804
-0.207056 0.845348 6.654970
-0.190298 0.708319 7.076830
-0.164957 0.500594 7.412865
-0.114833 0.089167 7.757454
-0.085962 -0.148591 7.506149
