0.598473 -1.010440 7.717676
0.633562 -0.906692 8.235274
0.509536 -1.254509 8.567834
0.299942 -1.842357 9.122837
0.310544 -1.809639 9.436108
0.280818 -1.890366 9.817598
0.299864 -1.831230 10.421548
0.331975 -1.733328 11.233837
0.530063 -1.169035 11.706844
0.753699 -0.749665 1.692523
0.719946 -0.871267 2.355829
0.661703 -1.088871 2.826681
0.650616 -1.124741 3.397838
0.692263 -0.960593 3.802572
0.609548 -1.274198 4.074454
0.468638 -1.807821 4.591714
0.476570 -1.770848 5.164126
0.491897 -1.708640 5.468911
0.400080 -2.055251 5.901041
0.470850 -1.775078 6.696835
0.628687 -1.164965 7.191776
0.677111 -0.972384 7.812063
0.703100 -0.866911 8.328471
0.638292 -1.112100 8.587131
0.479032 -1.715552 9.142281
0.456992 -1.795560 9.522975
0.447469 -1.825319 10.104791
0.447645 -1.819991 10.508363
0.495623 -1.631029 10.962609
0.626796 -1.120150 11.706844
0.764195 -0.965369 0.865957
0.725100 -1.174801 1.522295
0.668620 -1.485422 1.987191
0.716892 -1.206690 2.384495
0.763276 -0.936982 2.878644
0.722977 -1.157906 3.252735
0.748576 -1.003861 3.836861
0.685934 -1.347956 4.377678
0.589427 -1.884964 4.797621
0.615515 -1.731204 5.199168
0.619049 -1.701749 5.770968
0.569452 -1.972481 6.301356
0.644580 -1.541418 6.755081
0.730184 -1.047842 7.416080
0.748557 -0.935730 7.928563
0.789550 -0.698797 8.279531
0.737760 -0.983369 8.721367
0.637665 -1.542864 9.005486
0.614865 -1.662029 9.566486
0.590739 -1.788698 10.125785
0.582159 -1.827357 10.707725
0.631379 -1.541903 11.187552
0.866359 -0.606325 1.118010
0.844254 -0.819243 1.686597
0.812567 -1.135134 2.151615
0.819953 -1.049131 2.449107
0.835092 -0.876578 2.936522
0.827866 -0.928941 3.687737
0.787703 -1.342150 3.856805
0.743253 -1.789211 4.379907
0.739629 -1.818189 4.667744
0.760448 -1.583318 5.258607
0.779013 -1.368946 5.947042
0.744581 -1.717298 6.285292
0.761483 -1.520089 6.978882
0.821749 -0.879976 7.384129
0.812472 -0.962078 7.860906
0.824772 -0.809344 8.667951
0.808945 -0.965838 8.942502
0.751588 -1.552026 9.312202
0.751710 -1.538527 9.713490
0.737608 -1.668377 10.272317
0.743607 -1.590143 10.788926
0.773898 -1.253662 11.476126
0.907319 -0.837053 1.236908
0.907817 -0.659540 1.995948
0.905254 -0.771904 2.287104
0.902323 -0.891194 2.668040
0.891718 -1.301154 4.160166
0.884089 -1.735773 4.501494
0.882619 -1.706663 5.158481
0.881861 -1.664720 5.638288
0.878520 -1.814056 6.002700
0.878609 -1.696585 6.587573
0.885849 -1.094254 7.258323
0.889037 -0.781631 7.802054
0.888813 -0.736594 8.114924
0.884590 -0.925687 8.573594
0.876324 -1.353547 9.168809
0.874518 -1.416434 9.459478
0.872364 -1.446288 10.042270
0.870082 -1.484368 10.625921
0.870317 -1.386989 11.055492
0.874786 -0.957116 11.773781
0.965021 -0.659173 1.078304
0.983937 -0.964518 1.365274
0.996278 -1.188589 2.103479
0.983389 -1.007007 2.494524
0.970825 -0.834729 2.980298
0.993074 -1.237528 4.285478
1.020916 -1.691252 4.803207
1.010540 -1.556988 5.382029
1.005115 -1.482649 5.592785
1.021177 -1.754820 6.122269
0.998517 -1.428238 6.647066
0.956318 -0.798065 7.137294
0.941615 -0.598707 7.755720
0.933879 -0.506499 8.362160
0.951304 -0.795655 8.801289
0.987187 -1.362994 9.082210
0.986029 -1.367224 9.572806
0.987477 -1.419924 10.244439
0.980874 -1.341188 10.761351
0.972155 -1.221724 11.100651
0.957975 -0.179031 1.098087
1.018433 -0.591254 1.754568
1.064099 -0.898506 2.039414
1.066452 -0.925095 2.606667
1.053175 -0.843231 2.907218
1.071505 -0.973476 3.376990
1.033667 -0.738565 4.151372
1.080699 -1.052722 4.327446
1.178382 -1.709571 4.916384
1.139181 -1.458632 5.330193
1.087231 -1.125568 5.852414
1.143627 -1.510047 6.462363
1.106759 -1.274762 6.888821
1.030220 -0.781992 7.552152
0.997239 -0.574439 8.083789
0.979991 -0.470573 8.601969
1.017456 -0.723118 8.859783
1.092396 -1.227629 9.342207
1.094942 -1.255794 9.925081
1.104315 -1.323375 10.215271
1.105572 -1.341285 10.708849
1.081927 -1.197436 11.344448
0.946463 -0.005637 1.152683
1.062606 -0.509827 1.805722
1.109914 -0.715471 2.093255
1.138227 -0.844686 2.746113
1.119776 -0.770903 3.136873
1.149014 -0.901706 3.604851
1.086912 -0.641810 4.014467
1.357373 -1.808258 4.936505
1.277884 -1.475447 5.449212
1.197335 -1.137066 5.880155
1.233570 -1.297602 6.337097
1.228791 -1.284542 6.911827
1.090716 -0.703727 7.590253
1.041349 -0.499746 8.121008
1.012096 -0.380294 8.546348
1.077434 -0.664854 8.985988
1.184300 -1.124942 9.287244
1.206792 -1.226985 9.758486
1.217685 -1.282087 10.431629
1.238193 -1.374492 10.811337
1.181460 -1.140735 11.472720
1.095883 -0.404819 1.026769
1.127655 -0.507907 1.412542
1.223735 -0.814707 2.061616
1.226882 -0.827361 2.355223
1.175395 -0.672679 3.023833
1.214471 -0.799393 3.490046
1.131588 -0.543982 3.896783
1.484798 -1.655276 4.551835
1.441113 -1.524095 5.125535
1.312556 -1.128665 5.832493
1.361146 -1.285023 6.286343
1.324922 -1.177313 6.873218
1.187866 -0.752066 7.242712
1.130512 -0.579401 7.950017
1.061299 -0.367074 8.389746
1.088550 -0.456894 8.866804
1.212634 -0.849913 9.370486
1.255210 -0.984816 9.548717
1.292668 -1.107361 10.108396
1.339057 -1.258688 10.755996
1.308533 -1.167283 11.183632
1.130417 -0.333850 1.811088
1.250501 -0.629210 2.274807
1.256817 -0.647488 2.657765
1.264472 -0.669022 3.040528
1.497239 -1.245825 4.499398
1.662769 -1.650620 4.832374
1.538551 -1.354030 5.520173
1.405242 -1.033368 5.949502
1.386719 -0.991367 6.342657
1.347482 -0.901229 7.023258
1.220177 -0.595295 7.470538
1.106873 -0.324841 8.107767
1.058776 -0.211207 8.531633
1.168532 -0.481274 8.969949
1.331888 -0.882771 9.562121
1.393188 -1.033782 9.829823
1.441953 -1.156556 10.387930
1.448160 -1.175404 10.879612
1.318312 -0.865123 11.566091
1.236915 -0.402831 1.011516
1.240234 -0.412438 1.488033
1.337867 -0.608392 2.047447
1.342928 -0.620246 2.339996
1.262709 -0.465326 2.825433
1.323257 -0.588215 3.384788
1.422855 -0.786223 3.661598
1.484949 -0.911535 4.124010
1.594433 -1.130130 4.573451
1.755525 -1.450865 5.095107
1.779920 -1.501907 5.558027
1.593407 -1.139017 6.268237
1.343176 -0.648452 6.646244
1.369188 -0.702163 7.028896
1.283520 -0.537922 7.734074
1.098913 -0.177866 8.301233
1.131830 -0.245212 8.688703
1.316250 -0.611815 9.195901
1.406029 -0.791601 9.647464
1.498025 -0.975734 10.095594
1.548227 -1.077658 10.564349
1.513121 -1.011825 11.082203
1.063908 0.026074 1.778070
1.281097 -0.326957 2.150913
1.352201 -0.445979 2.895110
1.305931 -0.372369 3.104883
1.631160 -0.906052 4.572808
1.801846 -1.195809 7.090164
1.507371 -0.721609 7.389633
1.290767 -0.374692 7.950661
1.209248 -0.247432 8.758121
1.301611 -0.398713 9.124323
1.446864 -0.635319 9.464388
1.614977 -0.909834 9.979472
1.712655 -1.069635 10.333228
1.643319 -0.961567 11.051395
1.428104 -0.616098 11.468302
1.055992 0.115424 1.633571
1.363376 -0.304833 2.185698
1.379010 -0.328855 2.752499
1.388928 -0.343773 3.046557
1.749642 -0.840520 4.422187
2.083742 -1.297253 5.012033
1.985373 -1.165153 5.321804
1.967510 -1.143667 5.887332
1.931811 -1.096652 6.188029
1.745268 -0.846278 6.802884
1.555338 -0.590905 7.337176
1.262323 -0.196168 8.006318
1.092027 0.031988 8.651478
1.275909 -0.220399 9.181914
1.498167 -0.523888 9.502852
1.618307 -0.689293 9.952401
1.696546 -0.798320 10.511863
1.738913 -0.857294 10.801376
1.408646 -0.411850 11.449219
0.972949 0.281712 1.289544
1.173651 0.048738 1.581414
1.382091 -0.194364 2.141673
1.458613 -0.284393 2.523410
1.410191 -0.230646 3.006127
1.561164 -0.406954 3.463781
1.519660 -0.361174 3.942288
1.748140 -0.627278 4.473358
2.169990 -1.116011 4.873484
2.139194 -1.082560 5.344891
2.111998 -1.053272 5.817910
2.023601 -0.953408 6.306931
1.874349 -0.783384 6.815257
1.719549 -0.606584 7.239769
1.459388 -0.309144 7.885164
1.130018 0.068455 8.469986
1.215389 -0.033026 9.129740
1.537218 -0.406253 9.518730
1.643054 -0.529611 9.785899
1.727817 -0.629936 10.343446
1.773549 -0.684004 10.630807
1.549018 -0.427859 11.313421
1.025872 0.279923 1.717325
1.391667 -0.080900 2.085219
1.488142 -0.178694 2.826410
1.429419 -0.122230 3.124927
1.599971 -0.292003 3.673584
1.474516 -0.170027 3.981685
2.255196 -0.940665 4.906231
2.293027 -0.979707 5.366769
2.176715 -0.866718 5.676591
2.168080 -0.860902 6.329469
2.006013 -0.703782 6.838269
1.767469 -0.471264 7.280075
1.438159 -0.151241 8.126697
1.082107 0.196100 8.716754
1.290657 -0.010547 9.154496
1.613873 -0.328894 9.362990
1.786838 -0.501358 9.990328
1.835242 -0.550084 10.278965
1.863639 -0.580351 10.859706
1.467181 -0.193555 11.507276
1.465770 -0.028425 1.919208
1.554085 -0.103654 2.298512
1.495583 -0.056592 2.777570
1.436738 -0.008908 3.167831
1.908259 -0.408086 4.540618
2.334959 -0.766499 5.040288
2.368717 -0.796122 5.413580
2.271161 -0.716800 5.989891
2.179922 -0.642772 6.570551
1.997192 -0.491703 6.993631
1.777837 -0.311140 7.708017
1.289448 0.095333 8.125999
1.085162 0.263218 8.863731
1.342494 0.047664 9.007755
1.659484 -0.219092 9.509464
1.847644 -0.378686 10.136981
1.859950 -0.390838 10.629408
1.784703 -0.329596 11.058368
0.955370 0.454264 1.180934
1.368149 0.164466 1.375577
1.711774 -0.078492 2.018446
1.643301 -0.031911 2.405571
1.500307 0.066514 2.890816
1.530691 0.043222 3.456395
2.019701 -0.303190 4.556969
2.394165 -0.567277 5.067507
2.439628 -0.600763 5.529889
2.327133 -0.523713 6.019236
2.219497 -0.450080 6.512376
2.035906 -0.323319 7.025321
1.708982 -0.096633 7.668626
1.215237 0.247041 8.270220
1.115280 0.315533 8.696574
1.530732 0.022827 9.182549
1.870698 -0.217046 9.678394
1.976407 -0.293062 10.234900
1.911013 -0.249092 10.749665
1.752384 -0.139604 11.203295
1.085593 0.430242 0.950181
1.177404 0.375010 1.335080
1.535924 0.162534 1.889323
1.631769 0.105261 2.176842
1.483250 0.190568 2.749963
1.524797 0.163645 3.494929
1.709942 0.054259 3.680387
1.672608 0.073962 4.340135
1.782961 0.008190 4.620545
2.331923 -0.315339 4.932933
2.473269 -0.400183 5.469675
2.354033 -0.331783 5.956056
2.251237 -0.273355 6.534886
2.057975 -0.161552 7.045169
1.771907 0.004993 7.488735
1.264125 0.300956 8.175136
1.273323 0.293575 8.760537
1.762851 0.005067 9.041196
1.950860 -0.107185 9.577022
1.977067 -0.124532 10.155009
1.991021 -0.134383 10.644566
1.823042 -0.037234 11.096222
1.137972 0.471295 0.940937
1.338293 0.370994 1.893109
1.621619 0.232299 2.261785
1.557590 0.261541 2.827558
1.494797 0.290469 3.305060
1.526636 0.273491 3.776253
1.742458 0.167287 4.228351
1.621953 0.223601 4.897735
2.515471 -0.212403 5.629646
2.392838 -0.154463 6.115878
2.287696 -0.105310 6.694478
2.074664 -0.003287 7.115842
1.851648 0.103855 7.452436
1.690337 0.179871 8.153276
1.787890 0.130720 8.711432
1.929027 0.061360 8.978672
1.948805 0.049895 9.555020
2.025750 0.011336 9.930778
1.950490 0.046203 10.442485
1.835610 0.099627 11.161743
1.393219 0.442382 1.752688
1.506678 0.396377 2.309817
1.529179 0.386131 2.779542
1.475615 0.404971 3.436950
1.489547 0.398915 3.635610
1.804431 0.274687 4.078480
1.677443 0.322144 4.744785
1.725646 0.301877 5.212245
2.302402 0.076483 5.336681
2.298190 0.075816 6.075617
2.280861 0.080814 6.639099
2.138245 0.135467 6.953998
1.856963 0.243263 7.573575
1.812729 0.259569 7.877686
1.926605 0.213128 8.522216
1.941058 0.205694 9.096401
1.944282 0.202917 9.582260
2.024063 0.170621 9.956915
2.016509 0.172325 10.354490
1.896072 0.217069 11.070976
1.561195 0.489114 2.201515
1.483045 0.511393 2.586742
1.616418 0.469411 3.231454
1.629947 0.464746 3.430634
1.775864 0.419013 4.070768
1.714483 0.436253 4.458375
1.770740 0.417675 5.016210
2.013635 0.343443 5.458857
2.261057 0.267869 5.896333
2.323395 0.247759 6.357814
2.025984 0.335139 6.970644
1.831762 0.391579 7.575676
1.802341 0.399205 7.970879
1.948161 0.354631 8.239740
1.977324 0.343862 8.903377
1.978868 0.341920 9.389536
2.005837 0.332074 9.965975
2.019491 0.326492 10.454142
1.923825 0.353909 10.878214
1.304760 0.664171 1.845163
1.515093 0.618876 2.218433
1.538048 0.612653 2.688839
1.572242 0.603802 3.249052
1.509120 0.615640 3.726816
1.654522 0.583455 4.277878
1.779551 0.556361 4.556701
1.848686 0.539914 5.202875
1.893677 0.529341 5.579819
2.136002 0.477396 5.929255
2.116359 0.479836 6.495735
1.897063 0.524382 7.006845
1.973308 0.506979 7.472467
1.991180 0.501256 8.133806
1.932193 0.513003 8.350337
1.831702 0.532607 8.855976
1.967055 0.502255 9.500737
1.996372 0.494379 10.077444
1.873706 0.519153 10.411401
1.798269 0.533466 10.926862
1.245818 0.767154 1.805836
1.561908 0.725564 2.266349
1.492071 0.732790 2.832898
1.510223 0.729624 3.124094
1.459363 0.734162 3.783566
1.582533 0.717667 4.061112
1.725052 0.698188 4.516433
1.794253 0.687491 5.159180
1.817206 0.683998 5.353843
2.009894 0.657364 6.070433
1.893486 0.670481 6.650012
1.811552 0.680557 6.770389
2.013511 0.653016 7.394506
2.078565 0.643644 7.765894
1.969046 0.656124 8.263328
1.865542 0.667829 8.764191
1.884353 0.663754 9.336526
2.028387 0.643540 9.976141
1.924065 0.655590 10.394916
1.823970 0.667094 10.816398
1.368332 0.723284 11.433336
0.664918 0.889674 1.188331
1.988031 0.824646 2.000533
1.696970 0.837818 2.210264
1.521009 0.844758 2.687798
1.456457 0.846167 3.252923
1.499202 0.842513 3.811899
1.640331 0.834490 4.270883
1.677802 0.831616 4.648079
1.817982 0.823911 5.013635
1.907541 0.817534 5.745825
1.847153 0.819521 6.045234
1.617823 0.828897 6.554188
1.818521 0.817556 7.183781
2.079448 0.804206 7.524551
2.081780 0.802436 8.093345
1.994192 0.804863 8.683375
1.955540 0.805802 8.989029
1.978383 0.803047 9.562703
1.967117 0.802424 9.959457
1.906690 0.803536 10.559304
1.758470 0.808721 11.188059
0.590696 0.939754 1.098652
1.913149 0.979667 1.915759
1.633981 0.969343 2.394644
1.449674 0.962575 2.694123
1.504868 0.961925 3.522907
1.535681 0.961806 3.901775
1.561533 0.961791 4.190638
1.626880 0.961995 4.837768
1.769039 0.965474 5.203718
1.815302 0.965857 5.580084
1.778325 0.963279 6.058830
1.774286 0.961229 6.717656
1.918550 0.965053 6.988741
1.996589 0.966197 7.452439
2.032032 0.965153 8.199729
1.990031 0.962921 8.504611
2.025541 0.962130 9.165612
2.030907 0.960889 9.650215
1.923603 0.956232 10.070303
1.895676 0.954436 10.380134
1.768373 0.948274 11.097345
1.438125 1.093340 2.235093
1.452243 1.094161 2.523711
1.485232 1.096422 3.081345
1.412850 1.086741 3.466755
1.541971 1.100908 3.836891
1.592633 1.105261 4.393185
1.671084 1.112375 5.127348
1.716404 1.116625 5.503452
1.765156 1.121282 5.879120
1.620766 1.103041 6.282904
1.704356 1.111287 6.837909
1.976056 1.142117 7.269190
1.959232 1.138721 7.749406
1.965216 1.137755 8.319563
1.924522 1.132052 8.624914
1.923660 1.130531 9.108778
1.948636 1.131799 9.682432
1.939120 1.129509 10.079716
1.881455 1.120937 10.679844
1.352965 1.056358 11.412679
0.722768 1.083108 1.138669
1.217214 1.181454 1.331065
1.629485 1.262043 1.967272
1.454447 1.225607 2.444319
1.284894 1.190257 2.925660
1.427685 1.216913 3.568475
1.458352 1.221931 3.944636
1.492397 1.227625 4.320498
1.548824 1.237267 4.874759
1.591220 1.244635 5.249741
1.757153 1.276228 5.789367
1.516548 1.226859 6.204674
1.570892 1.236616 6.579909
1.836373 1.288446 7.011520
1.959713 1.310963 7.737749
1.931509 1.304163 8.127579
1.889586 1.294877 8.429985
1.941986 1.303143 9.176260
1.831775 1.279860 9.591655
1.821119 1.276554 9.986836
1.835798 1.278050 10.471729
1.594488 1.227841 11.122449
0.934490 1.220699 1.601951
1.243049 1.306674 2.151962
1.265560 1.311648 2.620828
1.282013 1.315445 2.910002
1.319314 1.324350 3.468001
1.363899 1.335325 4.025429
1.398298 1.343951 4.403319
1.464892 1.360911 5.048869
1.487353 1.366690 5.247300
1.543771 1.381304 5.713102
1.439875 1.349758 6.385199
1.495181 1.364325 6.762278
1.867216 1.468468 7.266594
1.851113 1.462443 7.745694
1.823994 1.453553 8.137604
1.800520 1.445695 8.530663
1.854321 1.458711 9.278876
1.822000 1.448601 9.585782
1.832409 1.450089 10.070650
1.798505 1.438377 10.758060
1.543735 1.364302 11.323481
0.630575 1.218085 0.781844
0.735872 1.255281 1.435179
1.212414 1.431956 1.710125
1.331232 1.474227 2.351322
1.153709 1.407446 2.559474
1.191462 1.419499 3.206406
1.231621 1.432729 3.763065
1.356171 1.477985 4.130965
1.390578 1.489635 4.506792
1.457004 1.512383 5.149539
1.593128 1.561968 5.511795
1.384159 1.482278 6.104145
1.342889 1.465690 6.494435
1.623483 1.568323 7.105061
1.775763 1.623947 7.460910
1.731383 1.606477 7.762274
1.753862 1.612811 8.418449
1.733439 1.603984 8.810634
1.716575 1.596478 9.203906
1.741572 1.604015 9.775126
1.753713 1.607034 10.258904
1.611095 1.551968 10.881306
1.070071 1.348694 11.435174
0.615214 1.310470 0.847494
0.534899 1.270617 1.413235
1.000243 1.489490 1.868491
1.195300 1.580661 2.237192
1.127246 1.546920 2.708031
1.148699 1.555865 3.084541
1.179575 1.568983 3.550227
1.222624 1.587579 4.104805
1.263969 1.605659 4.569512
1.239325 1.591881 5.223592
1.371272 1.653189 5.586191
1.338320 1.636050 6.062783
1.221067 1.578941 6.555839
1.439963 1.681767 6.810809
1.625891 1.767800 7.432618
1.597643 1.753169 7.822021
1.588450 1.747272 8.301044
1.672849 1.785753 8.760948
1.656189 1.776600 9.152963
1.661259 1.777449 9.634305
1.603142 1.748016 10.228521
1.552902 1.722300 10.826192
1.139882 1.524748 11.442787
0.080898 1.108301 1.250746
0.698873 1.462786 1.707237
0.974786 1.620202 2.165125
0.991185 1.628379 2.542959
0.923910 1.588344 2.922968
0.963886 1.609211 3.566374
0.998135 1.627383 4.029976
1.036917 1.648169 4.493110
1.166321 1.721202 4.944580
1.195065 1.736810 5.227455
1.180409 1.726176 5.879120
1.077404 1.664887 6.458144
1.115238 1.685730 6.741711
1.423973 1.862507 7.065207
1.434830 1.866570 7.717021
1.509650 1.908137 8.174300
1.488375 1.894575 8.562350
1.486766 1.892043 9.039842
1.507553 1.902113 9.606725
1.479968 1.885202 9.909754
1.492165 1.890613 10.390383
1.402646 1.836358 11.188028
0.399213 1.392291 0.936117
0.658954 1.568676 1.581223
0.837920 1.690151 2.041944
0.860630 1.703806 2.597870
0.797334 1.658913 2.980787
0.824757 1.676126 3.447694
0.938617 1.752827 3.905594
0.892701 1.719564 4.380256
0.999060 1.791748 4.656608
1.042150 1.819747 5.120664
1.089579 1.850733 5.584107
0.907124 1.723130 6.177777
0.953110 1.753432 6.553746
1.282190 1.977695 7.147095
1.361804 2.030520 7.695390
1.324398 2.003725 7.996680
1.398721 2.053224 8.456111
1.412400 2.060628 9.023366
1.383180 2.039454 9.327338
1.504420 2.120607 9.961716
1.419127 2.060461 10.379078
1.295832 1.973452 11.001054
0.056194 1.235379 1.405403
0.604096 1.683794 1.678301
0.773079 1.820673 2.139456
0.714454 1.770802 2.612210
0.746982 1.795047 3.259262
0.764065 1.807971 3.548132
0.801453 1.836543 4.104805
0.837355 1.864234 4.571603
0.893759 1.908075 5.215978
0.980869 1.979163 5.313455
0.893160 1.904696 5.982097
0.869174 1.883211 6.462229
1.143704 2.107166 6.791950
1.191576 2.145029 7.165401
1.203557 2.152388 7.820460
1.169576 2.123370 8.123960
1.208026 2.152100 8.869816
1.225890 2.164604 9.440283
1.216980 2.155815 9.833105
1.227891 2.162949 10.315063
1.168436 2.112264 10.822959
0.871422 1.866739 11.323132
0.394184 1.654943 1.571724
0.548189 1.801665 1.944299
0.567472 1.817971 2.501686
0.583661 1.832025 2.879707
0.612088 1.857135 3.436374
0.645957 1.887485 3.992476
0.685260 1.923068 4.547910
0.722437 1.956968 5.013493
0.747283 1.979721 5.300485
0.656474 1.889979 5.879245
0.704434 1.934261 6.343847
0.817117 2.041264 6.703282
0.942833 2.160464 7.148822
1.024557 2.236549 7.785323
1.051024 2.261237 7.979882
1.071602 2.278397 8.634022
1.071696 2.276551 9.113166
1.075892 2.278648 9.593402
1.169679 2.366711 10.139061
1.080533 2.279574 10.468862
0.957103 2.158615 11.002781
-0.279813 1.074086 1.092195
-0.205297 1.156435 1.572112
0.398890 1.839735 1.921199
0.542374 2.000763 2.286598
0.489866 1.939580 2.665007
0.522923 1.973833 3.395455
0.548322 2.000587 3.857646
0.577176 2.031260 4.319390
0.602981 2.058870 4.691690
0.624123 2.081587 4.974760
0.618866 2.072371 5.714364
0.513699 1.951800 6.024665
0.577083 2.020824 6.665099
0.793565 2.265555 6.812309
0.789568 2.258547 7.374989
0.943125 2.429506 8.078068
0.903276 2.383407 8.289087
0.900525 2.378193 8.765030
0.914559 2.391613 9.330089
0.933838 2.410972 9.896151
0.914657 2.387895 10.199434
0.878022 2.343758 10.792439
0.592069 2.016545 11.493993
0.067924 1.618936 1.674794
0.379724 2.031401 2.122944
0.388364 2.041507 2.408449
0.415957 2.074658 3.139131
0.368948 2.010726 3.431693
0.402424 2.052131 4.073789
0.413873 2.066405 4.270002
0.461482 2.126179 4.999757
0.415948 2.064622 5.207282
0.399299 2.039742 5.772280
0.395459 2.031457 6.428112
0.600235 2.302613 6.667343
0.714203 2.451596 7.198311
0.694611 2.423665 7.585399
0.746487 2.490433 8.043062
0.753571 2.497118 8.607436
0.683425 2.401845 9.018204
0.782042 2.529491 9.739501
0.790285 2.538128 10.219267
0.702979 2.420855 10.460952
0.628756 2.318708 11.171233
-0.397225 1.099901 1.165624
-0.126348 1.530724 1.536904
0.097426 1.885324 2.081840
0.213557 2.068888 2.448481
0.169575 1.997004 2.740008
0.246527 2.116482 3.375902
0.263014 2.140773 3.750144
0.285941 2.174869 4.212945
0.311654 2.213419 4.675249
0.351834 2.274118 5.314192
0.318845 2.219772 5.610920
0.195488 2.019883 6.114253
0.352435 2.267326 6.725623
0.474067 2.460798 6.889166
0.515886 2.525107 7.347411
0.535340 2.552135 8.086647
0.480502 2.461776 8.583452
0.470414 2.443511 8.973803
0.514054 2.511219 9.343488
0.518983 2.516461 9.823004
0.526939 2.526537 10.303511
0.511452 2.498040 10.986038
-0.525035 0.982914 1.526207
-0.011472 1.968894 1.873073
0.132795 2.244749 2.147622
0.057672 2.096083 2.799634
0.072867 2.122385 3.264309
0.094157 2.159855 3.817527
0.114692 2.196438 4.281300
0.128570 2.221336 4.567090
0.152921 2.265279 5.027935
0.190619 2.333789 5.665186
0.083843 2.125168 6.166738
0.071021 2.097482 6.643880
0.281155 2.499860 6.952815
0.310688 2.554352 7.321995
0.341776 2.611841 7.690592
0.308340 2.543275 8.360219
0.316211 2.554851 8.925145
0.344901 2.608282 9.205878
0.348603 2.612385 9.683962
0.320334 2.554260 10.274665
0.296064 2.503808 10.868807
0.119859 2.161609 11.368075
-0.088329 2.150674 2.006440
-0.111203 2.090971 2.742570
-0.101028 2.112263 3.117918
-0.047836 2.234859 3.574133
-0.034694 2.263191 3.948000
-0.016586 2.302627 4.410148
0.011833 2.365170 5.048662
-0.017237 2.294746 5.256406
-0.089046 2.118208 6.113548
-0.110644 2.064790 6.414186
0.060561 2.468691 6.639232
0.102607 2.563541 7.274590
0.141936 2.652623 7.820520
0.125272 2.610891 8.121303
0.131032 2.620302 8.686687
0.139886 2.637034 9.253197
0.135483 2.623665 9.645211
0.141044 2.633238 10.126032
0.102314 2.538349 10.544504
0.083874 2.490190 11.142005
-0.197924 2.323979 1.929256
-0.221600 2.248102 2.395693
-0.241594 2.182510 2.952979
-0.234792 2.200420 3.238495
-0.248512 2.152940 3.887331
-0.233819 2.193045 4.350685
-0.192723 2.314691 4.625641
-0.175401 2.362762 5.087000
-0.179828 2.343352 5.737411
-0.251696 2.121488 6.241117
-0.211054 2.242622 6.423357
-0.094384 2.591365 6.837862
-0.053926 2.706946 7.558743
-0.087755 2.600133 8.052672
-0.100490 2.558848 8.354378
-0.088331 2.589524 9.008929
-0.085936 2.592310 9.488750
-0.044411 2.712744 10.034036
-0.075744 2.614184 10.451440
-0.082783 2.590066 10.758512
-0.437870 2.110749 2.095028
-0.431373 2.132086 2.557975
-0.445250 2.067166 3.116179
-0.414707 2.190095 3.482963
-0.402449 2.234386 4.033543
-0.390828 2.277131 4.494906
-0.383065 2.305994 4.778800
-0.366727 2.367340 5.327635
-0.374738 2.327978 5.800638
-0.401182 2.210352 6.378317
-0.360398 2.375048 6.824041
-0.299302 2.625895 7.162066
-0.283334 2.687947 7.531018
-0.285344 2.673627 8.004822
-0.290398 2.647685 8.392173
-0.303513 2.584515 9.064878
-0.301284 2.587838 9.543321
-0.292549 2.617210 10.110602
-0.298216 2.589739 10.415414
-0.303381 2.559638 11.098028
-0.738588 1.247047 1.036080
-0.687587 1.562242 1.794050
-0.606129 2.078508 2.331222
-0.603026 2.093082 2.618733
-0.597349 2.120914 3.083785
-0.603383 2.069524 3.734165
-0.597359 2.101378 4.105706
-0.573997 2.243804 4.555437
-0.566835 2.283053 4.925332
-0.572383 2.238235 5.395490
-0.570689 2.235132 6.133048
-0.596041 2.067035 6.355082
-0.549011 2.359476 6.960642
-0.508461 2.615187 7.295395
-0.504275 2.629907 7.942835
-0.510239 2.585683 8.240667
-0.509847 2.579177 8.715154
-0.487287 2.713000 9.344456
-0.491649 2.679081 9.644983
-0.496413 2.635413 10.320668
-0.499650 2.608714 10.623908
-0.539019 2.343644 11.180893
-0.819127 1.383232 0.910095
-0.817925 1.387963 1.199362
-0.785584 1.798614 1.656568
-0.767361 2.018872 2.202017
-0.764879 2.037280 2.575682
-0.760028 2.076770 3.215603
-0.750144 2.196973 3.492271
-0.751687 2.151515 4.138804
-0.749720 2.170019 4.334023
-0.741776 2.247140 5.060060
-0.736233 2.302767 5.519811
-0.741194 2.229029 5.727391
-0.747435 2.120599 6.393216
-0.734672 2.275829 6.750191
-0.712937 2.547228 7.176123
-0.711495 2.544583 7.737910
-0.709458 2.549771 8.301009
-0.710097 2.526271 8.689774
-0.712128 2.487675 8.991763
-0.696135 2.668267 9.798855
-0.702917 2.562393 10.213784
-0.700202 2.579752 10.694487
-0.709394 2.433949 11.316061
-0.926795 1.214570 1.023155
-0.927788 1.622191 1.392925
-0.929064 2.030138 1.666544
-0.927050 1.951534 2.220774
-0.925824 1.975173 2.682609
-0.924399 2.010202 3.232946
-0.922482 1.953019 3.791131
-0.921564 1.986074 4.164014
-0.920777 2.140556 4.703438
-0.919702 2.192322 5.162972
-0.918113 2.150127 5.634770
-0.917481 2.187840 5.917381
-0.915931 2.154448 6.390995
-0.915140 2.211289 6.761926
-0.914749 2.529068 7.450222
-0.913464 2.497272 7.835941
-0.911858 2.503842 8.398341
-0.910451 2.499630 8.874220
-0.909628 2.598644 9.329417
-0.908728 2.544547 9.543695
-0.906526 2.499306 10.220637
-0.905355 2.494718 10.614655
-0.902229 2.251135 11.262975
-1.044650 1.330273 0.997820
-1.062309 1.534891 1.282274
-1.080196 1.753497 1.920601
-1.098554 1.968479 2.286218
-1.090209 1.888393 2.664905
-1.091453 1.917133 3.127496
-1.093555 1.958228 3.678457
-1.087343 1.907604 4.238275
-1.097478 2.025789 4.424333
-1.101821 2.094492 5.062133
-1.095808 2.040391 5.446335
-1.116995 2.286027 5.791941
-1.132214 2.474439 6.409557
-1.093683 2.068219 7.032721
-1.087112 2.002337 7.243574
-1.119751 2.376676 7.650124
-1.128656 2.495645 8.280973
-1.115147 2.356497 8.600573
-1.123917 2.471137 9.144051
-1.124520 2.496088 9.708600
-1.122487 2.486231 10.099038
-1.113742 2.405757 10.602660
-1.084922 2.114330 11.452021
-1.146016 1.246070 1.119230
-1.196659 1.548052 1.401256
-1.231659 1.762869 1.949114
-1.250115 1.877558 2.319131
-1.236819 1.809218 2.876287
-1.240730 1.840187 3.339416
-1.245526 1.876349 3.802161
-1.250050 1.909367 4.175847
-1.253890 1.936827 4.460659
-1.231786 1.820171 5.211118
-1.273560 2.072809 5.648094
-1.347667 2.513032 5.964455
-1.336957 2.455320 6.259484
-1.289433 2.191619 7.129914
-1.280157 2.142400 7.429882
-1.306869 2.305224 7.782818
-1.303627 2.294461 8.259183
-1.309924 2.344244 8.999938
-1.322489 2.424356 9.369064
-1.305989 2.336257 9.870735
-1.303514 2.328554 10.263809
-1.292455 2.273985 10.858374
-1.210114 1.800069 11.384740
-1.242217 1.146548 0.904560
-1.243061 1.155414 1.374696
-1.343374 1.553779 1.741211
-1.395892 1.765462 2.197519
-1.374768 1.686966 2.577071
-1.381531 1.720058 3.129578
-1.388634 1.753431 3.592851
-1.397040 1.791914 4.055705
-1.406746 1.835500 4.518082
-1.370931 1.701586 5.091397
-1.454570 2.034110 5.428723
-1.566061 2.476842 5.833912
-1.550525 2.419294 6.128415
-1.523549 2.321129 6.789059
-1.419132 1.917355 7.329773
-1.438037 1.997057 7.790491
-1.498915 2.239099 8.036665
-1.483997 2.189475 8.796760
-1.469450 2.134880 9.012362
-1.497762 2.252534 9.558070
-1.474830 2.168402 10.061560
-1.482680 2.205966 10.631447
-1.409686 1.924817 11.103599
-1.367827 1.130337 0.821104
-1.369105 1.138172 1.289065
-1.470538 1.434246 1.746785
-1.540854 1.640716 2.202024
-1.515944 1.573945 2.758282
-1.519338 1.585456 2.954367
-1.530544 1.622610 3.505497
-1.544199 1.666809 4.056052
-1.527637 1.624104 4.616320
-1.634860 1.935015 4.867569
-1.749033 2.267443 5.288997
-1.766977 2.323135 5.743047
-1.754108 2.290240 6.210869
-1.710581 2.169235 6.695774
-1.641258 1.974933 7.289019
-1.596973 1.851041 7.694356
-1.634670 1.965202 8.329295
-1.631771 1.961102 8.807305
-1.644726 2.000120 9.001376
-1.682756 2.114432 9.545406
-1.666081 2.072440 10.222693
-1.656321 2.047051 10.527582
-1.589144 1.860964 11.350526
-1.213170 0.474561 1.188175
-1.578371 1.309819 1.635306
-1.781375 1.773610 1.814558
-1.670386 1.525465 2.464974
-1.597559 1.362341 2.850431
-1.608730 1.391155 3.314372
-1.627685 1.438988 3.955736
-1.838352 1.928002 5.206529
-1.984301 2.264159 5.710013
-1.963851 2.220317 6.088997
-1.899984 2.077046 6.397062
-1.853386 1.975042 6.970583
-1.697385 1.624844 7.689381
-1.671609 1.567661 7.902069
-1.791532 1.844566 8.411404
-1.810714 1.893639 9.152372
-1.795739 1.861717 9.455106
-1.828900 1.939937 9.823804
-1.819521 1.924128 10.590663
-1.769946 1.813584 10.921761
-1.632504 1.091632 1.699872
-1.777606 1.361805 1.885621
-1.744324 1.304595 2.618733
-1.756519 1.330043 3.081009
-1.715066 1.254430 3.283778
-1.734164 1.293225 3.835587
-1.804072 1.426164 4.376931
-1.924594 1.652856 4.903673
-2.090526 1.963092 5.324445
-2.153820 2.082081 5.590808
-2.129374 2.039082 5.969986
-2.024857 1.848889 6.555269
-1.877542 1.579489 7.164023
-1.781319 1.404766 7.764297
-1.821242 1.481615 8.225041
-1.910197 1.649244 8.664633
-1.963859 1.752085 9.209993
-1.946592 1.721931 9.513120
-1.959499 1.749346 10.080767
-1.899213 1.639591 10.410043
-1.826172 1.507981 11.031790
-1.272704 0.272254 1.079545
-1.766316 1.037189 1.526606
-1.992706 1.389787 2.061284
-1.888284 1.229558 2.263351
-1.848600 1.171224 2.817634
-1.870630 1.208677 3.455574
-1.944057 1.324527 3.906744
-1.907515 1.270110 4.286265
-1.990958 1.401891 4.822808
-2.288495 1.863657 5.219654
-2.246896 1.800482 5.422249
-2.190029 1.716608 6.163856
-2.172211 1.691594 6.632198
-2.027146 1.468775 6.870929
-1.976585 1.394243 7.537832
-1.718414 0.999424 8.285102
-1.675969 0.934523 8.410036
-2.021673 1.471929 9.036099
-2.054238 1.523737 9.316346
-2.078686 1.565011 9.970296
-2.020730 1.477707 10.385615
-1.718084 0.713902 0.804941
-1.475850 0.402948 1.190059
-1.669011 0.655421 1.831649
-1.981160 1.059754 2.098416
-1.938297 1.007476 2.743356
-1.894275 0.952865 3.212850
-1.910459 0.975545 3.587207
-2.177513 1.327238 5.028805
-2.325472 1.519934 5.373988
-2.293083 1.479924 5.755020
-2.285958 1.473794 6.400319
-2.199053 1.363480 6.800096
-2.011934 1.124780 7.413490
-1.810644 0.866978 7.857790
-1.803152 0.859604 8.341268
-1.968230 1.074357 8.676550
-2.098103 1.244573 9.205706
-2.088313 1.233806 9.599484
-2.106417 1.259901 10.170767
-2.056469 1.197825 10.679416
-1.965540 1.083392 11.305632
-1.435292 0.209007 1.129659
-1.911664 0.733529 1.494551
-2.120955 0.964867 1.861143
-2.063330 0.903249 2.240484
-1.944038 0.774353 2.716124
-1.908150 0.738161 3.456779
-2.052477 0.897390 3.639988
-2.027883 0.873592 4.379823
-2.107961 0.962313 4.567888
-2.422072 1.309688 5.158685
-2.266795 1.141753 5.741749
-2.175391 1.043521 6.229045
-2.203139 1.075209 6.512796
-2.080862 0.944327 7.286843
-1.904175 0.751439 7.534830
-1.585104 0.404443 8.290243
-1.580567 0.401580 8.780068
-2.028477 0.894383 9.034937
-2.161413 1.042220 9.475312
-2.194457 1.081348 10.134932
-2.204740 1.094730 10.618925
-2.138226 1.023540 11.041113
-1.883003 0.500190 0.839162
-1.520503 0.162246 1.135958
-1.677778 0.311958 1.782091
-1.977079 0.593050 2.055036
-1.922509 0.544230 2.614422
-1.934185 0.556299 2.901492
-1.888092 0.515420 3.463617
-2.277339 0.885320 4.904852
-2.445815 1.043969 5.164721
-2.238560 0.856551 6.787119
-2.015768 0.650582 7.403546
-2.063533 0.696763 7.778390
-1.721114 0.379442 8.535259
-1.606690 0.273349 8.774077
-2.106159 0.741984 9.117790
-2.179865 0.812782 9.579905
-2.217167 0.850316 10.240951
-2.245803 0.879393 10.814336
-2.016959 0.666845 11.200634
-1.212920 -0.211800 0.873098
-1.924241 0.356363 1.416276
-2.252651 0.620078 2.042998
-2.027570 0.442043 2.340214
-1.972254 0.400095 2.898353
-1.922913 0.362911 3.458728
-2.168532 0.559040 3.630976
-1.991082 0.420955 4.476125
-2.098968 0.508174 4.839330
-2.597955 0.906442 5.141250
-2.391299 0.743145 5.458319
-2.292012 0.666255 6.031318
-2.121729 0.532933 6.623822
-1.881020 0.343646 7.239721
-1.863839 0.335706 8.779733
-1.924752 0.385584 9.155064
-2.172243 0.584455 9.663380
-2.223210 0.626074 9.946529
-2.343627 0.724282 10.582407
-2.248067 0.649461 10.914339
-1.525952 -0.089244 1.090342
-1.955025 0.198953 1.745270
-2.052659 0.265624 2.206516
-1.918230 0.178656 2.950672
-1.933667 0.189947 3.237949
-1.956449 0.206446 3.614477
-1.988626 0.229516 4.080040
-2.115513 0.315969 4.623930
-2.306149 0.443918 4.887322
-2.377777 0.494186 5.612925
-2.481408 0.563875 5.794692
-2.319679 0.458795 6.561674
-1.862975 0.155804 6.940244
-1.788251 0.108394 7.620329
-1.517145 -0.070673 8.071228
-1.524470 -0.063762 8.651234
-1.817532 0.132314 8.879742
-2.078156 0.307769 9.392003
-2.245868 0.421060 9.831663
-2.255775 0.429355 10.315498
-2.208766 0.400126 10.913876
-1.907998 0.201786 11.505366
-1.342998 -0.306369 1.343958
-1.524266 -0.204792 1.630232
-1.891199 0.000709 2.174923
-1.827851 -0.032582 2.737213
-1.847895 -0.020196 3.115327
-1.876900 -0.002537 3.582826
-2.235271 0.200345 4.768130
-2.550174 0.376858 5.280994
-2.196273 0.185272 6.741095
-1.770156 -0.048801 7.481364
-1.598813 -0.141878 8.092475
-1.591247 -0.144451 8.580506
-1.727450 -0.067951 8.848710
-2.052817 0.113707 9.162648
-2.177032 0.184794 9.803008
-2.168486 0.181368 10.198781
-2.248131 0.226820 10.571154
-2.158970 0.180003 11.374325
-1.219140 -0.456557 1.111244
-1.681447 -0.245093 1.479898
-1.967661 -0.113447 1.935922
-1.796290 -0.190455 2.230182
-1.745999 -0.210669 3.061593
-1.661548 -0.248718 3.175488
-1.803052 -0.182020 3.904580
-1.750756 -0.204286 4.380075
-1.949545 -0.113300 4.556686
-2.374845 0.082057 5.152268
-2.436389 0.111801 5.699117
-2.200206 0.005405 6.021899
-2.014845 -0.076720 6.705802
-1.799191 -0.173459 7.128282
-1.885073 -0.132618 7.683457
-1.620123 -0.251118 8.312794
-1.492464 -0.308139 8.639568
-1.829824 -0.153672 8.957186
-2.045156 -0.053736 9.579129
-2.072605 -0.039412 10.153689
-2.155171 -0.000662 10.526758
-2.261738 0.049286 10.987654
-1.823931 -0.148163 11.515808
-1.281674 -0.514445 1.549293
-1.672286 -0.372019 2.005785
-1.696117 -0.361689 2.563390
-1.638847 -0.380338 3.217375
-1.658198 -0.372461 3.505220
-2.042166 -0.230159 4.695621
-2.307096 -0.132334 5.401025
-2.362763 -0.110814 5.860742
-2.237186 -0.154636 6.348864
-1.838405 -0.296928 6.887729
-1.631728 -0.369942 7.403362
-1.415784 -0.446565 7.834200
-1.437886 -0.436510 8.504479
-1.710906 -0.336619 8.933736
-1.951688 -0.248936 9.178804
-2.066686 -0.205709 9.731637
-2.097293 -0.192880 10.306425
-2.205267 -0.152470 10.768297
-2.092140 -0.192274 11.102586
-1.047461 -0.669032 1.764468
-1.258001 -0.610908 2.231852
-1.569965 -0.525494 2.688839
-1.586454 -0.520178 2.978688
-1.611043 -0.512408 3.358500
-2.029062 -0.395385 4.823081
-2.271963 -0.328624 5.263673
-2.255080 -0.331205 5.915721
-2.006649 -0.397138 6.243183
-1.787131 -0.454729 6.753942
-1.492941 -0.532099 7.376399
-1.207811 -0.606999 8.008247
-1.371701 -0.561756 8.371428
-1.633287 -0.490263 8.712311
-1.971919 -0.396950 9.406272
-2.033662 -0.379456 9.691956
-2.117603 -0.355715 10.066135
-2.175560 -0.338100 10.730147
-2.011385 -0.380699 11.268806
-0.973660 -0.756152 1.076609
-1.178242 -0.717228 1.457286
-1.579774 -0.642217 1.737065
-1.605702 -0.635500 2.387287
-1.429181 -0.666952 2.778836
-1.458482 -0.660146 3.248958
-1.591048 -0.634287 3.710631
-1.460277 -0.656202 4.468264
-1.694310 -0.611905 4.826146
-2.214258 -0.515163 5.056329
-2.280033 -0.501384 5.605734
-2.133927 -0.527194 6.004899
-1.907433 -0.567538 6.511183
-1.521942 -0.636611 7.235751
-1.310511 -0.674128 7.757025
-1.315718 -0.671446 8.337444
-1.467788 -0.642550 8.608019
-1.832430 -0.574241 8.925897
-1.969332 -0.547043 9.569376
-1.958061 -0.547948 9.966672
-1.993770 -0.539642 10.543290
-2.014550 -0.534357 11.031619
-1.661590 -0.597804 11.626246
-0.911498 -0.831477 1.175146
-1.022559 -0.818703 1.646131
-1.231145 -0.796472 1.929128
-1.454426 -0.771950 2.479921
-1.276636 -0.789051 2.869584
-1.307319 -0.784527 3.339361
-1.259466 -0.787507 3.998324
-1.195062 -0.792976 4.387296
-1.638457 -0.746229 4.814921
-2.195514 -0.687624 5.309694
-2.340649 -0.671685 5.667401
-1.150652 -0.787671 7.754661
-1.058044 -0.795418 8.353787
-1.424858 -0.756838 8.675728
-1.891389 -0.708106 8.971016
-2.050547 -0.689640 9.700258
-2.019193 -0.691961 10.006376
-1.981460 -0.693819 10.693617
-2.004020 -0.690079 11.180474
-0.835007 -0.906366 1.028054
-0.845207 -0.904803 1.504280
-1.164143 -0.897697 2.059490
-1.390540 -0.892193 2.611690
-1.213317 -0.894099 3.004043
-1.232793 -0.892917 3.294804
-1.176610 -0.892222 3.865194
-1.110927 -0.892213 4.256085
-1.584702 -0.882019 4.956607
-2.015002 -0.873913 5.197586
-2.195083 -0.868989 5.824128
-1.684656 -0.873934 7.141101
-1.091221 -0.882168 7.819962
-0.964908 -0.883120 8.239211
-1.387726 -0.874108 8.835037
-1.839276 -0.865737 9.041420
-1.980747 -0.861431 9.683591
-1.928376 -0.861699 9.901052
-1.844737 -0.861654 10.410247
-1.790541 -0.860834 11.011892
-0.464412 -0.950936 1.237026
-0.474217 -0.950422 1.623865
-0.890133 -0.975167 2.086137
-1.301945 -1.000209 2.358702
-1.145097 -0.988171 3.111591
-1.158779 -0.988447 3.311072
-1.095424 -0.983073 3.790116
-0.955707 -0.972345 4.462307
-1.193469 -0.986209 4.823129
-1.752932 -1.019850 5.323644
-1.887543 -1.027498 5.596614
-1.949498 -1.030036 6.059017
-1.424632 -0.995495 6.610526
-1.050911 -0.969653 7.431053
-0.987004 -0.965009 7.648155
-0.991191 -0.963574 8.229919
-1.296922 -0.981228 8.753283
-1.784989 -1.010726 9.138269
-1.907295 -1.016787 9.690536
-1.855351 -1.012890 9.909049
-1.697480 -1.001165 10.532562
-1.669139 -0.997363 11.226135
-0.408068 -0.985587 1.939803
-0.613853 -1.014430 2.132271
-0.937961 -1.059134 2.681538
-0.966705 -1.061856 3.152230
-1.000716 -1.065333 3.622565
-1.048172 -1.070466 4.183087
-0.789060 -1.032231 4.592108
-1.056600 -1.068609 5.223215
-1.593395 -1.144394 5.539316
-1.568358 -1.139150 6.105459
-1.315108 -1.101991 6.433733
-0.897005 -1.040636 6.978230
-0.794191 -1.024189 7.573874
-0.958578 -1.046614 7.937031
-1.275548 -1.090111 8.549429
-1.660581 -1.143946 8.954283
-1.720720 -1.151705 9.238202
-1.706180 -1.148466 9.632766
-1.833831 -1.165090 10.183160
-1.681099 -1.141429 10.805981
-1.466243 -1.108532 11.550492
-0.323718 -1.014111 1.798557
-0.537499 -1.060791 2.269227
-0.848786 -1.129705 2.638603
-0.882933 -1.135700 3.202932
-0.903525 -1.139461 3.494653
-0.941172 -1.146516 3.967524
-0.895819 -1.134605 4.540443
-0.751173 -1.100591 5.035577
-0.999574 -1.155119 5.485643
-1.180231 -1.193848 6.124167
-1.014866 -1.155971 6.352235
-0.795060 -1.104985 6.869874
-0.789009 -1.101888 7.451347
-0.774601 -1.097178 7.943196
-1.036168 -1.154980 8.288931
-1.563535 -1.271630 8.948356
-1.642450 -1.288258 9.324165
-1.609773 -1.279987 9.632417
-1.641525 -1.285408 10.209024
-1.609093 -1.276048 10.900384
-1.328598 -1.211528 11.379095
0.255839 -0.883975 1.246246
-0.132486 -1.006139 1.535319
-0.716367 -1.190028 1.902698
-0.844863 -1.228477 2.644483
-0.676627 -1.173960 3.039830
-0.810418 -1.214648 3.598119
-0.935777 -1.253227 3.972310
-1.056077 -1.290484 4.254228
-1.218066 -1.329595 8.252251
-1.008591 -1.261887 8.688068
-1.101519 -1.289900 9.156794
-1.106520 -1.289989 9.646327
-1.117059 -1.291829 10.136879
-1.062235 -1.272606 10.742690
-0.808711 -1.190532 11.312489
-0.058398 -1.015267 1.743224
-0.265013 -1.097494 2.307805
-0.658463 -1.256022 2.763852
-0.600388 -1.230612 3.335887
-0.528657 -1.200502 3.636757
-0.558627 -1.211477 4.021434
-0.626050 -1.236547 4.766033
-0.665271 -1.251298 5.146158
-0.891541 -1.342174 5.501259
-0.879774 -1.335309 6.163022
-0.655981 -1.242996 6.584915
-0.541220 -1.194759 7.087161
-0.585711 -1.211936 7.377059
-0.708625 -1.259569 8.120672
-0.957980 -1.359876 8.461426
-1.300587 -1.498172 8.777800
-1.373693 -1.526720 9.151155
-1.306974 -1.497723 9.746312
-1.268633 -1.479971 10.434453
-1.244858 -1.469333 10.743375
-1.110207 -1.412609 11.373133
-0.176762 -1.115580 2.326441
-0.471979 -1.262485 2.875928
-0.411272 -1.230344 3.355100
-0.444487 -1.245532 3.827887
-0.393574 -1.218316 4.309618
-0.419346 -1.230349 4.600299
-0.572767 -1.305528 5.243345
-0.614605 -1.325362 5.623319
-0.582275 -1.307499 6.107089
-0.491585 -1.259595 6.789201
-0.471414 -1.247843 7.277144
-0.529851 -1.276035 7.658097
-0.518779 -1.268861 8.147528
-0.775579 -1.396798 8.579801
-1.194283 -1.606727 8.876176
-1.178484 -1.597482 9.270941
-1.028955 -1.520145 9.890505
-0.994387 -1.500478 10.582144
-1.100602 -1.552460 11.047199
-0.889090 -1.443774 11.706084
0.020899 -1.062317 1.652623
-0.168893 -1.175692 2.214518
-0.365040 -1.292948 2.770668
-0.210151 -1.197822 3.075123
-0.245614 -1.217432 3.642064
-0.280414 -1.236952 4.117150
-0.319821 -1.259272 4.591752
-0.355013 -1.279344 4.974746
-0.507072 -1.369522 5.617651
-0.444634 -1.330869 5.830401
-0.450519 -1.331856 6.589527
-0.332591 -1.258812 7.002441
-0.413464 -1.306014 7.567177
-0.318287 -1.246463 8.076140
-0.548536 -1.385154 8.420978
-1.032326 -1.678080 8.701717
-1.116147 -1.727414 9.166130
-1.187143 -1.769265 9.540462
-1.149536 -1.744080 10.227117
-0.936565 -1.612491 10.877861
-0.690738 -1.461529 11.356786
0.109153 -1.058139 1.744642
-0.061245 -1.181735 2.031420
-0.244690 -1.313896 2.588561
-0.117136 -1.218186 3.257974
-0.146623 -1.238037 3.733406
-0.160420 -1.247402 3.934588
-0.203458 -1.276838 4.500578
-0.316359 -1.358071 4.872904
-0.360624 -1.388741 5.345469
-0.339066 -1.370895 5.921239
-0.153371 -1.233216 6.436490
-0.144050 -1.224299 7.018129
-0.300278 -1.336584 7.567177
-0.196942 -1.259495 7.985296
-0.413940 -1.416961 8.331071
-0.791386 -1.691937 8.633112
-0.949027 -1.805631 9.078354
-1.002877 -1.842298 9.831497
-0.918191 -1.778838 10.252687
-0.795769 -1.687032 10.880312
-0.563849 -1.515674 11.359606
0.265746 -0.982840 1.843021
0.177625 -1.057222 2.228347
-0.068425 -1.267263 2.692284
-0.015886 -1.220173 3.175841
-0.048816 -1.246336 3.744823
-0.074305 -1.266806 4.127844
-0.109548 -1.295326 4.601723
-0.165076 -1.340610 5.257117
-0.183568 -1.355763 5.456847
-0.239662 -1.401889 6.019853
-0.066301 -1.250663 6.534937
0.038540 -1.158814 6.948669
-0.170346 -1.336944 7.390923
-0.097208 -1.271678 7.989928
-0.341636 -1.479736 8.606335
-0.785933 -1.860822 8.973108
-0.758685 -1.836187 9.279315
-0.690474 -1.775510 9.787528
-0.734056 -1.810466 10.454358
-0.641820 -1.729775 10.788922
-0.459865 -1.570599 11.447004
0.570497 -0.732250 1.062334
0.417150 -0.884639 1.728059
0.195542 -1.107277 2.107081
0.038272 -1.264446 2.576761
0.087762 -1.212369 3.060836
0.063223 -1.235214 3.539285
0.034845 -1.261944 4.017320
-0.010687 -1.305276 4.677210
-0.033410 -1.327045 4.971899
-0.159238 -1.451674 5.617651
-0.134669 -1.424794 6.105671
0.044142 -1.242488 6.442198
0.061879 -1.222500 6.935324
-0.052146 -1.336328 7.305593
0.004088 -1.276560 7.999192
-0.185521 -1.466952 8.347356
-0.583727 -1.868653 8.631891
-0.625665 -1.907950 9.388141
-0.534741 -1.814579 9.721076
-0.544377 -1.822290 10.212534
-0.506183 -1.781135 10.819041
-0.321457 -1.591871 11.390624
0.359316 -0.999870 1.648668
0.347075 -1.012237 2.129181
0.195782 -1.189018 2.781813
0.179448 -1.206676 3.167984
0.146202 -1.243186 3.827943
0.182087 -1.198356 4.314005
0.162891 -1.219827 4.608594
0.071738 -1.326420 4.983284
0.012415 -1.393511 5.731372
0.042358 -1.356143 6.128576
0.133532 -1.245961 6.541713
0.148974 -1.225390 7.033830
0.043953 -1.348483 7.402654
0.168637 -1.197559 8.022151
-0.005182 -1.402478 8.370126
-0.406161 -1.876332 8.923101
-0.383296 -1.847770 9.232375
-0.388366 -1.851579 9.721776
-0.425512 -1.892679 10.391140
-0.329962 -1.776314 11.021907
-0.146304 -1.555958 11.502553
0.329709 -1.126172 1.500912
0.437100 -0.972237 1.893442
0.429637 -0.981307 2.188466
0.293321 -1.170904 2.839341
0.278288 -1.190232 3.224051
0.256863 -1.218147 3.699868
0.347230 -1.087790 4.193391
0.204662 -1.287212 4.650151
-0.004274 -1.580170 5.180887
0.032263 -1.526947 5.482815
-0.068399 -1.666615 6.030529
0.103769 -1.419423 6.739938
0.238910 -1.226037 7.169395
0.153327 -1.345742 7.444950
0.254699 -1.198724 8.154251
0.077220 -1.447191 8.681095
-0.205569 -1.845365 9.069620
-0.241931 -1.895367 9.356535
-0.271797 -1.934261 10.023057
-0.281723 -1.945840 10.511618
-0.156301 -1.766556 10.871771
-0.004978 -1.549562 11.441814
0.423175 -1.090271 1.174570
0.317003 -1.267606 1.465955
0.204043 -1.454847 2.026547
0.347168 -1.211269 2.425558
0.377335 -1.156629 3.087625
0.417316 -1.087522 3.385826
0.439698 -1.045981 4.052258
0.369929 -1.161471 4.426151
0.191881 -1.459128 4.867461
0.106964 -1.599162 5.415550
0.144539 -1.534616 5.625263
0.017194 -1.747305 5.976552
0.155022 -1.509874 6.863101
0.374375 -1.137432 7.323395
0.323137 -1.220589 7.888356
0.436506 -1.026959 8.325604
0.257027 -1.328213 8.559660
-0.071956 -1.879212 9.197735
-0.075710 -1.882766 9.683643
-0.071315 -1.873086 10.080994
-0.030962 -1.802130 10.593015
0.055446 -1.653367 11.133333
0.272772 -1.282884 11.848872
0.468719 -1.139355 0.981639
0.420656 -1.235366 1.363039
0.411595 -1.250190 1.928096
0.534884 -0.994768 2.324649
0.478966 -1.106288 2.795749
0.464461 -1.132869 3.271186
0.527789 -0.998540 3.945844
0.388612 -1.282742 4.120668
0.145328 -1.778156 4.633179
0.199026 -1.663602 5.303133
0.269639 -1.516737 5.616428
0.142830 -1.772605 6.238843
0.216412 -1.620229 6.465551
0.393309 -1.253285 7.103888
0.393349 -1.249339 7.685300
0.534427 -0.957054 8.140244
0.415461 -1.198670 8.487366
0.141365 -1.756992 9.040143
0.095855 -1.847202 9.506866
0.048031 -1.942166 9.972413
0.135292 -1.760283 10.418642
0.167730 -1.690343 10.934828
0.344371 -1.322816 11.739623
0.669954 -0.818047 1.105065
0.522387 -1.196346 1.389748
0.403006 -1.498327 2.124327
0.501809 -1.239582 2.610616
0.562464 -1.079225 3.096911
0.554412 -1.097635 3.389365
0.644697 -0.860011 3.981264
0.487187 -1.263443 4.329380
0.249444 -1.872590 4.828321
0.336511 -1.643996 5.329533
0.390054 -1.502646 5.733383
0.268018 -1.815388 5.981990
0.339639 -1.625107 6.672339
0.525322 -1.141649 7.237863
0.524352 -1.139453 7.820617
0.584687 -0.978094 8.534085
0.527530 -1.123307 8.807353
0.321329 -1.652869 9.087136
0.240579 -1.856816 9.623103
0.227520 -1.885836 10.201343
0.254926 -1.811011 10.715353
0.323692 -1.630008 11.167838
0.571516 -0.983673 12.056986
0.647155 -1.049763 1.120880
0.615019 -1.153557 1.502633
0.580668 -1.263866 1.973366
0.657410 -1.000809 2.553083
0.653696 -1.011195 2.755012
0.613258 -1.140988 3.315564
0.653622 -0.998868 3.989553
0.559920 -1.310145 4.255021
0.403144 -1.831199 4.675383
0.415510 -1.784905 5.151860
0.401457 -1.828168 5.527687
0.354397 -1.981262 5.978989
0.471284 -1.583205 6.605775
0.580830 -1.208694 7.335818
0.612379 -1.097810 7.843080
0.670195 -0.898681 8.372548
0.602526 -1.123774 8.535116
0.462201 -1.589994 8.926971
0.398641 -1.797517 9.462733
0.388657 -1.825087 10.040043
0.417239 -1.725006 10.462866
0.465362 -1.558247 11.003342
0.614305 -1.051609 11.744455
0.729067 -0.994212 1.086249
0.684528 -1.197716 1.466167
0.681872 -1.206083 1.758506
0.735602 -0.943545 2.520556
0.732751 -0.954080 2.723207
0.682082 -1.183884 3.277611
0.735567 -0.926173 3.776110
0.532245 -1.869866 4.457825
0.552371 -1.763681 5.304973
0.541460 -1.809561 5.682727
0.514799 -1.931968 5.867734
0.593669 -1.550923 6.675860
0.679492 -1.140877 7.226638
0.702287 -1.026899 7.735737
0.740350 -0.839757 8.358573
0.682745 -1.104971 8.705718
0.588014 -1.546132 8.917462
0.532270 -1.797455 9.634652
0.537931 -1.766579 9.945152
0.558529 -1.664080 10.369841
0.588254 -1.515889 11.002285
0.690720 -1.023853 11.836870
0.794343 -0.990076 2.698701
0.803122 -0.913971 3.089410
0.811424 -0.841492 3.481723
0.753664 -1.274323 3.924683
0.679677 -1.827961 4.527344
0.671871 -1.877314 4.993051
0.727381 -1.439891 5.519950
0.769209 -1.107419 6.043978
0.708129 -1.566318 6.459398
0.722928 -1.441605 6.959440
0.785436 -0.947475 7.621922
0.777882 -0.998780 7.915090
0.754922 -1.166573 8.280333
0.723654 -1.392005 8.914425
0.706562 -1.510411 9.474968
0.691469 -1.615557 9.943975
0.681827 -1.682977 10.232360
0.699835 -1.530730 10.862715
0.744823 -1.172374 11.460086
0.899532 -0.465345 1.267200
0.875484 -0.971911 1.548924
0.859237 -1.291079 2.102066
0.865467 -1.118790 2.674442
0.878016 -0.831201 2.892935
0.870644 -0.962147 3.361867
0.848809 -1.404554 3.893523
0.831893 -1.745475 4.334128
0.828353 -1.793077 4.799716
0.838861 -1.537754 5.210489
0.843868 -1.397164 5.703980
0.825277 -1.769754 6.221090
0.837780 -1.457855 6.837445
0.865172 -0.829040 7.330898
0.867939 -0.730377 7.933422
0.872459 -0.604966 8.354976
0.857934 -0.893919 8.792727
0.827663 -1.519170 9.342425
0.825923 -1.526014 9.831580
0.825166 -1.517070 10.231788
0.828602 -1.415062 10.657106
