1.084834 0.749383 2.659353
0.996406 0.644270 3.754911
0.995521 0.644852 4.758672
1.099168 0.771770 5.727864
0.990894 0.642070 6.465912
0.769966 0.376249 7.258338
0.996739 0.651999 8.202961
1.219974 0.923699 9.286375
1.172854 0.867937 10.021521
1.023921 0.689352 10.927030
1.058322 0.581637 0.728862
0.912722 0.431887 1.947618
1.119896 0.649121 2.954649
1.309880 0.848418 3.936674
1.258276 0.796193 4.928845
1.191159 0.727366 5.624608
1.084347 0.617472 6.494356
0.872980 0.398838 7.443483
1.103206 0.640184 8.523561
1.302137 0.848472 9.290768
1.262710 0.808616 10.079097
1.055868 0.594240 10.729707
1.213981 0.590995 1.990247
1.126740 0.515503 2.968225
1.355131 0.718539 4.267792
1.546001 0.889080 5.968866
1.197842 0.583453 6.761029
0.983199 0.395277 7.425141
1.206373 0.593469 8.548128
1.391914 0.758125 9.398844
1.276055 0.657373 10.344351
1.035572 0.446169 10.820061
0.984664 0.287393 0.803121
1.179212 0.435024 2.250534
1.160149 0.421506 2.831319
1.688813 0.821667 5.995059
1.314061 0.542011 6.804904
1.007765 0.313412 7.445303
1.254380 0.499552 8.518133
1.440621 0.640282 9.448506
1.347515 0.571679 10.318141
1.056751 0.354920 11.115111
1.229864 0.347099 1.282766
1.218372 0.341147 2.299258
1.193739 0.326710 3.125016
1.694004 0.644324 6.051021
1.276163 0.382950 6.761029
0.935571 0.170221 7.600589
1.193958 0.333775 8.714008
1.438581 0.488462 9.643112
1.372891 0.448027 10.284520
1.037117 0.238341 11.139052
1.385149 0.320950 1.110557
1.320836 0.288374 2.127764
1.298979 0.278115 3.157593
1.767112 0.527531 6.123167
1.299607 0.282730 6.771032
0.955633 0.103111 7.666628
1.242054 0.254625 8.563639
1.476312 0.378920 9.613266
1.490762 0.387324 10.299430
1.133084 0.200295 11.017703
1.429222 0.218762 1.386167
1.413335 0.212993 2.271141
1.720708 0.345370 3.341984
1.973775 0.454775 4.588156
1.926748 0.435596 5.364938
1.673274 0.328359 6.170014
1.273457 0.158431 6.759084
0.881212 -0.007852 7.711343
1.151327 0.108614 8.770175
1.506114 0.260765 9.439920
1.466051 0.244688 10.331807
0.963382 0.031178 11.187186
1.504283 0.125189 1.630086
1.609935 0.161697 2.613045
1.804541 0.228134 3.694441
2.076552 0.320601 4.847923
1.899194 0.261944 5.571387
1.556477 0.148001 6.428757
1.347573 0.078844 7.220222
1.154124 0.014745 7.901050
1.253089 0.048884 8.768852
1.539314 0.145959 9.780638
1.551015 0.150695 10.515509
1.906905 0.094631 0.944083
1.466877 -0.011588 2.024339
1.642286 0.032180 2.913109
1.900625 0.096220 3.832483
2.003504 0.122578 4.990254
1.987773 0.119779 5.952505
1.792063 0.072847 6.720505
1.285240 -0.050112 7.394703
1.162519 -0.079443 7.966575
1.330746 -0.037102 9.156790
1.636187 0.038339 9.989332
1.547210 0.017673 10.959755
1.138483 -0.184395 0.670282
1.633528 -0.103557 2.855161
2.095237 -0.028099 4.953073
1.853675 -0.065513 5.797882
1.745800 -0.081878 6.498329
1.179322 -0.170906 7.266368
1.072390 -0.186972 8.107195
1.492923 -0.118973 9.331753
1.761588 -0.075512 10.131539
1.483229 -0.118896 10.850287
0.946250 -0.287069 0.834129
1.499405 -0.242442 1.953522
1.659217 -0.228820 2.969428
2.112108 -0.190881 5.216546
1.839860 -0.211341 6.093593
1.757074 -0.217300 6.609515
1.124851 -0.265975 7.543203
1.070043 -0.269506 8.278397
1.479100 -0.236115 9.475446
1.635566 -0.222865 10.387448
1.321888 -0.246844 11.013422
1.519251 -0.364258 1.628302
1.650800 -0.363624 2.628694
1.473633 -0.362297 3.358376
2.610588 -0.363474 5.663004
2.205707 -0.361336 6.479776
1.538168 -0.358808 6.876471
0.959489 -0.356221 7.596595
1.054976 -0.355180 8.876173
1.633009 -0.356068 9.771270
1.521931 -0.481544 1.607571
1.627504 -0.488807 2.676808
1.344064 -0.465589 3.336085
2.331584 -0.541475 5.792188
1.986552 -0.513417 6.399933
1.485755 -0.472804 7.176313
0.768646 -0.415090 7.868614
1.632349 -0.481757 9.735763
1.441794 -0.602107 1.696971
1.640994 -0.634108 2.508655
1.403683 -0.593908 3.493828
2.333205 -0.745124 5.504041
1.995804 -0.688644 6.269196
1.594960 -0.621440 7.275964
0.951587 -0.514883 7.663186
1.586248 -0.617223 9.888309
0.876099 -0.588595 0.462588
1.423232 -0.722889 1.607571
1.533161 -0.748984 2.657011
1.470439 -0.732510 3.523859
2.378502 -0.954954 5.829882
2.145030 -0.896256 6.627962
1.661082 -0.775656 7.294678
0.899561 -0.586449 7.819637
1.588047 -0.754968 9.694580
1.511220 -0.735040 10.523534
0.818156 -0.562693 11.139771
1.392085 -0.848984 1.449588
1.555355 -0.902990 2.400002
1.424194 -0.857579 3.464383
2.395502 -1.182833 5.537741
2.160024 -1.102428 6.436592
1.691022 -0.943566 7.069933
1.047621 -0.725923 7.676138
1.111336 -0.746409 8.578127
1.561313 -0.897032 9.590122
1.469016 -0.864869 10.527127
0.781866 -0.632361 11.233737
1.291979 -0.937751 1.470195
1.452787 -1.004699 2.488891
1.340450 -0.955862 3.591326
2.228135 -1.329618 5.536119
2.126195 -1.285563 6.307338
1.594302 -1.059183 7.272480
1.272748 -0.922263 7.910571
1.398967 -0.974630 8.867959
1.580082 -1.050498 9.607024
1.241725 -1.057237 1.380881
1.323766 -1.098789 2.617428
1.532373 -1.207085 3.531306
1.961321 -1.430897 4.459303
2.059873 -1.481055 5.738974
2.006480 -1.452351 6.336387
1.577337 -1.226646 6.918667
1.351143 -1.107007 7.793950
1.433048 -1.148564 8.965106
1.453238 -1.158289 9.691476
1.279262 -1.065952 10.632507
0.710440 -0.767149 11.095587
1.016292 -1.064581 1.523204
1.301845 -1.242973 2.613417
1.375193 -1.287557 3.891556
1.808066 -1.558857 4.840754
1.996060 -1.676157 5.675410
1.808153 -1.556868 6.488471
1.384238 -1.289205 7.152639
1.200185 -1.172150 8.120514
1.369560 -1.277456 9.175953
1.403398 -1.297954 9.822022
1.199655 -1.168786 10.563155
1.124921 -1.294753 1.916598
1.140598 -1.305374 2.801155
1.272764 -1.403214 3.938758
1.642047 -1.679636 4.796885
1.730037 -1.744272 5.935472
1.543957 -1.603391 6.716533
1.319210 -1.433651 7.342948
1.299777 -1.417995 8.142698
1.307304 -1.422361 9.125951
1.269495 -1.392598 10.150850
1.067957 -1.240458 10.658736
0.662668 -1.062193 0.946496
1.060919 -1.410873 1.992789
1.036834 -1.388039 3.179052
1.136415 -1.474498 3.960516
1.389900 -1.695949 4.972229
1.505352 -1.795787 6.164900
1.339834 -1.649354 6.815403
1.196459 -1.522333 7.505914
1.222509 -1.543974 8.408892
1.204669 -1.526999 9.331570
1.174189 -1.499234 10.022865
0.861921 -1.223360 10.973088
1.015189 -1.565669 2.144676
0.944766 -1.491223 3.235000
1.020086 -1.567788 4.094242
1.197332 -1.749451 5.131185
1.237773 -1.789908 6.024791
1.173658 -1.722341 6.877861
1.122447 -1.667928 7.853237
1.100521 -1.644111 8.615266
1.100731 -1.643314 9.286868
0.987352 -1.524620 10.271357
0.670583 -1.196063 10.996673
0.777015 -1.511786 1.271219
0.852398 -1.601328 2.573939
0.855631 -1.603918 3.386091
0.929616 -1.692657 4.146857
0.976749 -1.748280 5.181181
0.938271 -1.699891 6.139185
0.969669 -1.736558 7.062056
1.039018 -1.819678 7.810659
0.990340 -1.758835 8.796639
0.954610 -1.713930 9.668827
0.897332 -1.643330 10.229646
0.507314 -1.167627 11.003717
0.689383 -1.622717 1.514513
0.763342 -1.727353 2.512293
0.736625 -1.687410 3.317047
0.776404 -1.742863 4.302069
0.803684 -1.780036 5.443545
0.805561 -1.781373 6.184962
0.854896 -1.850379 7.281611
0.921888 -1.945258 8.130755
0.892295 -1.901493 8.762019
0.865388 -1.860986 9.724797
0.771232 -1.724096 10.453790
0.394691 -1.180587 11.234244
0.525824 -1.636180 1.290401
0.588292 -1.742255 2.504888
0.607134 -1.773354 3.295647
0.631419 -1.813549 4.262710
0.697116 -1.925631 5.290592
0.715925 -1.956870 5.988674
0.744876 -2.005379 6.860580
0.788148 -2.078395 7.921251
0.751813 -2.013695 8.639716
0.710372 -1.939510 9.646401
0.668788 -1.865760 10.327241
0.402234 -1.400620 11.089390
0.390427 -1.661749 1.320089
0.483681 -1.855868 2.288190
0.455611 -1.794087 3.364626
0.502953 -1.891930 4.144714
0.533757 -1.953836 5.369039
0.559768 -2.007125 5.988674
0.584813 -2.057760 6.860580
0.635082 -2.161418 7.784750
0.588596 -2.061304 8.669042
0.560528 -1.999568 9.728962
0.517570 -1.907074 10.537178
0.309682 -1.468051 10.943222
0.270673 -1.731528 2.382647
0.276158 -1.743285 3.312336
0.327865 -1.877941 4.062571
0.398225 -2.061084 5.114271
0.382429 -2.016318 6.106240
0.426394 -2.130565 6.827549
0.427855 -2.131551 7.797642
0.405846 -2.070172 8.845096
0.434561 -2.144195 9.516768
0.386440 -2.014780 10.197489
0.199531 -1.517894 10.896782
0.128481 -1.763677 2.411083
0.143300 -1.812658 3.231644
0.160097 -1.868185 4.161035
0.201926 -2.012018 5.026870
0.208291 -2.030842 5.955888
0.238433 -2.133125 6.935038
0.274118 -2.255741 7.697061
0.253593 -2.180307 8.537199
0.236869 -2.117553 9.557020
0.216792 -2.044576 10.168087
0.068918 -1.520537 11.158659
0.008273 -1.818381 1.990855
0.005647 -1.800492 2.981432
0.014471 -1.838241 3.952733
0.051928 -2.015126 4.875086
0.025826 -1.883299 5.880135
0.040593 -1.950126 6.802376
0.092585 -2.198328 7.567541
0.095278 -2.206706 8.468879
0.107387 -2.261491 9.228588
0.087588 -2.160797 10.124931
0.018266 -1.820284 10.946600
-0.148331 -1.885829 2.075727
-0.161176 -1.761312 3.225119
-0.152430 -1.831967 3.952733
-0.139993 -1.934303 4.787025
-0.147683 -1.857017 5.768317
-0.129521 -2.008626 6.755597
-0.106607 -2.202039 7.773811
-0.105820 -2.201093 8.620227
-0.101859 -2.227340 9.564413
-0.107170 -2.172792 10.367044
-0.150491 -1.783258 10.992643
-0.288317 -1.821433 2.203814
-0.286890 -1.828856 3.287470
-0.284059 -1.875545 4.255096
-0.278802 -1.986007 5.171366
-0.277282 -1.998955 6.138969
-0.270268 -2.158268 6.921503
-0.265793 -2.248323 7.848666
-0.266956 -2.199142 8.561680
-0.267862 -2.146051 9.663277
-0.268498 -2.111119 10.349768
-0.288003 -1.585505 11.230810
-0.432686 -1.818274 2.639084
-0.429120 -1.752954 3.502721
-0.431332 -1.830216 4.390678
-0.433280 -1.903058 5.357983
-0.439226 -2.069736 6.155114
-0.443073 -2.188714 7.101496
-0.442481 -2.193553 7.852986
-0.438106 -2.115077 8.976584
-0.439107 -2.162266 9.851518
-0.433494 -2.044020 10.613981
-0.406712 -1.402693 11.261957
-0.600545 -1.850255 2.500059
-0.579423 -1.695298 3.542209
-0.585504 -1.750915 4.585371
-0.599237 -1.863384 5.338326
-0.613515 -1.981110 6.217176
-0.630789 -2.122710 7.179528
-0.631406 -2.134407 8.024132
-0.632945 -2.152682 8.800622
-0.628230 -2.125546 9.943401
-0.755372 -1.892815 2.389806
-0.726555 -1.756988 3.216869
-0.727218 -1.765417 4.215725
-0.733617 -1.802596 5.377643
-0.770261 -1.984597 6.106204
-0.778892 -2.032439 7.232264
-0.792112 -2.100403 7.936375
-0.783953 -2.064824 8.722698
-0.787406 -2.086003 9.564413
-0.764803 -1.981215 10.549074
-0.662230 -1.485319 11.111750
-0.885990 -1.781439 2.594723
-0.862454 -1.701991 3.197184
-0.847337 -1.653669 4.296749
-0.872475 -1.744664 5.272365
-0.898936 -1.840512 6.315166
-0.951370 -2.025115 6.978539
-0.944730 -2.006170 8.063150
-0.945440 -2.010880 8.654404
-0.942785 -2.004875 9.501574
-0.909609 -1.893588 10.535666
-0.770331 -1.412634 11.250658
-1.091419 -1.841829 2.183200
-0.969187 -1.526568 3.261247
-0.993464 -1.592193 4.074540
-1.026639 -1.681922 5.203577
-1.070196 -1.797329 5.864547
-1.109207 -1.901736 6.814101
-1.126203 -1.949214 7.907134
-1.111152 -1.912724 8.834844
-1.128166 -1.958670 9.388948
-1.092691 -1.869320 10.435425
-0.938486 -1.469723 11.157380
-1.007279 -1.296373 2.114710
-1.106901 -1.510271 3.073899
-1.133148 -1.568221 3.974029
-1.121906 -1.547231 5.143048
-1.147026 -1.602289 5.841038
-1.200437 -1.718391 6.932826
-1.258818 -1.844393 7.759776
-1.258351 -1.845461 8.595887
-1.252130 -1.834760 9.613180
-1.228486 -1.786532 10.415885
-1.054604 -1.419153 11.160554
-1.092862 -1.171086 1.940412
-1.206549 -1.369982 3.134622
-1.259493 -1.463062 3.907212
-1.257447 -1.461994 5.084019
-1.287935 -1.516104 5.772288
-1.371014 -1.661563 6.698075
-1.423490 -1.754430 7.755515
-1.408800 -1.730836 8.605639
-1.405257 -1.726766 9.583918
-1.380297 -1.685246 10.347511
-1.181869 -1.343816 10.992643
-1.393382 -1.382182 2.237980
-1.328283 -1.289950 3.210270
-1.359408 -1.336477 4.062571
-1.439193 -1.453347 4.948417
-1.448382 -1.468508 5.972287
-1.501585 -1.547245 6.999663
-1.563150 -1.637732 7.848666
-1.550082 -1.620389 8.678796
-1.544011 -1.613217 9.544909
-1.521366 -1.581792 10.240105
-1.254026 -1.197501 11.236485
-1.473129 -1.235737 2.346132
-1.436968 -1.193096 3.315351
-1.451161 -1.212055 4.274787
-1.503701 -1.277870 5.193753
-1.555490 -1.342739 6.096438
-1.638249 -1.445482 6.986093
-1.695595 -1.517191 7.912523
-1.631671 -1.440591 8.888661
-1.643145 -1.455841 9.618682
-1.610465 -1.417153 10.402396
-1.305416 -1.045103 11.137951
-1.541247 -1.078974 2.531989
-1.538029 -1.076899 3.362907
-1.593228 -1.135084 4.068204
-1.604627 -1.148581 5.193753
-1.667171 -1.214620 6.067039
-1.771192 -1.323486 6.878720
-1.818741 -1.374222 7.893045
-1.764284 -1.319168 8.751974
-1.783522 -1.340075 9.413788
-1.721560 -1.277466 10.412171
-1.405883 -0.951604 10.939886
-1.520467 -0.863505 1.348500
-1.662371 -0.990351 2.384365
-1.630627 -0.963710 3.390734
-1.666742 -0.996749 4.193864
-1.699334 -1.027016 5.240087
-1.762664 -1.084506 6.331339
-1.902609 -1.209126 7.013760
-1.895549 -1.204338 8.048937
-1.877938 -1.189980 8.907885
-1.892002 -1.203429 9.636935
-1.817863 -1.138988 10.402396
-1.412993 -0.782338 11.201040
-1.616912 -0.751165 1.328122
-1.770530 -0.866337 2.286073
-1.709798 -0.822730 3.380889
-1.720509 -0.831864 4.292228
-1.790235 -0.884759 5.200813
-1.759647 -0.862964 5.880341
-1.835327 -0.920557 7.005221
-2.006128 -1.048628 8.083459
-1.975146 -1.026373 8.634896
-1.951137 -1.009842 9.608920
-1.888727 -0.964815 10.568637
-1.527901 -0.697902 11.078517
-1.811689 -0.725989 2.267464
-1.777200 -0.705125 3.110189
-1.725138 -0.673548 4.316461
-1.843783 -0.749947 5.134827
-1.835281 -0.745493 5.896795
-1.942047 -0.814438 6.789755
-2.069059 -0.896221 7.662292
-1.914225 -0.799221 8.767005
-1.906275 -0.795264 9.646401
-1.911593 -0.799569 10.391233
-1.580786 -0.590171 11.019095
-1.418985 -0.334368 0.753775
-1.715008 -0.490341 1.943395
-1.863243 -0.568823 2.857397
-1.762085 -0.517120 3.799021
-1.828793 -0.552932 4.627268
-1.944163 -0.614643 5.870823
-2.114105 -0.704366 6.706780
-2.094595 -0.695164 7.538263
-2.066869 -0.681540 8.258378
-2.022547 -0.659457 9.152553
-1.990134 -0.643470 9.942794
-1.720692 -0.503778 10.781937
-1.841814 -0.398448 1.071699
-1.761766 -0.365132 1.972070
-1.907513 -0.428653 2.837738
-1.796226 -0.382004 3.799021
-1.681461 -0.333678 4.597809
-1.919188 -0.436996 5.755757
-1.938792 -0.446423 6.645189
-1.802961 -0.389211 7.577812
-2.118293 -0.525247 8.229080
-2.068403 -0.504885 9.142772
-2.020058 -0.485158 10.030925
-1.771676 -0.379498 10.824836
-1.833488 -0.227179 1.843822
-1.865870 -0.239040 2.899581
-1.787517 -0.214194 3.830627
-1.581839 -0.147112 4.590731
-2.295164 -0.384920 6.618236
-2.093317 -0.319222 7.486420
-2.012243 -0.293393 8.340468
-1.970340 -0.280526 9.218127
-1.990073 -0.287885 9.979780
-1.825473 -0.234233 10.617693
-1.939915 -0.098355 2.799778
-1.816566 -0.069390 3.463247
-1.377778 0.035405 4.195060
-2.404346 -0.213978 6.381712
-2.080721 -0.137211 7.406574
-2.009651 -0.120704 7.956719
-1.979898 -0.114653 8.983135
-2.011324 -0.123096 9.799110
-1.836897 -0.081834 10.456330
-1.210611 0.170143 0.429705
-1.746002 0.082681 1.485571
-1.934058 0.051091 2.674585
-1.846583 0.064453 3.374484
-1.176577 0.171670 4.154754
-2.454069 -0.036964 6.620321
-1.946651 0.044206 7.238902
-1.802366 0.066793 7.879197
-1.973730 0.037932 9.032244
-1.987436 0.035051 9.663200
-1.783801 0.219151 1.562461
-1.858971 0.211983 2.706734
-2.541484 0.153990 6.365361
-2.079913 0.189637 7.283343
-1.835637 0.208104 8.146844
-1.960247 0.197545 8.787088
-1.958307 0.196652 9.781062
-1.754599 0.212122 10.435489
-1.081475 0.264575 11.329536
-1.686941 0.361303 1.681827
-1.863931 0.360276 2.850347
-1.701488 0.359281 3.623154
-2.522041 0.357930 5.794113
-2.408882 0.357168 6.397804
-1.973996 0.355942 7.097390
-1.747489 0.354512 8.215482
-1.901040 0.353740 9.116116
-1.870614 0.352912 9.871229
-1.602505 0.492503 1.810518
-1.860404 0.512749 2.761788
-1.656162 0.495146 3.498378
-2.501886 0.562565 5.642335
-2.341589 0.548440 6.514202
-1.839445 0.506469 7.083733
-1.538195 0.480474 8.199467
-1.789020 0.500167 9.122162
-1.886559 0.507576 9.717965
-1.653865 0.487326 10.741966
-1.622875 0.628403 1.642265
-1.847287 0.663927 2.595942
-1.611796 0.624625 3.498378
-2.250740 0.726304 5.710634
-2.161649 0.711146 6.323851
-1.738120 0.641128 7.320112
-1.155902 0.545595 8.012592
-1.378048 0.580646 9.064001
-1.790320 0.646913 9.871229
-1.650659 0.623552 10.455251
-1.582261 0.761298 1.397284
-1.635206 0.773165 2.515999
-1.556249 0.752852 3.266369
-1.794441 0.810506 4.354303
-2.293503 0.932527 5.501311
-2.172476 0.901532 6.521016
-1.678429 0.778984 7.006973
-0.962263 0.601537 7.527681
-1.594922 0.755330 9.807396
-1.589569 0.753450 10.323096
-0.993271 0.605320 11.111355
-1.520164 0.886426 1.387401
-1.577754 0.904662 2.272854
-1.398639 0.843909 3.166025
-1.329318 0.819840 4.013956
-1.603905 0.910150 5.197885
-1.876869 1.000108 6.210498
-1.560108 0.893757 6.805539
-0.877770 0.665364 7.456322
-1.458282 0.856957 9.356732
-1.484559 0.864719 10.266152
-1.044390 0.716977 11.053816
-1.343560 0.967994 2.289689
-1.263391 0.932318 3.354637
-1.036353 0.834153 3.859303
-0.823098 0.738403 7.436187
-0.699543 0.684303 8.303961
-1.166508 0.883780 9.387176
-1.328610 0.952571 10.161808
-0.997523 0.809180 11.107091
-1.344517 1.124731 1.270024
-1.307655 1.103958 2.209290
-1.256268 1.075489 3.106533
-1.302450 1.098797 4.213981
-1.502408 1.204057 5.360864
-1.159951 1.020675 6.009322
-0.898075 0.880010 6.869304
-0.710830 0.779202 7.677971
-0.677942 0.760722 8.470147
-1.138279 1.004966 9.499611
-1.234680 1.055500 10.231239
-0.884667 0.867850 11.080699
-1.197490 1.177741 1.526623
-1.165129 1.156397 2.329345
-1.081082 1.102369 3.278802
-1.335384 1.260931 4.365757
-1.558663 1.400169 5.304620
-1.165889 1.152278 6.035252
-0.853676 0.954779 6.981244
-0.679773 0.844737 7.536887
-0.642848 0.820029 8.736680
-1.059286 1.080910 9.529462
-1.160660 1.143622 10.363929
-0.771774 0.898367 10.940553
-0.846823 1.096257 2.322379
-1.056783 1.255258 3.068540
-0.802228 1.059811 4.189965
-1.041055 1.239253 6.114605
-0.770421 1.032210 6.739053
-0.597727 0.899541 7.557035
-0.644157 0.933848 8.368827
-0.960444 1.173537 9.365962
-1.030265 1.225388 10.390014
-0.723803 0.990825 11.181001
-0.884689 1.261299 2.177751
-0.901039 1.274282 3.229098
-0.565617 0.976925 3.779608
-0.999967 1.358073 5.856877
-0.704292 1.095481 6.678975
-0.584033 0.988041 7.467341
-0.610093 1.009616 8.514183
-0.788209 1.165829 9.428436
-0.852179 1.220911 10.484834
-0.645411 1.037323 11.027347
-0.820432 1.375550 3.032164
-0.396059 0.930685 3.839449
-0.857178 1.409463 5.995592
-0.627607 1.168584 6.578899
-0.487058 1.020007 7.663878
-0.504766 1.037013 8.654876
-0.703821 1.244127 9.298723
-0.722127 1.261610 10.387907
-0.566500 1.098114 10.917000
-0.563048 1.260883 1.081940
-0.519431 1.205436 2.237795
-0.639474 1.351030 3.272521
-0.749928 1.485070 4.178958
-0.931607 1.706314 5.206355
-0.734216 1.462687 6.045168
-0.463685 1.129769 6.604689
-0.362576 1.004200 7.501195
-0.448669 1.108093 8.559193
-0.648397 1.351926 9.321798
-0.686838 1.397386 10.352848
-0.451791 1.107471 11.238126
-0.303885 1.080782 1.218460
-0.328007 1.114394 2.088035
-0.458386 1.302966 3.075799
-0.592263 1.496568 4.106482
-0.754167 1.730606 5.403141
-0.609905 1.518730 6.045168
-0.323808 1.099666 6.713185
-0.213719 0.937118 7.666628
-0.373167 1.168387 8.523882
-0.529664 1.394829 9.658868
-0.524898 1.386884 10.188629
-0.294259 1.048300 11.132107
-0.217715 1.094185 0.900377
-0.235875 1.122953 2.128249
-0.352515 1.322340 3.037615
-0.330916 1.283141 3.957046
-0.520667 1.608372 5.022734
-0.612186 1.764391 5.939238
-0.315700 1.250854 6.835142
-0.159377 0.979657 7.515063
-0.271999 1.171911 8.519033
-0.397172 1.385839 9.516765
-0.368851 1.335567 10.183436
-0.217165 1.071894 11.091824
-0.223392 1.324630 0.845146
-0.132177 1.127261 2.020296
-0.198173 1.265551 2.994711
-0.176144 1.216041 4.024263
-0.357638 1.600944 4.845454
-0.201393 1.261439 7.434769
-0.195155 1.246204 8.218110
-0.303108 1.473696 9.291935
-0.278767 1.419802 10.101267
-0.171809 1.190047 10.799971
-0.037393 1.128463 1.753633
-0.082707 1.246399 2.938141
-0.097377 1.283273 3.755939
-0.224933 1.621966 4.855370
-0.301722 1.825242 5.722194
-0.116810 1.327275 6.452727
0.026431 0.940998 7.194186
-0.065221 1.183230 8.358610
-0.202980 1.550360 9.097478
-0.168043 1.454004 9.991624
-0.065109 1.174991 11.000824
-0.013533 1.338425 2.824555
0.019442 1.221089 3.644480
-0.041357 1.427373 4.790538
-0.085752 1.576682 5.976066
0.025535 1.189047 6.532298
0.098144 0.934120 7.427871
0.011724 1.229904 8.378540
-0.071584 1.514767 9.365962
-0.054799 1.453408 10.214736
0.013460 1.214367 10.893639
0.170601 0.965264 1.889673
0.112376 1.245854 3.084905
0.124391 1.183169 3.744867
0.091217 1.340960 4.818913
0.072745 1.427904 5.591394
0.156277 1.010891 6.616743
0.192115 0.830810 7.278618
0.126108 1.150937 8.248164
0.051241 1.513883 9.375913
0.064715 1.442695 10.284520
0.118135 1.175905 10.960642
0.203566 1.303412 2.806210
0.218178 1.173471 3.812880
0.209179 1.240438 4.682780
0.209988 1.224538 5.731462
0.235858 1.002603 6.586473
0.246786 0.903533 7.554723
0.204418 1.246801 8.458565
0.169951 1.524158 9.410081
0.176050 1.467953 10.055305
0.210263 1.175597 11.054254
0.310425 1.247202 2.906323
0.313944 1.128974 3.883197
0.311001 1.180100 4.813158
0.309048 1.206081 5.721435
0.316398 0.992618 6.536037
0.316964 0.949081 7.591186
0.300206 1.366466 8.268373
0.292580 1.538792 9.221201
0.296235 1.414931 10.274550
0.304498 1.184999 10.823399
0.398165 0.928474 1.112850
0.399397 0.985454 2.152565
0.404720 1.139283 3.058526
0.400143 1.052217 4.034021
0.401337 1.107670 5.051164
0.399837 1.091455 5.848859
0.386201 0.783131 6.855946
0.395696 1.036296 7.648429
0.414195 1.518687 8.770275
0.417103 1.609414 9.525126
0.407030 1.382559 10.304462
0.386742 0.903782 11.025507
0.480218 0.968666 0.991004
0.476683 0.948431 2.014212
0.485269 1.028907 3.122609
0.480478 0.997870 4.094406
0.487379 1.063390 5.081307
0.485341 1.053368 5.858911
0.463616 0.880940 6.630919
0.484214 1.061356 7.840743
0.537743 1.509602 8.621320
0.547954 1.600221 9.356732
0.516657 1.350129 10.274550
0.462827 0.911644 10.897491
0.560203 0.920258 1.001080
0.558131 0.915391 1.983976
0.565485 0.956834 3.203105
0.562461 0.947044 4.114542
0.590383 1.084430 4.850396
0.571265 0.997832 5.802120
0.537019 0.838215 6.630919
0.586799 1.081081 7.539528
0.635891 1.322525 8.811109
0.659615 1.439851 9.552091
0.632072 1.312241 10.367972
0.538567 0.867570 10.907582
0.649699 0.933820 0.909734
0.629389 0.868932 2.053173
0.640306 0.909799 3.045949
0.621391 0.849070 4.031402
0.634277 0.896164 4.895267
0.637109 0.908697 5.671724
0.589987 0.752477 6.802700
0.670974 1.030953 7.539528
0.750218 1.304747 8.611930
0.753263 1.318420 9.499611
0.719236 1.205283 10.227149
0.603483 0.814672 11.163077
0.730285 0.900762 0.919092
0.701783 0.829276 1.943675
0.745671 0.946631 2.843084
0.705671 0.845100 3.870190
0.731647 0.915493 4.721346
0.722403 0.894508 5.802120
0.677356 0.779042 6.576384
0.658127 0.731661 7.555466
0.776697 1.044766 8.643361
0.879909 1.316360 9.265364
0.806928 1.128757 10.336977
0.718718 0.900173 11.007650
0.809492 0.860841 0.928449
0.801960 0.847318 1.860682
0.833718 0.916625 2.968225
0.805487 0.859599 3.863102
0.803361 0.857211 4.711298
0.807473 0.868388 5.758432
0.766248 0.783522 6.411142
0.699482 0.645827 7.367190
0.834896 0.932330 8.393508
0.964156 1.205756 9.350416
0.909909 1.094208 10.260839
0.785669 0.835564 11.047866
0.822949 0.702813 0.921237
0.717328 0.522468 1.944334
0.905368 0.849646 3.036613
0.892834 0.829450 3.732572
0.855439 0.767082 4.801758
1.010019 1.036072 5.714459
0.929720 0.899217 6.612855
0.766190 0.618407 7.438877
0.928022 0.899836 8.308299
1.066112 1.140398 9.251013
1.026912 1.074253 10.005505
0.885261 0.831374 10.893639
0.799743 0.524895 1.054857
0.897511 0.668687 2.208726
0.947085 0.741979 3.000140
1.078235 0.933775 3.957829
1.107666 0.978448 5.055458
1.073408 0.930213 5.814198
0.961643 0.770035 6.767196
0.768137 0.491338 7.676161
0.982574 0.803434 8.428502
1.193994 1.111594 9.417414
1.107761 0.988055 10.178670
0.860918 0.631757 10.914133
0.972983 0.622452 1.336456
0.951098 0.597452 2.415604
0.938436 0.583291 3.223238
1.362485 1.105912 5.331991
1.190623 0.896830 6.122283
0.935909 0.586290 6.894290
0.943088 0.596665 7.850317
1.127208 0.823636 8.797024
1.214060 0.931504 9.726829
1.118553 0.815918 10.530353
0.748812 0.364256 11.117933
1.123159 0.653686 1.706824
1.207718 0.743599 2.741396
1.309064 0.850926 3.694605
1.499442 1.051247 4.634675
1.396159 0.944779 5.579334
1.170902 0.710544 6.302769
0.952306 0.483312 7.055453
1.017805 0.552995 7.880945
1.235346 0.781929 8.975191
1.290204 0.840523 9.820410
1.237281 0.606280 1.565814
1.329076 0.688156 2.590370
1.495142 0.835136 3.625093
1.666386 0.986726 4.710869
1.373906 0.731759 5.681396
1.148746 0.535458 6.414167
0.986048 0.393961 7.192190
1.024920 0.429488 8.238131
1.317542 0.686969 8.979779
1.356378 0.722205 9.840298
1.209839 0.594866 10.616758
1.361312 0.574566 0.901784
1.164410 0.427406 1.798104
1.358523 0.575058 2.874579
1.598218 0.757022 3.929386
1.689589 0.827356 5.069781
1.710575 0.844115 5.791530
1.441806 0.642659 6.570280
1.025681 0.329891 7.121648
1.125511 0.406645 8.298355
1.374227 0.595377 9.331753
1.339686 0.570288 10.041455
1.156803 0.433420 10.733118
0.687027 0.005822 0.532127
1.036826 0.227462 2.014212
1.300708 0.394486 2.989405
1.674456 0.631655 4.859087
1.482552 0.512384 5.919868
1.458513 0.498021 6.518222
1.046809 0.240501 7.470964
1.158044 0.311723 8.539112
1.397297 0.463050 9.337356
1.445726 0.494572 10.216113
1.218468 0.352556 10.850138
0.523726 -0.133306 0.648607
1.095862 0.166805 1.952455
1.311985 0.280968 3.117585
1.703748 0.487540 4.918348
1.567115 0.417190 5.721296
1.471302 0.368252 6.617693
1.094420 0.172535 7.426120
1.204136 0.230942 8.398604
1.436134 0.353074 9.297508
1.573873 0.425818 10.029003
1.281721 0.274616 11.090241
0.778868 -0.061109 0.730326
1.463876 0.232209 3.156645
1.772617 0.364360 4.204901
1.877533 0.409592 4.846037
1.666469 0.321175 5.817271
1.567543 0.280126 6.616132
1.061916 0.066560 7.404982
1.141855 0.101354 8.182806
1.449942 0.233371 9.357283
1.572864 0.286513 10.237384
1.337981 0.187714 10.963433
0.781841 -0.119387 0.770173
1.566070 0.144267 2.965930
1.794642 0.221870 4.291455
1.856778 0.243462 5.099332
1.683893 0.186785 5.922870
1.640374 0.173026 6.588698
1.124297 0.001843 7.239379
1.116988 0.000619 8.333698
1.517717 0.135040 9.182473
1.618449 0.169732 10.211399
1.377220 0.090171 10.926744
1.571634 0.015866 1.195618
1.590846 0.021734 2.253631
1.445278 -0.012885 3.344146
2.066691 0.142044 5.297606
1.771575 0.070135 5.912914
1.539242 0.013997 6.834741
1.121111 -0.088151 7.461831
1.193478 -0.069168 8.559193
1.543135 0.017995 9.647271
1.616544 0.036733 10.280845
1.174640 -0.071161 11.000824
1.298917 -0.152553 1.271931
1.448822 -0.127094 2.201338
1.687485 -0.087123 3.152718
2.430830 0.036693 5.477690
2.102830 -0.016077 6.204042
1.662872 -0.087336 6.729736
1.143663 -0.171349 7.427126
1.088367 -0.179058 8.665499
1.607995 -0.093460 9.393246
1.678701 -0.080899 10.351508
1.300658 -0.142009 10.916857
1.469132 -0.239707 1.207543
1.574294 -0.229915 2.253631
1.667988 -0.221122 3.250041
2.773063 -0.127201 5.713943
2.400095 -0.157388 6.317079
1.623744 -0.220887 6.943887
1.043899 -0.268027 7.683334
1.078526 -0.264173 8.625233
1.598628 -0.220091 9.669669
1.651306 -0.215086 10.288340
1.095874 -0.260007 11.218848
1.627799 -0.366435 1.419120
1.630532 -0.365196 2.610262
1.558028 -0.364207 3.265252
2.522064 -0.365941 5.428222
2.123916 -0.363271 6.395907
1.687355 -0.360596 7.216599
0.975255 -0.356946 7.874868
1.038884 -0.356491 8.560040
1.685269 -0.357917 9.759666
1.687337 -0.357085 10.560394
0.917917 -0.353195 11.220576
1.519337 -0.489667 1.607571
1.592898 -0.494687 2.765945
1.284239 -0.467885 3.349939
2.395686 -0.559666 5.737878
2.035788 -0.528331 6.497182
1.592781 -0.489948 7.254624
0.998455 -0.438636 8.097124
1.250423 -0.459191 8.877633
1.734719 -0.499240 9.864895
1.553984 -0.482996 10.728162
1.581577 -0.627105 2.744684
1.808676 -0.663574 4.080138
2.394528 -0.760220 5.112228
2.490104 -0.775378 5.853073
2.105048 -0.710305 6.632322
1.432324 -0.597098 7.541119
1.001949 -0.524658 8.137506
1.163148 -0.550345 9.272482
1.523422 -0.609550 10.122142
1.427244 -0.592795 10.787396
1.535503 -0.748248 0.917433
1.270082 -0.681752 2.094118
1.523904 -0.743244 2.910006
1.861990 -0.825256 3.899292
2.384711 -0.952505 5.013139
2.346599 -0.941918 6.142845
2.033256 -0.864335 6.681103
1.342317 -0.693658 7.500215
1.181457 -0.653433 8.143260
1.538890 -0.740208 9.124604
1.655982 -0.767981 10.050468
1.394522 -0.702864 10.850419
1.496341 -0.883117 0.975949
1.359671 -0.835918 2.097100
1.439283 -0.861647 3.037170
1.272392 -0.804784 3.708703
2.325524 -1.156393 5.985240
1.981839 -1.040068 6.667774
1.320162 -0.816729 7.426214
1.279303 -0.801985 8.333360
1.653192 -0.926762 9.190305
1.575919 -0.899748 10.119528
1.341393 -0.820164 10.770929
1.264288 -0.930784 1.677097
1.381159 -0.979369 2.842217
1.430743 -0.999315 3.921604
1.889057 -1.193725 5.091409
2.199590 -1.325319 5.997877
2.009219 -1.243233 6.679269
1.532546 -1.039034 7.215801
1.369449 -0.968201 8.244510
1.571321 -1.053318 9.209995
1.547935 -1.042663 9.794146
1.259801 -0.918372 10.870295
1.384224 -1.131533 2.720675
1.498887 -1.190743 3.562604
1.858420 -1.377927 4.913578
2.097309 -1.502458 5.678189
1.925712 -1.411282 6.582147
1.564861 -1.221088 7.185745
1.378504 -1.122125 8.121437
1.460716 -1.164334 8.930334
1.420802 -1.142216 9.908395
1.320786 -1.259287 2.689699
1.179375 -1.168591 3.706300
1.583672 -1.423291 4.502838
1.867285 -1.601005 5.831859
1.848952 -1.588720 6.388108
1.527339 -1.384334 7.183591
1.389669 -1.296236 8.014156
1.418477 -1.313251 8.983673
1.402014 -1.301809 9.812182
1.003242 -1.203062 1.755664
1.210938 -1.357937 2.631839
1.202557 -1.350408 3.569961
1.298922 -1.421476 4.578075
1.588019 -1.637250 5.644431
1.577033 -1.627931 6.456850
1.393722 -1.489291 7.167957
1.375482 -1.474416 8.060126
1.317832 -1.429800 9.057120
1.271223 -1.393574 9.979522
1.093638 -1.259338 10.612690
1.088949 -1.442535 2.739035
1.095623 -1.447197 3.627289
1.072985 -1.425765 4.619929
1.289408 -1.616009 5.582897
1.329258 -1.649810 6.636847
1.192936 -1.527922 7.496080
1.269447 -1.594843 8.075188
1.229632 -1.558337 8.973315
1.175649 -1.509370 9.812182
1.010736 -1.362290 10.586520
0.964633 -1.518690 2.836328
1.006050 -1.560235 3.816749
1.057164 -1.611810 4.826363
1.140624 -1.697112 5.756286
1.207963 -1.766016 6.454558
1.140871 -1.694589 7.592739
1.143417 -1.696190 8.281638
1.142947 -1.694101 9.339421
1.096764 -1.645067 10.034715
0.894006 -1.433229 10.817720
0.640643 -1.348999 0.861946
0.759799 -1.492331 2.025509
0.820305 -1.564344 3.080194
0.839271 -1.585791 4.090873
0.911707 -1.672462 5.076900
0.961972 -1.732695 5.706642
0.998294 -1.775227 6.761690
1.060833 -1.849817 7.757402
1.016588 -1.794533 8.571133
1.033054 -1.813505 9.236103
1.010964 -1.785251 10.036763
0.759301 -1.476808 11.035653
0.746623 -1.723199 2.183058
0.726791 -1.692463 3.162601
0.736087 -1.704357 4.056966
0.823518 -1.830271 4.904525
0.774666 -1.757306 5.837556
0.820488 -1.822501 6.710233
0.926956 -1.976010 7.645644
0.886311 -1.914763 8.713086
0.902560 -1.937224 9.376657
0.841955 -1.847373 10.174025
0.612876 -1.512032 10.880344
0.492540 -1.578451 1.390093
0.627973 -1.812137 2.288190
0.575062 -1.717585 3.482982
0.597634 -1.754931 4.393005
0.685370 -1.906048 5.102684
0.737116 -1.994121 6.021410
0.757555 -2.027238 7.177589
0.787509 -2.078013 7.808541
0.749510 -2.009847 8.791188
0.763786 -2.033262 9.463601
0.701897 -1.923663 10.387512
0.433167 -1.454939 10.996263
0.351425 -1.576504 1.557942
0.460702 -1.804018 2.513514
0.459768 -1.799833 3.422024
0.461457 -1.800848 4.459643
0.509600 -1.899825 5.394410
0.553116 -1.989015 6.350934
0.614837 -2.116970 7.115106
0.624563 -2.135479 7.911497
0.585057 -2.050389 8.727707
0.596569 -2.072588 9.551534
0.547122 -1.966002 10.606836
0.309845 -1.465577 11.155505
0.334505 -1.891025 2.568903
0.298529 -1.793392 3.540357
0.340308 -1.901164 4.309657
0.375870 -1.991981 5.273769
0.427525 -2.124863 6.347050
0.470845 -2.236760 7.093837
0.447920 -2.173176 8.175707
0.431130 -2.126336 9.059394
0.446778 -2.165742 9.671715
0.155475 -1.870150 2.764491
0.161979 -1.890521 3.457910
0.153862 -1.857290 4.612483
0.186750 -1.970639 5.440626
0.223361 -2.096371 6.477609
0.245087 -2.169723 7.419564
0.249551 -2.182205 8.283050
0.244461 -2.161279 9.030089
0.260491 -2.215477 9.705188
0.003904 -1.809556 2.806717
0.008715 -1.828611 3.664846
0.011518 -1.837808 4.528650
0.017264 -1.861341 5.406080
0.055245 -2.042471 6.334772
0.069788 -2.107437 7.525558
0.077956 -2.142774 8.414722
0.099271 -2.243801 9.053762
0.084704 -2.167050 10.085851
0.044808 -1.968099 10.766651
-0.141575 -1.785543 2.933584
-0.141026 -1.781953 3.870120
-0.123855 -1.915551 4.597750
-0.129273 -1.863883 5.472090
-0.121278 -1.920136 6.502459
-0.093868 -2.135692 7.398395
-0.090174 -2.156562 8.468618
-0.075534 -2.270825 9.048656
-0.086913 -2.170747 9.906020
-0.117400 -1.914953 10.769574
-0.281890 -1.863869 2.667334
-0.283594 -1.794067 3.781280
-0.280330 -1.855321 4.486826
-0.282190 -1.786566 5.411998
-0.276136 -1.903041 6.607035
-0.265983 -2.127206 7.482286
-0.264040 -2.150211 8.429535
-0.258980 -2.257273 9.048656
-0.259680 -2.220437 9.826362
-0.269037 -1.967950 10.819202
-0.437109 -1.727410 2.885700
-0.439090 -1.794895 3.923155
-0.444793 -1.936550 4.629806
-0.438569 -1.819005 5.462238
-0.442161 -1.920053 6.420251
-0.449710 -2.111506 7.527018
-0.450964 -2.155851 8.253768
-0.449535 -2.143598 9.083541
-0.445129 -2.066942 9.956602
-0.436222 -1.890530 10.792689
-0.573475 -1.767683 3.653084
-0.568653 -1.737200 4.730789
-0.568138 -1.739053 5.428757
-0.582738 -1.869015 6.469381
-0.608781 -2.093974 7.542406
-0.616052 -2.160653 8.283575
-0.619038 -2.191812 9.019437
-0.608871 -2.116510 10.031221
-0.583878 -1.915493 10.701395
-0.725125 -1.772593 2.656196
-0.704605 -1.676885 3.694441
-0.710759 -1.712694 4.728247
-0.723932 -1.781051 5.370701
-0.734954 -1.841737 6.570268
-0.789247 -2.112907 7.220470
-0.779492 -2.070647 8.327210
-0.787393 -2.113191 9.005029
-0.786004 -2.110167 9.728878
-0.728461 -1.831786 10.747003
-0.907491 -1.790508 2.545641
-0.880012 -1.700594 3.177503
-0.878350 -1.698798 4.205884
-0.892450 -1.749551 5.137554
-0.924011 -1.859074 6.112748
-0.970602 -2.018607 6.968789
-0.960649 -1.989367 8.102178
-0.955154 -1.973043 8.678793
-0.965176 -2.009939 9.564413
-0.950894 -1.964775 10.318214
-0.799610 -1.460209 11.197398
-0.992938 -1.591105 2.260806
-0.968756 -1.530813 3.251379
-0.995979 -1.604040 3.958451
-1.003512 -1.627460 5.228826
-1.041239 -1.728736 6.138969
-1.102721 -1.891552 6.862910
-1.104983 -1.900225 7.803091
-1.096577 -1.880313 8.502926
-1.121708 -1.948383 9.316292
-1.063626 -1.799865 10.434113
-0.918706 -1.423243 11.160932
-1.101601 -1.493361 2.823610
-1.112608 -1.519100 3.814767
-1.173568 -1.650256 4.674041
-1.081619 -1.458268 5.754944
-1.144427 -1.593190 6.554236
-1.263216 -1.847014 7.514632
-1.242152 -1.804985 8.556724
-1.250225 -1.823429 9.107663
-1.203340 -1.726804 10.175825
-1.113283 -1.537543 10.736589
-1.184891 -1.332521 1.875186
-1.226995 -1.407613 2.938985
-1.256351 -1.460304 3.840349
-1.266688 -1.480657 5.015187
-1.207648 -1.380097 5.781353
-1.250418 -1.456302 6.825835
-1.423617 -1.757473 7.520274
-1.353531 -1.638530 8.634820
-1.390122 -1.702986 9.175977
-1.334144 -1.608420 10.273713
-1.206994 -1.389874 10.979500
-1.132444 -1.012207 1.953522
-1.361232 -1.346398 2.878465
-1.361728 -1.348956 3.869863
-1.419845 -1.435097 4.779494
-1.329200 -1.305201 5.768317
-1.372025 -1.369442 6.851533
-1.571210 -1.660150 7.525917
-1.521581 -1.589621 8.385762
-1.519733 -1.588399 9.175977
-1.483954 -1.537875 9.970396
-1.314817 -1.293897 10.949923
-1.465520 -1.225092 2.965590
-1.482140 -1.246924 3.887543
-1.545573 -1.325941 4.806425
-1.436037 -1.194003 5.939238
-1.514976 -1.291940 6.843935
-1.644527 -1.451641 7.709757
-1.621360 -1.424393 8.346304
-1.637198 -1.445481 9.395236
-1.599443 -1.400690 10.199255
-1.340099 -1.085379 11.114634
-1.219550 -0.751968 0.882905
-1.441513 -0.985674 2.256479
-1.580272 -1.131514 2.944467
-1.570459 -1.122734 3.907212
-1.615374 -1.171047 4.858006
-1.568317 -1.123239 5.712821
-1.627997 -1.187242 6.849969
-1.746927 -1.312882 7.861668
-1.705721 -1.271042 8.625039
-1.732989 -1.300813 9.492908
-1.688166 -1.255334 10.346014
-1.443274 -1.000868 11.058529
-1.645909 -0.978956 1.061457
-1.586978 -0.928098 2.077684
-1.630649 -0.968145 3.004962
-1.597996 -0.940436 3.903440
-1.649016 -0.986905 4.760047
-1.641327 -0.981636 5.867074
-1.802640 -1.125941 6.711484
-1.915289 -1.227097 7.574609
-1.855884 -1.175729 8.527437
-1.833750 -1.157235 9.341983
-1.790808 -1.120238 10.126896
-1.591936 -0.944881 10.900633
-1.658457 -0.787332 1.805229
-1.744584 -0.852597 2.654918
-1.694707 -0.816662 3.584119
-1.699031 -0.821238 4.619876
-1.793580 -0.892984 5.628098
-1.856024 -0.940488 6.386669
-1.923519 -0.991797 7.177589
-1.952506 -1.014810 8.263528
-1.919239 -0.990964 8.976584
-1.922235 -0.994279 9.804237
-1.772681 -0.884029 10.678247
-1.672190 -0.616446 1.465116
-1.808253 -0.702451 2.587342
-1.733990 -0.657406 3.508946
-1.739514 -0.662112 4.536088
-1.890703 -0.757118 5.329809
-1.938552 -0.788005 6.243198
-1.963220 -0.804590 7.249978
-2.032908 -0.848728 7.896354
-1.947579 -0.796709 8.742444
-1.983784 -0.820297 9.610177
-1.867473 -0.749227 10.632699
-1.288678 -0.389970 11.196566
-1.727216 -0.497879 1.425618
-1.783613 -0.528599 2.445741
-1.777916 -0.526786 3.431880
-1.785540 -0.531880 4.363439
-2.051372 -0.671944 5.174748
-2.261818 -0.783242 6.168236
-2.169602 -0.736184 7.177620
-2.064832 -0.682229 7.910499
-2.004755 -0.651755 8.722872
-1.993650 -0.647176 9.762493
-1.888017 -0.592796 10.517534
-1.447847 -0.363041 11.002958
-1.817709 -0.371098 2.387783
-1.792336 -0.361418 3.202048
-1.796458 -0.364291 4.212528
-2.174057 -0.523325 5.261660
-2.458892 -0.643338 6.094505
-1.955498 -0.433947 7.003154
-1.866049 -0.397144 7.519993
-1.968267 -0.441186 8.674093
-1.976770 -0.445448 9.295762
-1.949555 -0.435317 10.389887
-1.583252 -0.282959 11.058928
-1.669862 -0.176275 2.083885
-1.816463 -0.225937 2.970047
-1.832208 -0.232135 3.846321
-2.281902 -0.382743 4.998681
-2.563736 -0.477382 5.946642
-2.251918 -0.374886 6.896860
-2.025115 -0.300318 7.573132
-1.944153 -0.274390 8.438367
-2.011448 -0.297642 9.256532
-2.039453 -0.307729 9.968163
-1.662029 -0.183478 10.946477
-1.717199 -0.044033 1.025408
-1.700632 -0.041114 2.024472
-1.867245 -0.082471 3.083751
-1.964738 -0.106939 3.952339
-2.439219 -0.222473 4.891887
-2.571502 -0.255734 6.127014
-2.310807 -0.193599 6.854260
-1.996295 -0.118332 7.448392
-1.936596 -0.104721 8.187214
-1.962515 -0.112239 9.355633
-1.930382 -0.105176 9.997310
-1.647029 -0.037613 10.761353
-1.857021 0.070914 1.746078
-1.888116 0.064888 2.802512
-1.755856 0.084598 3.882063
-2.596687 -0.050237 5.985240
-2.450161 -0.027716 6.536515
-1.821939 0.070386 7.448304
-1.666449 0.094018 8.284137
-1.963700 0.046143 9.223458
-1.979115 0.043032 9.863738
-1.678890 0.089300 10.877138
-1.597786 0.239609 1.763720
-1.776058 0.224826 3.011051
-1.788271 0.223213 3.666766
-2.637991 0.156743 5.821278
-2.372827 0.175837 6.714598
-1.851587 0.214634 7.270836
-1.733123 0.222664 8.145909
-2.014332 0.200484 9.031664
-1.959506 0.203688 9.922674
-1.686545 0.223463 10.728616
-1.636737 0.360141 1.673600
-1.774880 0.358861 2.951822
-1.767628 0.357946 3.820756
-2.184468 0.356907 4.989222
-2.559294 0.356078 5.939936
-2.311164 0.355088 6.776460
-1.831420 0.354472 7.156670
-1.617608 0.353379 8.105433
-1.812123 0.352477 9.048600
-1.779193 0.351497 9.967592
-1.612987 0.350801 10.559589
-1.432924 0.477373 1.836206
-1.682595 0.496561 2.964744
-1.921246 0.514899 4.046480
-2.312097 0.545831 4.964595
-2.271249 0.541400 6.005924
-2.052531 0.522775 6.740831
-1.613966 0.486414 7.280151
-1.389908 0.467050 8.303410
-1.641676 0.486613 9.237948
-1.751285 0.494832 9.928126
-1.517200 0.474784 10.823991
-1.481969 0.605098 1.803421
-1.674839 0.635511 2.710800
-1.815245 0.657082 3.907212
-2.252462 0.727059 4.993736
-2.160630 0.711305 5.758363
-1.916492 0.670920 6.383801
-1.600931 0.618652 7.256173
-1.068928 0.531235 8.067320
-1.245930 0.558933 9.101277
-1.704249 0.632770 9.785951
-1.509720 0.600098 10.748002
-1.501038 0.745107 1.536529
-1.536053 0.752484 2.792722
-1.582677 0.763022 3.805048
-1.937497 0.850388 4.884566
-2.401399 0.965313 5.649224
-2.176705 0.908224 6.595314
-1.574339 0.757233 7.232240
-0.804352 0.564369 7.914901
-1.556599 0.749939 9.882435
-1.475962 0.728857 10.771266
-1.459845 0.868253 1.545665
-1.483246 0.874992 2.539614
-1.329654 0.822612 3.374510
-1.903673 1.012621 5.449894
-1.539215 0.889491 6.379747
-1.271766 0.799094 7.099308
-0.642867 0.587796 7.645202
-1.424124 0.847079 9.860451
-1.467231 1.018917 1.386762
-1.391104 0.985143 2.443233
-1.243233 0.920853 3.346557
-1.528848 1.042018 4.239869
-1.727188 1.125518 5.422152
-1.272773 0.930366 6.081877
-0.990164 0.808549 6.885222
-0.811602 0.731329 7.612824
-0.802204 0.726422 8.389174
-1.235945 0.910822 9.400136
-1.273603 0.925980 10.233610
-0.853928 0.745387 11.158490
-1.194409 1.033581 2.946062
-0.959981 0.908932 3.967051
-1.345542 1.109623 5.926105
-1.014555 0.934338 6.772990
-0.829945 0.836476 7.326633
-0.714038 0.774305 8.288581
-1.044052 0.947073 9.130226
-1.195102 1.025298 10.233610
-1.011953 0.928198 10.793540
-1.081703 1.111463 1.589414
-1.105411 1.124892 2.878123
-1.220002 1.196699 3.557744
-1.462285 1.348774 4.791809
-1.817944 1.572952 5.847465
-1.437644 1.330948 6.564063
-0.753192 0.896147 7.250677
-0.617122 0.809120 7.859539
-0.793160 0.919324 8.989516
-1.067238 1.092151 9.746722
-1.071211 1.093467 10.714358
-0.998202 1.201787 1.559595
-0.978646 1.185567 2.695412
-0.979218 1.185001 3.454041
-1.201454 1.350819 4.627302
-1.534436 1.600184 5.689279
-1.233367 1.372373 6.513317
-0.701197 0.970799 7.130142
-0.552554 0.857762 7.965669
-0.716749 0.980067 8.989516
-0.891091 1.110118 9.933890
-0.861224 1.086627 10.693653
-0.847833 1.235266 1.659950
-0.908213 1.287677 2.586076
-0.829264 1.216056 3.575471
-1.086006 1.443200 4.464414
-1.199119 1.542193 5.624331
-0.949037 1.318794 6.286098
-0.615436 1.021114 6.937819
-0.391791 0.821111 7.686284
-0.534068 0.946175 8.756129
-0.809588 1.189973 9.680492
-0.793048 1.174145 10.474036
-0.655313 1.212298 1.703724
-0.726755 1.286232 2.571903
-0.716668 1.274149 3.527668
-0.962634 1.531841 4.454544
-1.044063 1.615671 5.732494
-0.824726 1.383536 6.441207
-0.555715 1.099334 6.979605
-0.404742 0.938807 7.955577
-0.569497 1.111077 8.798928
-0.746065 1.295562 9.792408
-0.713523 1.259770 10.783750
-0.421497 1.087082 1.375732
-0.487197 1.166323 2.230488
-0.513100 1.196192 3.393908
-0.761838 1.500099 4.283290
-0.931912 1.707227 5.292026
-0.675171 1.390505 6.201134
-0.387999 1.037152 6.671021
-0.172986 0.771656 7.583133
-0.349251 0.986405 8.580672
-0.627366 1.326310 9.511033
-0.595624 1.286026 10.300748
-0.272953 0.888235 11.285262
-0.269074 1.027520 1.041392
-0.275876 1.035269 2.201525
-0.433084 1.262070 3.293840
-0.624239 1.538183 4.439408
-0.791326 1.779491 5.463205
-0.568926 1.454339 6.237309
-0.292388 1.050689 6.848138
-0.089589 0.753838 7.745767
-0.287169 1.039964 8.535081
-0.541303 1.407972 9.559318
-0.502033 1.349413 10.314434
-0.204054 0.914380 11.019118
-0.138370 0.962658 0.944501
-0.205702 1.077638 1.913460
-0.297432 1.234390 3.181379
-0.361020 1.343200 3.990068
-0.502704 1.587079 5.111884
-0.573613 1.708256 6.090498
-0.309465 1.247568 6.855172
-0.063357 0.818386 7.547908
-0.220020 1.088392 8.625233
-0.448701 1.484386 9.310649
-0.360843 1.329384 10.406893
-0.185114 1.022831 10.951197
-0.085200 1.020365 1.907245
-0.167665 1.192274 2.921634
-0.161704 1.177237 3.910974
-0.305233 1.478232 4.945930
-0.390718 1.656689 5.893171
-0.175129 1.198913 6.644830
-0.037530 0.906170 7.356104
-0.158898 1.160822 8.177814
-0.290463 1.436113 9.377211
-0.283179 1.418929 10.101267
-0.181556 1.202094 10.883604
-0.044486 1.131418 1.535621
-0.138912 1.377676 2.469404
-0.066578 1.183570 3.598661
-0.162690 1.434176 4.566551
-0.231059 1.611405 5.605463
-0.100929 1.265856 6.404147
0.031148 0.915498 7.091762
-0.057071 1.144923 8.182806
-0.174602 1.452139 9.109288
-0.177849 1.458661 9.798313
-0.121235 1.307220 10.519677
0.188931 0.641972 0.985752
0.094995 0.961534 2.217523
0.004671 1.269344 3.259619
0.037706 1.152122 4.109517
-0.059298 1.479173 6.162120
0.066466 1.042974 6.729595
0.038363 1.135208 7.991551
-0.078457 1.535215 8.835140
-0.087989 1.565612 9.498179
-0.033031 1.371697 10.620256
0.089775 0.946025 11.103195
0.141249 1.103726 1.109452
0.191314 0.854164 2.123833
0.102457 1.282821 3.053005
0.120613 1.189451 3.968849
0.105305 1.259140 4.924778
0.106127 1.250160 5.874920
0.151844 1.023501 6.566296
0.124614 1.151293 7.533151
0.060986 1.456129 8.602272
0.036003 1.574291 9.315029
0.061034 1.447255 10.254610
0.145750 1.029289 11.146011
0.227761 1.149105 2.943521
0.226894 1.148728 3.805143
0.218524 1.212354 4.773027
0.215941 1.226934 5.624553
0.241244 0.999883 6.489601
0.247594 0.935459 7.519713
0.200023 1.340862 8.238308
0.183327 1.476216 9.247710
0.194370 1.373599 10.009813
0.215701 1.179676 11.014092
0.319298 1.017574 1.716871
0.311630 1.180383 2.871450
0.312353 1.138210 3.775001
0.309346 1.189652 4.695606
0.307276 1.218313 5.584451
0.314218 1.020928 6.425138
0.316328 0.938549 7.525163
0.299402 1.346469 8.243358
0.292936 1.482818 9.252123
0.296940 1.357943 10.153477
0.303672 1.166648 10.963897
0.407368 1.042461 1.922259
0.409567 1.114391 2.971842
0.408240 1.104108 3.785048
0.407927 1.122909 4.903500
0.409506 1.178011 5.808232
0.399322 0.974111 6.592513
0.396997 0.943777 7.480151
0.412632 1.305885 8.418188
0.418943 1.461336 9.202370
0.410780 1.301658 9.995917
0.399913 1.086935 10.957387
0.473789 0.894469 1.798780
0.496472 1.085837 2.951756
0.494289 1.075250 3.764956
0.494414 1.084499 4.738585
0.493654 1.086793 5.728302
0.471706 0.918265 6.576384
0.471447 0.923333 7.419619
0.512083 1.257633 8.478149
0.530778 1.415074 9.395816
0.513714 1.285217 10.193424
0.489705 1.098143 10.799971
0.530138 0.771373 1.733051
0.607171 1.140917 2.660940
0.563067 0.937891 3.812140
0.551943 0.889853 4.725691
0.580646 1.029216 5.400220
0.574807 1.006407 6.353081
0.538006 0.837379 7.388374
0.585305 1.066136 8.323414
0.665797 1.451051 9.052353
0.631359 1.293540 10.151121
0.577616 1.042719 10.880295
0.593789 0.733970 1.224930
0.625882 0.846728 2.548142
0.695889 1.084760 3.277707
0.666695 0.990097 4.222527
0.657663 0.963933 5.363276
0.624324 0.854092 5.970374
0.557058 0.631749 6.997901
0.662374 0.989339 7.961729
0.756287 1.308778 8.974415
0.756746 1.313420 9.816365
0.687681 1.084608 10.729923
0.462125 0.328744 11.380168
0.642038 0.658331 1.156022
0.681494 0.762661 2.125157
0.747439 0.936039 3.402055
0.780944 1.025160 4.407634
0.806969 1.094180 5.117166
0.755004 0.963019 5.995268
0.685335 0.785917 6.739680
0.732554 0.910574 7.830693
0.876046 1.282071 8.621589
0.869119 1.267335 9.687046
0.809048 1.114859 10.406893
0.612338 0.610561 11.039945
0.672940 0.570053 0.787310
0.775482 0.787466 2.248988
0.852673 0.950481 3.083056
0.813812 0.871606 3.978891
0.843945 0.936987 5.022043
0.901703 1.059870 6.020348
0.789369 0.827552 6.829742
0.688665 0.619406 7.605311
0.829895 0.916066 8.473727
0.973579 1.217993 9.404455
0.929642 1.128205 10.164902
0.752137 0.759794 10.904055
0.681357 0.450056 0.899700
0.767556 0.599348 1.979273
0.943909 0.901997 2.846244
1.020582 1.035262 4.033020
1.021648 1.038988 4.951612
1.034052 1.062440 6.056106
0.975279 0.963309 6.601077
0.795412 0.658206 7.439794
0.968052 0.954598 8.343276
1.099100 1.180020 9.240005
1.003678 1.019250 10.210961
0.861251 0.778189 11.131456
0.788163 0.498025 0.985778
0.999055 0.801386 2.111576
0.989748 0.790067 3.191400
1.139434 1.005824 4.230402
1.239191 1.151464 5.932771
1.051019 0.883828 6.591085
0.822330 0.558988 7.621480
1.015072 0.836101 8.573298
1.174070 1.064771 9.398844
1.083495 0.937135 10.364298
0.940756 0.734132 10.870253
1.016277 0.664858 1.314561
1.043982 0.699920 2.250534
1.015591 0.666998 3.116871
1.452002 1.198512 5.241494
1.315539 1.034975 6.193321
1.052771 0.717876 6.692984
0.813448 0.429873 7.635672
0.969398 0.620476 8.800334
1.225317 0.931304 9.523750
1.143968 0.834177 10.310727
0.803600 0.423934 11.261995
0.868778 0.378851 0.414696
1.176036 0.697629 1.319513
1.206331 0.730333 2.252489
1.346253 0.876847 3.555558
1.598689 1.138861 4.373954
