-1.251278 1.254424 6.043946
-1.039248 1.097766 7.044317
-1.113702 0.971827 -2.052331
-1.121420 0.980321 -1.199967
-1.230629 1.053696 -0.462935
-1.310175 1.108679 0.446089
-1.365263 1.147814 1.330964
-1.474216 1.221096 2.085646
-1.227622 1.066177 3.024442
-0.822922 0.810122 4.127679
-1.117524 1.003467 5.005518
-1.401460 1.189685 5.820783
-1.501588 1.045079 -0.969480
-1.243748 0.911508 -0.076411
-1.443248 1.020206 0.591516
-1.598167 1.106730 1.647726
-1.604005 1.112492 2.322826
-1.369600 0.991393 3.219046
-0.793271 0.689269 4.310361
-1.046287 0.826698 5.048583
-1.491728 1.067114 5.959694
-1.343986 0.992465 6.950709
-1.685734 0.929069 -1.548382
-1.543805 0.873577 -0.731405
-1.787830 0.977947 0.246929
-1.985308 1.063027 1.202954
-1.772818 0.977554 1.789599
-1.416728 0.834942 2.938963
-1.089634 0.702226 3.538058
-1.204803 0.753501 4.535934
-1.527386 0.889560 5.321218
-1.608833 0.926717 6.265050
-1.327318 0.814432 7.295879
-1.689385 0.785932 -1.249324
-1.215760 0.633100 -0.298413
-1.896912 0.864173 1.414528
-1.259513 0.663638 4.099531
-1.236009 0.659871 5.189565
-1.624152 0.790104 5.772444
-1.459436 0.738778 6.601624
-1.874815 0.684192 -1.462244
-1.802116 0.668996 -0.707263
-2.022643 0.729845 1.123300
-2.003646 0.728165 1.960640
-1.132029 0.520139 3.798178
-1.299804 0.564739 4.717553
-1.625934 0.647396 5.376697
-1.733112 0.677611 6.445746
-1.449274 0.611070 7.379665
-1.980543 0.523713 -0.797558
-1.228401 0.411091 -0.130508
-2.174675 0.562304 1.738644
-1.245668 0.432891 5.318539
-1.660764 0.499174 6.124589
-1.635619 0.498513 7.029811
-1.694282 0.329101 -1.546787
-1.914024 0.346980 -0.613404
-2.396186 0.385494 1.228699
-2.008980 0.362898 2.141292
-1.694673 0.345243 3.079491
-1.411965 0.329155 3.863381
-1.166499 0.315467 4.624901
-1.452054 0.337481 5.487542
-1.726156 0.359122 6.462090
-1.421078 0.341328 7.183642
-1.696701 0.180678 -1.662657
-1.919883 0.178592 -0.945845
-1.480931 0.190289 -0.171113
-2.210886 0.181708 1.667659
-1.057976 0.218277 5.383603
-1.659186 0.208815 6.209316
-1.706288 0.210883 7.081971
-1.587431 0.059994 -2.245537
-1.667839 0.055261 -1.361017
-1.916819 0.034339 -0.416771
-2.290236 0.001799 0.667403
-2.360398 -0.002199 1.477011
-2.138478 0.021547 2.094745
-1.858802 0.052449 3.153027
-1.493207 0.090368 3.827087
-1.295061 0.112952 4.774500
-1.366540 0.109223 5.697763
-1.434348 -0.048790 -1.696567
-1.703041 -0.096441 -0.983526
-1.712645 -0.094949 -0.054595
-1.777796 -0.085366 6.096021
-1.712459 -0.070286 6.910652
-1.907978 -0.312989 -1.122162
-1.986544 -0.331838 -0.198007
-1.718326 -0.237064 5.071096
-1.615944 -0.205059 5.927178
-1.674298 -0.218514 6.764553
-1.745361 -0.416189 -1.397781
-1.840596 -0.448354 -0.552097
-2.299218 -0.607512 2.370134
-1.973450 -0.483952 3.128858
-1.602115 -0.343034 4.013790
-1.392354 -0.261924 4.920332
-1.500216 -0.299425 5.588944
-1.707298 -0.372180 6.668383
-1.493041 -0.473655 -1.847729
-1.663349 -0.551051 -0.867445
-1.765965 -0.596786 -0.043468
-2.437516 -0.909420 1.886783
-2.135948 -0.762929 2.603751
-1.788475 -0.594046 3.454286
-1.381875 -0.397246 4.236160
-1.467347 -0.434173 5.225735
-1.690204 -0.536581 6.214478
-1.513651 -0.449411 6.999646
-1.704924 -0.736104 -1.062287
-1.885419 -0.836175 0.050478
-2.419922 -1.138556 1.842595
-2.148408 -0.978678 2.494680
-1.786347 -0.764722 3.553641
-1.465113 -0.575472 4.348591
-1.440803 -0.558176 5.149111
-1.558978 -0.622841 6.090567
-1.459741 -0.562049 6.915874
-1.565283 -0.816713 -1.294619
-1.550156 -0.803240 -0.575642
-1.219519 -0.570380 0.543952
-2.251160 -1.275609 2.102016
-1.523957 -0.759190 5.574788
-1.471314 -0.719123 6.461614
-1.320033 -0.876365 -1.710386
-1.469110 -1.004268 -0.960512
-1.478508 -1.007869 0.049878
-1.908820 -1.374613 2.742453
-1.663563 -1.154365 3.629700
-1.496874 -1.003962 4.386485
-1.432453 -0.943810 5.116027
-1.474645 -0.976048 6.183229
-1.312741 -0.830264 6.853025
-1.388889 -1.110747 -0.918859
-1.346325 -1.062893 -0.065026
-1.107458 -0.813947 0.785772
-1.566771 -1.270759 3.546921
-1.378096 -1.074676 4.107957
-1.319079 -1.009374 5.080703
-1.320031 -1.005948 5.965234
-1.223031 -0.902396 6.804910
-1.312766 -1.222571 -1.387372
-1.298698 -1.200871 -0.460604
-1.333425 -1.235975 0.674139
-1.469894 -1.385578 2.973669
-1.321292 -1.203578 4.009092
-1.320783 -1.198363 4.863711
-1.272987 -1.136696 5.776629
-1.202882 -1.048692 6.662273
-1.116124 -1.196071 -1.749798
-1.183995 -1.284693 -0.638175
-1.152471 -1.236316 0.049660
-1.104187 -1.162328 1.085388
-1.308324 -1.444792 1.772137
-1.412410 -1.585501 2.675479
-1.255144 -1.359034 3.624972
-1.209284 -1.290574 4.305930
-1.207032 -1.281643 5.269127
-1.194294 -1.257675 6.284907
-1.013755 -1.000099 6.973501
-1.134468 -1.474012 -1.155810
-1.037429 -1.306253 -0.347278
-1.066896 -1.348393 0.706846
-1.066097 -1.341895 1.468933
-1.092334 -1.379277 2.428107
-1.134845 -1.443321 3.469029
-1.116834 -1.407338 4.334444
-1.105012 -1.383327 4.960546
-1.103533 -1.373939 5.981442
-0.998548 -1.193345 6.723044
-0.964224 -1.444881 -1.191310
-0.947404 -1.406011 -0.524388
-0.914379 -1.333060 0.352785
-0.955747 -1.409888 1.124645
-0.992621 -1.474486 2.312063
-0.999786 -1.484366 2.886368
-1.027879 -1.533156 3.845617
-1.013782 -1.497030 4.860637
-0.973915 -1.410998 5.658256
-0.939457 -1.334822 6.580716
-0.687468 -0.823027 7.508860
-0.801276 -1.469983 -1.496773
-0.784764 -1.417526 -0.473392
-0.786885 -1.413542 0.509655
-0.823247 -1.499155 1.364613
-0.848199 -1.555437 2.207914
-0.890474 -1.655961 3.099125
-0.912477 -1.704334 3.973200
-0.857661 -1.554906 4.801228
-0.829378 -1.475178 5.501733
-0.816966 -1.433211 6.534774
-0.651929 -0.998158 7.485578
-0.661021 -1.513783 -0.817823
-0.653991 -1.477521 0.112246
-0.666752 -1.510575 1.021457
-0.676105 -1.533720 1.773540
-0.692829 -1.580619 2.681437
-0.712827 -1.637090 3.735947
-0.718900 -1.647805 4.566250
-0.725696 -1.662341 5.293680
-0.707664 -1.588546 6.155866
-0.626286 -1.293365 7.047074
-0.573387 -1.658748 -0.971648
-0.552114 -1.548354 -0.389394
-0.545798 -1.499681 0.729649
-0.551870 -1.516446 1.441046
-0.527346 -1.385188 2.350143
-0.542516 -1.442484 3.210142
-0.597186 -1.683722 4.240750
-0.599646 -1.681336 5.075104
-0.609553 -1.714902 5.866087
-0.578738 -1.554522 6.737480
-0.395448 -1.465339 -0.160430
-0.402500 -1.495203 0.845675
-0.414935 -1.572842 1.775681
-0.402866 -1.445059 2.643948
-0.412976 -1.512935 3.239563
-0.439005 -1.703988 4.222586
-0.436273 -1.650622 5.244489
-0.435953 -1.626691 5.961472
-0.421315 -1.475438 6.888779
-0.271328 -1.627392 -1.508285
-0.269872 -1.501147 -0.695132
-0.275137 -1.567106 0.175023
-0.279669 -1.584838 1.305071
-0.281005 -1.542392 2.103582
-0.286691 -1.606975 3.108082
-0.295373 -1.779273 3.923320
-0.298366 -1.776740 4.808603
-0.298107 -1.695212 5.529552
-0.297426 -1.591437 6.346601
-0.281199 -1.017500 7.281411
-0.152201 -1.510259 -1.303957
-0.154440 -1.536423 -0.338368
-0.156705 -1.561804 0.625329
-0.157649 -1.606025 1.441046
-0.169501 -1.386421 2.144108
-0.169107 -1.473997 3.109193
-0.158964 -1.797479 4.175640
-0.163112 -1.766921 4.991794
-0.169045 -1.684523 5.682706
-0.177211 -1.584802 6.802553
-0.027988 -1.425635 -0.676265
-0.028841 -1.442495 0.217211
-0.030266 -1.454565 1.089111
-0.032070 -1.466575 2.066710
-0.014747 -1.615931 2.888498
0.002960 -1.771818 3.852887
-0.007168 -1.713238 4.481028
-0.005136 -1.757514 5.609432
-0.001701 -1.803451 6.401887
-0.069372 -1.321643 7.111313
0.108844 -1.488665 -0.097668
0.101419 -1.467818 0.668604
0.092074 -1.439303 1.489036
0.076373 -1.383964 2.397984
0.111609 -1.557090 3.451103
0.160140 -1.786068 4.303216
0.142709 -1.723178 5.220324
0.135558 -1.705957 6.138892
0.102623 -1.570610 6.827776
0.221823 -1.451248 -0.129315
0.212665 -1.432204 0.752990
0.210258 -1.435776 1.720150
0.181422 -1.351829 2.441562
0.224369 -1.498127 3.191165
0.295706 -1.739133 4.264261
0.288179 -1.723303 4.974104
0.266222 -1.662499 5.790718
0.217401 -1.518934 6.888779
0.317183 -1.392758 -0.791877
0.318985 -1.407218 0.259234
0.319652 -1.414944 0.900050
0.320337 -1.426783 1.972208
0.373525 -1.569182 2.846662
0.422908 -1.701362 3.654937
0.397309 -1.644906 4.515166
0.403632 -1.670225 5.508691
0.402325 -1.673461 6.201481
0.286323 -1.389190 7.083032
0.398672 -1.240171 -1.491633
0.451582 -1.349669 -0.529112
0.423721 -1.301487 0.217374
0.426273 -1.312864 1.069925
0.369561 -1.210194 1.981749
0.436525 -1.346132 2.850262
0.550582 -1.573666 3.799917
0.552536 -1.585183 4.823803
0.552792 -1.590330 5.439098
0.516747 -1.527238 6.304764
0.263363 -1.044983 7.266287
0.538715 -1.296237 -0.792476
0.529964 -1.288682 0.217320
0.547265 -1.323112 1.152787
0.508037 -1.264490 1.955922
0.571319 -1.373442 2.824002
0.690840 -1.573099 3.542511
0.678838 -1.560552 4.598658
0.626230 -1.480290 5.428472
0.578015 -1.406815 6.201368
0.436357 -1.183272 7.319201
0.544406 -1.103613 -1.537040
0.645613 -1.245637 -0.760926
0.636886 -1.239210 0.164722
0.668206 -1.285510 0.805513
0.635763 -1.246445 1.659101
0.659653 -1.284012 2.531648
0.814886 -1.501791 3.711695
0.788683 -1.469624 4.295902
0.730064 -1.396352 5.379545
0.673355 -1.323732 6.131810
0.601925 -1.233224 7.243762
1.570751 -0.269500 -0.523981
1.381554 -0.271846 0.688297
1.554082 -0.257446 1.732533
1.613961 -0.245700 3.278032
1.791933 -0.230734 4.374699
1.733331 -0.228523 5.265193
1.596141 -0.228680 6.414990
1.510853 -0.227993 7.267211
0.913864 -0.253070 7.993643
1.441451 -0.125936 -0.078038
1.518860 -0.108111 0.950609
1.540827 -0.096952 2.301042
1.631150 -0.075621 3.593516
1.792339 -0.044883 4.628610
1.698879 -0.052626 5.777242
1.698971 -0.046952 6.759214
1.670543 0.084861 -0.710734
1.467218 0.037343 0.394344
1.643294 0.091677 1.674021
1.682034 0.108065 2.707740
1.664823 0.109996 3.811201
1.835996 0.162032 4.921954
1.656721 0.120962 6.036707
1.626850 0.117700 6.829987
1.108174 -0.015405 7.632471
1.760452 0.274049 -0.691116
1.533207 0.197939 0.453809
1.815901 0.309048 1.737953
1.766423 0.298308 2.948668
1.586355 0.239448 4.094829
1.812299 0.327913 5.065332
1.675755 0.284982 6.214949
1.524997 0.235483 7.138248
1.126783 0.092684 7.590237
1.439337 0.317808 -0.073482
1.998269 0.607250 2.730000
1.418363 0.329132 3.323644
1.725934 0.493469 5.665583
1.633840 0.455355 6.715512
1.336827 0.316269 7.549789
0.696265 0.007235 7.917445
1.631762 0.602329 -0.757816
1.455534 0.499937 0.254002
1.859289 0.767415 2.843310
1.395060 0.483138 3.337461
1.611685 0.634294 5.867899
1.620724 0.645672 6.730165
1.582247 0.772458 -1.991858
1.557448 0.763144 -0.628819
1.463743 0.697938 0.349499
1.779406 0.961039 3.092836
1.542944 0.784841 3.941931
1.540077 0.790311 5.009530
1.600472 0.844201 6.028077
1.420696 0.712984 7.054778
1.031468 0.417369 7.676124
1.520641 0.939235 -2.262847
1.537240 0.963907 -1.099174
1.343864 0.790158 -0.106099
1.743702 1.187376 2.699138
1.473727 0.940982 3.596612
1.322490 0.807231 4.646555
1.509425 0.990148 5.600740
1.402994 0.899365 6.767521
1.188178 0.703341 7.485262
0.444233 0.008260 7.895742
1.489738 1.179840 -2.048270
1.617509 1.340667 -0.538586
1.448339 1.173023 2.664272
1.205087 0.900506 3.656663
1.174516 0.874584 4.737764
1.334186 1.069721 5.953500
1.294313 1.030903 6.788337
0.988720 0.683951 7.507357
1.191425 1.112003 0.046718
1.517016 1.604870 2.555345
1.211372 1.173862 3.375140
1.093373 1.016038 4.551399
1.304066 1.328320 5.507499
1.236369 1.241622 6.567883
1.065877 1.004761 7.382195
0.564538 0.290996 8.045730
1.305721 1.581813 -2.078016
1.225636 1.453965 -0.929030
0.994489 1.055971 -0.124473
1.267373 1.570926 2.833000
1.046675 1.190638 3.576424
0.933858 1.002699 4.516092
0.991574 1.118482 5.736636
1.027955 1.194028 6.727993
1.091553 1.565682 -2.058612
1.034895 1.456681 -0.820105
1.004052 1.403992 0.331876
1.217583 1.916116 2.947616
0.878570 1.170928 3.674342
0.835916 1.088855 4.605664
0.867072 1.177481 5.986637
0.900972 1.265265 6.867673
0.742529 0.922358 7.593157
0.922386 1.616654 -1.840467
0.936462 1.675977 -0.831125
0.788342 1.256024 0.080666
0.909829 1.662566 2.838449
0.744691 1.188038 3.497823
0.544995 0.608719 3.985437
0.800349 1.410345 6.796692
0.680152 1.071415 7.641215
0.748197 1.692838 -1.986167
0.714048 1.576583 -0.664878
0.754621 1.853562 3.168736
0.662432 1.545032 6.942186
0.540869 1.028134 7.635332
0.585845 1.953057 -1.865173
0.566557 1.835518 -0.913616
0.505516 1.370740 0.194273
0.544411 1.819209 2.612534
0.482011 1.331003 3.476865
0.370918 0.401290 3.773712
0.480533 1.483243 6.857237
0.446364 1.225354 7.524054
0.387358 1.853616 -0.918686
0.374244 1.384841 -0.351021
0.365827 1.799695 2.660464
0.355740 1.474947 3.229529
0.337467 0.792110 3.910947
0.341302 1.709915 6.632382
0.206616 1.701570 -1.893054
0.200796 1.678971 -0.530403
0.134101 2.247985 2.448762
0.167053 1.830571 3.056615
0.209133 1.311914 3.613225
0.164869 1.643184 6.298178
0.165694 1.577073 7.162848
0.211283 1.007110 7.888904
0.075658 1.630235 -1.347081
0.089456 1.513186 -0.254592
-0.004926 1.969465 2.509204
0.068889 1.515676 3.229529
0.133438 1.116151 3.939662
0.005355 1.770862 6.634570
0.061140 1.416444 7.519956
0.191497 0.642682 7.970870
-0.140221 1.750051 -2.064838
-0.138340 1.719909 -0.902293
-0.144386 1.713647 0.424105
-0.258092 2.073949 1.901623
-0.139971 1.657585 2.431782
0.012182 1.120154 3.169168
-0.203571 1.804899 5.919432
-0.176176 1.691739 6.856952
-0.212892 1.500312 -2.316482
-0.268284 1.622517 -1.201921
-0.304654 1.695442 0.003968
-0.365527 1.810609 2.469010
-0.117468 1.174198 3.255944
-0.404018 1.855643 5.828812
-0.373831 1.765862 6.724105
-0.430227 1.631052 -1.898323
-0.412978 1.579331 -0.493572
-0.443650 1.625554 0.639595
-0.477838 1.679045 1.746365
-0.345312 1.403210 2.891593
-0.154456 1.016807 3.680407
-0.528447 1.720407 6.386967
-0.497510 1.650167 7.118473
-0.240033 1.134417 7.743641
-0.589795 1.540196 -2.049601
-0.673730 1.654039 -0.737557
-0.547093 1.451243 0.279373
-0.508967 1.379423 1.625024
-0.494408 1.346337 2.685415
-0.367267 1.143503 3.632242
-0.774494 1.734496 6.265069
-0.702396 1.616391 7.099682
-0.427633 1.192513 7.749330
-0.650607 1.368915 -1.919215
-0.735731 1.461814 -0.540036
-0.658484 1.355517 0.634113
-0.733124 1.437304 1.807081
-0.560601 1.214382 2.832213
-0.944770 1.664879 5.611422
-0.935417 1.646390 6.373282
-0.753044 1.413201 7.185572
-0.358756 0.917829 7.973627
-0.865692 1.365529 -0.472732
-0.857957 1.349108 0.590664
-0.867505 1.348077 1.908834
-0.660424 1.130398 2.965127
-1.136295 1.589691 5.593469
-1.101108 1.547926 6.362940
-0.923642 1.362283 7.156207
-0.480940 0.908836 7.943076
-1.085074 1.341320 -1.986791
-1.089197 1.334890 -0.654487
-0.951130 1.215434 0.289814
-0.937891 1.195033 1.597654
-0.930283 1.181608 2.580792
-0.875020 1.126419 3.962313
-1.247855 1.421706 5.125730
-1.221293 1.391078 6.347855
-1.198974 1.367731 7.049842
-0.786486 1.026031 7.804785
-1.085283 1.139881 -0.374136
-0.988098 1.066684 0.835272
-1.073468 1.116403 1.900962
-0.994566 1.056057 3.017197
-1.232154 1.205813 4.320688
-1.459624 1.349074 5.585883
-1.339039 1.261832 6.564226
-1.162996 1.138577 7.392720
-0.556589 0.730116 7.894578
-1.199659 1.008314 -1.825403
-1.257161 1.029049 -0.483153
-1.205980 0.996048 0.596700
-1.345092 1.056802 2.187546
-1.414428 1.086643 3.049330
-1.350062 1.046420 4.207368
-1.571706 1.150496 5.603796
-1.503238 1.108808 6.664156
-1.364746 1.034192 7.290510
-0.726482 0.704394 7.974836
-1.630249 1.044110 -2.053176
-1.721500 1.075233 -1.094235
-1.618630 1.025038 0.282430
-1.682474 1.037311 2.498881
-1.193509 0.834157 3.278421
-1.656296 1.005727 5.908948
-1.618636 0.985793 6.666396
-1.174422 0.799738 7.617444
-0.486983 0.519212 7.885408
-1.880090 0.929982 -2.056678
-1.843208 0.913247 -1.089036
-1.627572 0.827696 2.500090
-1.374467 0.747346 3.337155
-1.388469 0.743981 4.604813
-1.751781 0.845068 5.800423
-1.722934 0.831514 6.635376
-1.267714 0.690362 7.575560
-0.518173 0.465117 7.917445
-1.794059 0.664699 -1.866153
-1.599431 0.625874 -0.891900
-2.208565 0.714265 1.789736
-1.595123 0.604255 2.721845
-1.297257 0.549291 3.442155
-1.456302 0.569319 4.670320
-1.840670 0.628342 5.800423
-1.712058 0.600877 6.757375
-1.997756 0.486270 -2.005205
-1.898085 0.473527 -0.918861
-2.202919 0.477283 1.927132
-1.759680 0.443574 2.736787
-1.464639 0.420427 3.399801
-1.471782 0.415189 4.399224
-1.814105 0.430261 5.694179
-1.884833 0.428593 6.799362
-1.634861 0.344300 -1.638102
-2.230580 0.325431 1.161038
-2.110190 0.319948 2.227065
-1.885871 0.315175 3.258016
-1.231554 0.314537 3.933481
-1.290975 0.307019 5.201899
-1.723434 0.297365 6.524130
-1.675336 0.293117 7.311299
-1.065464 0.293352 7.795046
-2.286367 0.050653 1.327109
-2.023449 0.078630 2.210695
-1.676117 0.116063 3.295387
-1.321622 0.157246 3.883982
-1.388882 0.141886 5.086492
-1.765404 0.085918 6.590857
-1.761630 0.081736 7.401861
-0.979832 0.176540 8.006610
-1.824209 -0.075576 -1.275101
-2.262141 -0.202326 2.508166
-1.638365 -0.057798 3.267617
-1.150847 0.054153 4.032885
-1.761666 -0.107028 6.644948
-1.748664 -0.108477 7.422622
-0.869504 0.098229 7.979556
-1.696509 -0.282868 -1.580969
-1.524448 -0.221263 -0.698824
-1.715139 -0.312073 2.009454
-1.394155 -0.191196 2.681845
-1.733553 -0.333538 4.347693
-1.786812 -0.367089 6.443415
-1.719033 -0.346354 7.368853
-1.108720 -0.111843 7.882191
-1.774889 -0.441227 -1.238873
-1.971438 -0.557341 2.656485
-1.769234 -0.467355 3.337235
-0.947779 -0.087925 3.898201
-1.865219 -0.532233 6.540071
-1.591151 -0.411254 7.620168
-0.825776 -0.056963 8.020979
-1.282481 -0.325642 -0.571086
-2.211027 -0.868926 2.444846
-1.727798 -0.602589 3.382220
-1.178871 -0.295462 3.746832
-1.764925 -0.642934 6.350221
-1.640397 -0.578881 7.292400
-0.942773 -0.188910 7.809700
-1.700962 -0.785590 -0.157238
-2.111979 -1.096365 2.569603
-1.621929 -0.754971 3.489391
-1.206602 -0.464013 4.037127
-1.641977 -0.791580 6.693010
-1.582992 -0.754436 7.368853
-0.847247 -0.236802 8.023198
-1.472772 -0.821885 -0.236888
-1.978258 -1.282170 2.645201
-1.619807 -0.976381 3.334008
-1.473242 -0.856901 4.351868
-1.567901 -0.948465 5.603390
-1.552667 -0.943544 6.703373
-1.445773 -0.856438 7.450154
-0.833862 -0.329229 7.937055
-1.410009 -1.028194 -0.438329
-1.899256 -1.585955 2.347082
-1.634445 -1.303337 3.124692
-1.409748 -1.066309 4.113885
-1.449508 -1.118302 5.130352
-1.453943 -1.131479 6.118353
-1.330175 -1.005181 7.168525
-0.952773 -0.598896 7.861074
-1.349241 -1.226647 -0.542083
-1.663689 -1.675826 2.465272
-1.414196 -1.348231 3.106032
-1.284177 -1.183366 4.055534
-1.376178 -1.316401 5.105045
-1.323209 -1.255491 6.149433
-1.245308 -1.160402 7.106120
-0.912902 -0.722296 7.787214
-1.213918 -1.310022 -0.737557
-1.154304 -1.224069 0.266203
-1.291271 -1.462795 1.754610
-1.246057 -1.400958 2.824338
-1.157150 -1.267409 3.828179
-1.262886 -1.450716 4.886501
-1.190760 -1.346157 6.048814
-1.187253 -1.348498 6.788477
-1.131793 -1.536635 -0.856855
-1.076185 -1.435196 0.156544
-1.098805 -1.501027 1.626065
-1.087188 -1.489851 2.604855
-1.082241 -1.493048 3.631047
-1.128876 -1.604796 4.824520
-1.051921 -1.461382 5.994499
-0.993307 -1.353593 6.996202
-0.935910 -1.546020 -0.887328
-0.890855 -1.438282 0.045555
-0.908327 -1.504763 1.172724
-0.882525 -1.456310 2.505567
-0.923830 -1.588109 3.641405
-0.946010 -1.664999 4.620149
-0.910375 -1.587127 5.800347
-0.884404 -1.534078 6.883955
-0.755706 -1.192853 7.530432
-0.428847 -0.302745 7.756988
-0.741411 -1.480295 -0.195261
-0.741997 -1.508206 0.940765
-0.695578 -1.358453 2.195675
-0.736488 -1.540333 3.298875
-0.805154 -1.830600 4.485910
-0.758115 -1.675131 5.593031
-0.735600 -1.610063 6.536744
-0.636626 -1.250801 7.443334
-0.473938 -0.636430 7.878092
-0.606131 -1.665135 -0.881951
-0.585458 -1.567218 0.112601
-0.571887 -1.526729 1.395343
-0.594399 -1.722815 2.681188
-0.616843 -1.911626 3.786173
-0.600889 -1.847457 4.855503
-0.589029 -1.808156 5.872769
-0.568904 -1.710461 6.778108
-0.504368 -1.314315 7.486894
-0.333836 -0.218767 8.068960
-0.438489 -1.798975 -0.985631
-0.420543 -1.563020 0.103411
-0.413800 -1.571542 1.359938
-0.413297 -1.730499 2.833860
-0.414120 -1.876794 3.965096
-0.407466 -1.853418 4.927856
-0.394981 -1.734497 6.079931
-0.391102 -1.745155 6.852831
-0.252945 -1.744872 -0.788971
-0.254792 -1.600312 0.267526
-0.249366 -1.560861 1.595278
-0.230903 -1.771147 2.823485
-0.217441 -1.902317 3.930724
-0.214368 -1.842064 5.044619
-0.210523 -1.806138 6.061639
-0.214758 -1.616118 7.133472
-0.231423 -1.259217 7.620185
-0.083137 -1.682864 -0.767649
-0.095411 -1.567590 0.294300
-0.072847 -1.666450 1.470246
-0.056579 -1.715702 2.927321
-0.022722 -1.888441 4.016799
-0.011111 -1.926544 4.975136
-0.032388 -1.747888 6.230027
-0.027672 -1.750725 6.969059
-0.114165 -1.180807 7.745043
0.056419 -1.605187 -0.663508
0.069276 -1.634233 0.246689
0.063049 -1.579397 1.595278
0.110611 -1.733922 2.896150
0.173477 -1.954402 3.903113
0.158138 -1.868700 5.057869
0.150423 -1.814959 6.105546
0.120659 -1.678426 7.039794
0.293340 -1.455541 -0.295243
0.292595 -1.436510 0.988212
0.221411 -1.269126 1.978858
0.466875 -1.764689 4.576775
0.503109 -1.831256 5.445416
0.461765 -1.727457 6.505619
0.337778 -1.447267 7.394371
0.047395 -0.812578 7.889885
0.429909 -1.462318 -0.595246
0.388679 -1.373008 0.831033
0.413835 -1.407198 1.716650
0.601042 -1.706076 4.463875
0.598727 -1.691395 5.379922
0.582061 -1.651624 6.273905
0.423308 -1.359326 7.303763
0.130381 -0.835921 7.826035
0.585105 -1.419869 -0.569593
0.527922 -1.325715 0.831033
0.501633 -1.278713 1.852842
0.830543 -1.716967 4.308571
0.754424 -1.598050 5.520178
0.775366 -1.617906 6.495248
0.611780 -1.379508 7.352560
0.231802 -0.840661 7.827233
0.751264 -1.381611 -0.823319
0.645952 -1.250537 0.478119
0.683087 -1.283813 1.518863
0.715981 -1.308856 2.954428
0.917805 -1.527927 4.182558
0.941078 -1.545109 5.260352
0.923280 -1.516466 6.232387
0.744847 -1.304966 7.211368
0.457323 -0.974059 7.641632
0.694114 -1.154545 -0.024165
0.734160 -1.183632 1.220583
0.858212 -1.294160 2.507671
1.051851 -1.473317 3.682858
1.026669 -1.439104 4.902820
1.016423 -1.422055 5.792683
1.024208 -1.422692 6.665709
0.771905 -1.170472 7.497372
0.011798 -0.426156 8.048244
0.974260 -1.294364 -0.885886
0.949421 -1.264622 0.237629
0.845269 -1.165496 1.539801
1.025524 -1.311135 2.738954
1.117248 -1.379246 4.148229
1.172808 -1.420027 5.065332
1.187270 -1.425422 5.999485
1.000577 -1.257573 7.023503
0.657594 -0.959144 7.581143
1.066158 -1.204667 -0.911640
0.809303 -1.010767 0.131780
0.874925 -1.049893 1.344051
1.086122 -1.195432 2.459251
1.151832 -1.234174 3.735076
1.214156 -1.271771 4.824324
1.161833 -1.225909 5.940657
1.167495 -1.223803 6.823691
1.086595 -1.035214 -0.563892
1.055121 -1.008218 0.743015
1.060633 -1.005247 1.681308
1.002320 -0.961769 3.111480
1.280931 -1.115874 4.406930
1.324631 -1.134419 5.462945
1.312922 -1.121960 6.315449
1.113918 -0.999805 7.221820
0.601423 -0.697253 7.731632
1.238723 -0.930072 -0.792005
1.105886 -0.863411 0.442329
1.103834 -0.855268 1.602663
1.198264 -0.888760 2.954428
1.490757 -1.011418 4.106737
1.482143 -1.000485 5.247200
1.478965 -0.993610 6.123854
1.346961 -0.928785 7.123057
0.877417 -0.716492 7.742252
1.392032 -0.835478 -0.849722
1.241601 -0.780122 -0.063019
1.169948 -0.747739 1.312585
1.346353 -0.799777 2.532250
1.508794 -0.846511 3.852259
1.543660 -0.851601 4.957609
1.474761 -0.821913 6.039102
1.500232 -0.824782 6.987807
1.351112 -0.670291 -0.491713
1.295422 -0.649744 0.799618
1.308207 -0.647301 1.727114
1.377523 -0.656334 2.947495
1.541233 -0.685607 4.472375
1.597939 -0.693301 5.418729
1.469395 -0.657165 6.469290
1.246834 -0.599930 7.377116
0.719075 -0.474044 7.848495
1.316065 -0.512288 -0.072103
1.321303 -0.505707 1.189140
1.564213 -0.529644 2.361718
1.767497 -0.548339 3.575808
1.658844 -0.527017 4.899921
1.630658 -0.517974 5.855016
1.545867 -0.501610 6.840403
1.455469 -0.380957 -0.527796
1.447262 -0.374283 0.608861
1.324411 -0.364251 1.852842
1.523180 -0.362100 3.065974
1.748300 -0.360366 4.316564
1.784691 -0.356230 5.195359
1.716171 -0.348443 6.273905
1.594344 -0.340626 7.133472
1.017427 -0.322922 7.814852
1.611212 -0.226066 -0.813570
1.424745 -0.235312 0.050714
1.305245 -0.236187 1.488485
1.687639 -0.200253 2.686940
1.825633 -0.181941 4.054914
1.711869 -0.184514 5.119067
1.799216 -0.173490 5.885811
1.723047 -0.173474 6.902645
1.184593 -0.209799 7.713431
1.763372 -0.050132 -0.871571
1.569283 -0.078425 0.001643
1.540971 -0.076244 1.220255
1.392209 -0.095802 2.257652
1.847997 -0.002423 4.867219
1.710828 -0.020276 5.855016
1.654510 -0.024555 6.788337
1.669199 0.108125 -0.710734
1.470962 0.059227 0.430130
1.636527 0.112856 1.638718
1.464010 0.071655 2.860195
1.616734 0.120320 3.839178
1.772575 0.171350 5.069972
1.687004 0.153583 6.127066
1.521482 0.113287 7.169575
1.051762 -0.014885 7.792385
1.883833 0.414717 -0.923952
1.485947 0.254358 0.213684
1.795575 0.391692 1.358256
1.759830 0.385023 2.712288
1.703698 0.368048 3.786622
1.713503 0.379200 4.923580
1.679261 0.370759 5.888679
1.687172 0.379147 6.707251
1.598478 0.419861 -0.643415
1.307566 0.279469 0.408328
1.706043 0.497606 3.014570
1.541197 0.421211 4.105254
1.711829 0.513587 5.059598
1.589432 0.459254 6.243843
1.529182 0.433964 7.054778
0.963979 0.153464 7.886406
1.497856 0.588550 -0.544833
1.458442 0.569049 0.468676
1.671558 0.722195 1.940848
1.689876 0.741765 3.001155
1.484071 0.611439 4.139653
1.644103 0.725702 5.137880
1.518430 0.649311 6.298178
1.466235 0.619098 7.000710
0.920479 0.258407 7.820304
1.495316 0.756320 -0.592092
1.488783 0.759292 0.532600
1.693450 0.934601 2.037694
1.673071 0.926498 3.168031
1.545643 0.831583 4.179368
1.495541 0.799576 5.304029
1.571048 0.866033 6.103109
1.383141 0.722510 7.106934
0.898763 0.339167 7.863967
1.431347 0.929394 -0.551201
1.807249 1.326560 2.594184
1.646567 1.172641 3.227684
1.395530 0.933939 4.438131
1.427128 0.972878 5.395269
1.445991 0.998500 6.263523
1.271312 0.833000 7.180021
0.788224 0.360255 7.837864
1.395362 1.132262 -2.116729
1.451609 1.210777 -0.954791
1.230691 0.951974 0.022517
1.476480 1.274501 2.800893
1.294360 1.061681 3.666002
1.206263 0.964256 4.701634
1.306124 1.095607 5.865411
1.318808 1.118502 6.707251
1.115902 1.018199 -1.632458
1.203601 1.159430 -0.463164
1.595203 1.765205 2.309734
1.311365 1.354755 3.119349
0.818511 0.632909 3.624481
1.197338 1.219326 6.346624
1.065824 1.034436 7.242730
0.795089 0.640218 7.747420
1.104916 1.335451 -0.217012
1.240759 1.618409 2.190083
0.972908 1.129212 3.135621
0.767718 0.753583 3.787534
1.063635 1.337556 6.346624
0.969081 1.170899 7.180021
0.665484 0.611175 7.817824
1.070603 1.671358 -1.995527
1.029257 1.588200 -0.836168
0.829528 1.114522 -0.040656
1.092863 1.799833 2.969272
0.880900 1.293385 3.562670
0.837232 1.201312 4.503763
0.903867 1.382160 5.761827
0.893202 1.373536 6.917348
0.768582 1.079823 7.536128
0.968432 1.912772 -2.035318
0.869618 1.616636 -0.964913
0.758606 1.409123 6.784226
0.634519 1.367306 -1.346318
0.677240 1.612563 -0.155588
0.518712 0.918717 2.956162
0.506939 0.893349 4.098254
0.622837 1.537271 6.582116
0.596398 1.431020 7.430897
0.412224 0.531918 7.807337
0.550491 1.831019 -2.141886
0.544771 1.833129 -1.104562
0.505618 1.520073 -0.040078
0.510382 1.693308 2.321293
0.449953 1.170332 3.230851
0.412513 0.850073 3.863508
0.473276 1.581866 6.744621
0.355639 1.662760 -1.835805
0.349212 1.691478 -0.700951
0.334375 2.246217 2.032144
0.327981 1.732534 3.035326
0.323657 1.295959 3.693047
0.318174 0.736732 4.525706
0.305024 1.676595 7.052171
0.299527 1.101043 7.883508
0.170568 1.667152 -1.804597
0.159018 1.707068 -0.561597
0.076940 2.307031 2.151497
0.123197 1.848812 2.945680
0.178937 1.298323 3.870410
0.125788 1.652690 6.287769
0.119109 1.670716 7.104169
0.175490 1.130358 7.721146
0.067295 1.438773 -1.621663
-0.003210 1.748768 -0.320040
-0.090434 2.099099 2.448991
0.008559 1.592460 3.114709
0.137191 0.940355 3.762240
-0.021090 1.642680 6.461063
0.003059 1.497609 7.373462
0.108374 0.965457 7.842763
-0.209387 1.871615 -1.907929
-0.230027 1.918601 -0.887868
-0.354197 2.262040 2.091845
-0.201043 1.756483 2.673641
-0.022379 1.166414 3.367804
-0.201787 1.694695 6.007909
-0.181360 1.610649 6.948597
-0.069033 1.233525 7.704342
-0.314214 1.581643 -2.478396
-0.281016 1.487502 -1.071259
-0.336325 1.592965 0.257106
-0.377610 1.655230 2.425181
-0.179096 1.201021 3.066970
-0.455038 1.781197 5.833997
-0.397062 1.639302 6.682188
-0.448991 1.563081 -2.258576
-0.515045 1.669576 -1.052345
-0.406800 1.456123 0.249520
-0.568824 1.721873 2.827206
-0.226535 1.089976 3.316063
-0.627052 1.791565 5.927048
-0.510112 1.564870 7.004627
-0.384687 1.327943 7.636829
-0.642449 1.563589 -2.101640
-0.682473 1.608491 -0.768203
-0.489696 1.316662 0.313911
-0.524242 1.354411 1.564731
-0.610883 1.470435 2.581381
-0.321204 1.038637 3.539864
-0.808202 1.723418 6.014863
-0.674475 1.518342 7.027416
-0.377637 1.077685 7.829411
-0.698863 1.366220 -1.783639
-0.829676 1.509298 -0.571991
-0.743958 1.398159 0.611522
-0.796389 1.449012 1.835907
-0.623838 1.238919 2.667801
-1.027788 1.688668 5.508131
-0.904840 1.535320 6.515993
-0.818331 1.428029 7.156207
-0.425625 0.959982 7.900750
-0.910581 1.344462 -1.134411
-0.909394 1.333903 0.067559
-0.907401 1.321625 1.391204
-0.866077 1.274247 2.437597
-0.721903 1.130318 3.366116
-1.246913 1.607695 5.940009
-0.969733 1.337914 6.842441
-0.684394 1.060705 7.705801
-1.094265 1.306829 -2.158980
-1.150873 1.341528 -0.835455
-1.020444 1.232248 0.170521
-1.066473 1.259282 1.409907
-0.890242 1.114385 2.387706
-0.826242 1.056602 3.456611
-1.162039 1.307177 5.121868
-1.393403 1.481495 6.037960
-1.076575 1.227276 6.927763
-0.799766 1.005468 7.663740
-1.045110 1.073493 -1.455432
-0.996748 1.033372 -0.021145
-1.132310 1.111686 1.030227
-1.024462 1.035507 2.254636
-0.951695 0.983993 3.097601
-1.495208 1.307329 5.924466
-1.397954 1.240430 6.761734
-1.062342 1.023239 7.620647
-0.309033 0.547544 7.794453
-1.287281 1.028436 -0.349518
-1.086903 0.921376 0.749216
-1.121421 0.930704 1.991158
-1.112602 0.918834 3.163587
-1.308431 1.008531 4.435096
-1.580200 1.136178 5.702149
-1.507078 1.093470 6.674507
-1.210816 0.940508 7.462218
-0.494838 0.580256 7.887619
-1.685288 1.023095 -2.334042
-1.490861 0.941360 -1.073112
-1.530529 0.947755 0.355993
-1.733161 1.017953 1.500235
-1.384463 0.878451 2.599221
-1.270100 0.829676 3.455386
-1.431083 0.883029 4.760669
-1.691758 0.975167 5.932192
-1.518574 0.903673 6.840347
-1.473979 0.756851 -1.700507
-1.885274 0.849323 1.164786
-1.883233 0.841912 2.329941
-1.651184 0.775805 3.077338
-1.097747 0.624337 3.808652
-1.813522 0.798984 6.467799
-1.520708 0.716543 7.245150
-0.735826 0.504024 7.893384
-1.763439 0.627668 1.225388
-1.643612 0.596802 3.191449
-1.060905 0.497214 4.001241
-1.874599 0.615144 6.532080
-1.520285 0.552655 7.359667
-0.711639 0.418315 7.814206
-1.932397 0.475238 -1.922727
-1.611746 0.450401 -1.077779
-2.208600 0.470044 2.007397
-1.844087 0.443064 2.748132
-1.363059 0.408168 3.601851
-1.562525 0.414740 4.631520
-1.750796 0.418151 6.092739
-1.755733 0.413990 6.875682
-1.606468 0.306281 -1.632852
-2.353386 0.268596 1.214637
-2.156826 0.268051 2.301047
-1.942167 0.269688 3.095706
-1.328786 0.282542 3.932107
-1.588645 0.268629 5.063559
-1.821192 0.255069 6.270616
-1.536228 0.257009 7.366522
-0.997338 0.268956 7.986640
-1.829318 0.111224 -2.398195
-1.840899 0.103788 -1.378681
-2.169239 0.044363 1.192998
-1.780442 0.090854 2.300539
-1.787588 0.084859 3.174264
-1.054382 0.180694 3.843361
-2.045919 0.030023 6.603345
-1.723427 0.069167 7.420782
-0.773042 0.195182 7.976197
-1.921932 -0.096938 -0.877532
-2.076251 -0.179456 6.984242
-1.918672 -0.272471 -1.897163
-1.834862 -0.251448 -0.701946
-1.947613 -0.304250 1.769129
-1.473796 -0.150392 2.703053
-1.829026 -0.278758 4.168263
-1.542154 -0.187020 4.969073
-1.786928 -0.282620 7.167888
-1.290566 -0.118415 7.642719
-1.924434 -0.498275 -1.161378
-2.234407 -0.664039 2.596147
-1.791052 -0.465082 3.306159
-1.106767 -0.155176 3.950222
-1.890985 -0.531553 6.596344
-1.507733 -0.362238 7.635990
-0.797914 -0.038030 7.867441
-1.688735 -0.672152 -1.825069
-1.715744 -0.697256 -0.701946
-2.198697 -1.030126 2.283361
-1.781638 -0.766501 3.216675
-1.486335 -0.580472 3.970677
-1.546552 -0.626230 4.969834
-1.732991 -0.755472 6.231617
-1.651639 -0.709309 7.188624
-1.139720 -0.381877 7.767526
-1.471580 -0.733183 -1.523695
-1.644580 -0.884318 0.099056
-2.014667 -1.200354 2.575704
-1.681467 -0.937951 3.372192
-1.035396 -0.422416 3.995387
-1.538132 -0.846256 6.611616
-1.394782 -0.736863 7.432641
-0.852356 -0.302625 7.763485
-1.696223 -1.105972 -1.047818
-1.883911 -1.310316 2.692265
-1.491613 -0.950232 3.475551
-1.403324 -0.875994 4.524403
-1.558022 -1.030964 5.880542
-1.583486 -1.062635 6.894568
-1.333588 -0.834823 7.594251
-0.695510 -0.241916 7.940946
-1.339793 -0.966214 -0.148922
-1.797038 -1.494274 2.630899
-1.370250 -1.029741 3.378602
-1.354680 -1.020148 4.272881
-1.413273 -1.096697 5.675955
-1.442792 -1.136429 6.520522
-1.282499 -0.966874 7.380509
-0.755138 -0.389646 7.924105
-1.421551 -1.362223 -0.975602
-1.170205 -1.027844 0.186851
-1.508657 -1.519286 2.872887
-1.222605 -1.133704 3.676408
-1.192966 -1.102528 4.665706
-1.319019 -1.288039 5.921958
-1.312863 -1.288211 6.813504
-1.036960 -0.916253 7.582834
-0.460106 -0.126778 7.973804
-1.242047 -1.406833 -0.815473
-1.067229 -1.125362 0.279373
-1.245262 -1.454091 2.942777
-1.170234 -1.338374 3.869254
-1.276392 -1.527868 4.871880
-1.204265 -1.419150 5.989131
-1.126519 -1.297869 6.825770
-0.898945 -0.923106 7.501468
-1.063038 -1.448546 -0.629396
-1.006510 -1.343594 0.522195
-1.085538 -1.532713 2.074999
-1.059889 -1.492593 3.157129
-0.987037 -1.350414 4.125104
-1.046234 -1.491424 5.239621
-1.031151 -1.471465 6.147013
-0.938224 -1.288343 7.249976
-0.733618 -0.860643 7.850518
-0.889090 -1.501608 -0.438329
-0.829246 -1.353084 0.902683
-0.879508 -1.520674 2.251212
-0.963041 -1.777308 3.227684
-0.928497 -1.696171 4.267226
-0.863904 -1.531906 5.486378
-0.871001 -1.568045 6.397337
-0.778518 -1.316757 7.213182
-0.524879 -0.601124 7.921830
-0.725323 -1.509659 -0.344764
-0.734869 -1.573450 0.694499
-0.742155 -1.632887 1.936801
-0.786158 -1.840744 3.123770
-0.773541 -1.820487 4.427923
-0.730952 -1.670687 5.426842
-0.739803 -1.726533 6.252309
-0.656897 -1.411435 7.215010
-0.527862 -0.898200 7.759326
-0.614014 -1.794950 -0.882593
-0.579879 -1.597524 0.035155
-0.567923 -1.567246 1.343280
-0.592927 -1.789166 2.633223
-0.599723 -1.881366 3.793030
-0.593283 -1.874033 4.725481
-0.572143 -1.767942 5.704531
-0.539949 -1.594275 6.888149
-0.496453 -1.321940 7.530432
-0.354160 -0.364892 7.953242
-0.425950 -1.733694 -0.655063
-0.417640 -1.670268 0.296133
-0.412691 -1.713344 1.507666
-0.406008 -1.751455 2.983449
-0.411235 -1.981177 3.899632
-0.397866 -1.822688 4.979591
-0.391281 -1.807103 6.009839
-0.374319 -1.566806 7.067126
-0.354625 -1.197608 7.575085
-0.260176 -1.556492 -0.503119
-0.252239 -1.583456 0.626345
-0.244009 -1.597375 1.933629
-0.225205 -1.809786 3.167492
-0.214579 -1.876308 4.384164
-0.209001 -1.881337 5.312956
-0.208631 -1.787471 6.288973
-0.212958 -1.630046 7.058646
-0.243387 -1.007335 7.769908
-0.088667 -1.590953 -0.441456
-0.088092 -1.553125 0.735032
-0.077902 -1.578850 1.767822
-0.044452 -1.734809 3.121999
0.001399 -1.974185 4.249831
-0.026908 -1.758506 5.486378
-0.013078 -1.811750 6.366232
-0.049288 -1.560072 7.258579
-0.145963 -0.948652 7.918211
0.009400 -1.386554 0.088144
0.076294 -1.609855 1.507788
0.118398 -1.741555 2.795308
0.124659 -1.735887 4.110676
0.145225 -1.791264 5.137880
0.133392 -1.721869 6.217290
0.130088 -1.693681 6.910988
0.003347 -1.194096 7.626244
0.238045 -1.591307 -0.462309
0.202699 -1.476886 0.910770
0.182814 -1.410249 1.825258
0.325808 -1.740666 4.570670
0.338703 -1.759921 5.478678
0.323977 -1.705925 6.446949
0.216409 -1.408308 7.455468
0.001851 -0.839827 7.891038
0.465672 -1.726207 -0.902705
0.328140 -1.434874 0.137474
0.345520 -1.454106 1.374779
0.427603 -1.604678 2.567985
0.513673 -1.764272 3.686269
0.524941 -1.771874 4.867219
0.498828 -1.705345 5.937668
0.456765 -1.607851 6.908955
0.524357 -1.500672 -0.477497
0.475724 -1.407683 0.875154
0.435543 -1.332819 1.810901
0.676834 -1.692745 4.487706
0.636016 -1.615249 5.572091
0.649247 -1.626870 6.469974
0.476009 -1.336931 7.465941
0.172575 -0.843804 7.848495
0.699326 -1.478871 -0.906724
0.584305 -1.320552 0.050714
0.647902 -1.392128 1.230698
0.750262 -1.512965 2.526365
0.790986 -1.553666 3.831484
0.827333 -1.591254 4.861320
0.779594 -1.517630 6.106272
0.757581 -1.480945 6.973399
0.895532 -1.425542 -0.969186
0.705997 -1.220778 0.138996
0.687519 -1.190875 1.460965
0.921365 -1.423676 2.515965
1.027775 -1.523592 3.731116
0.997356 -1.482846 4.871693
0.963146 -1.437756 6.064705
0.932370 -1.398795 6.942186
0.819495 -1.153875 -0.283549
0.836099 -1.159103 0.912791
0.706275 -1.038791 2.158286
1.154428 -1.404016 4.542613
1.098760 -1.349123 5.517528
1.020785 -1.273771 6.677954
0.874895 -1.142658 7.532060
0.267726 -0.620422 7.960182
0.993787 -1.124608 -0.563892
0.908926 -1.054985 0.837290
0.890246 -1.035861 1.690485
1.230369 -1.255540 4.591429
1.221339 -1.242406 5.561705
1.259798 -1.263941 6.363909
1.040707 -1.102963 7.288103
0.488337 -0.709446 7.848495
1.125157 -1.001295 -0.775935
1.039070 -0.947297 0.396044
1.007074 -0.922789 1.517390
1.464377 -1.152317 4.147555
1.346889 -1.082754 5.108677
1.317634 -1.059402 6.279657
1.273373 -1.030430 7.069059
0.681707 -0.706218 7.875808
1.112186 -0.858899 0.020762
1.132248 -0.860449 1.178663
1.278118 -0.915413 2.567253
1.523435 -1.015343 3.696630
1.458020 -0.980092 4.779858
1.367502 -0.933366 5.948630
1.483753 -0.979241 6.721937
1.411264 -0.811542 -0.896306
1.146193 -0.720785 0.258782
1.121172 -0.705247 1.534438
1.478172 -0.811444 2.662421
1.650258 -0.858344 3.924021
1.523743 -0.811508 5.064307
1.462978 -0.785887 6.135112
1.475541 -0.785238 6.908955
0.989844 -0.627051 7.668407
1.335836 -0.639802 -0.496426
1.332008 -0.631883 0.722088
1.203726 -0.598578 1.721968
1.674747 -0.683500 4.463875
1.633030 -0.669500 5.332963
1.579582 -0.652146 6.346624
1.378638 -0.603495 7.309001
0.628313 -0.438827 7.985764
1.403542 -0.512087 -0.718863
1.323543 -0.496480 0.385564
1.324983 -0.490050 1.535815
1.513185 -0.504367 2.843128
1.622597 -0.509422 4.173027
1.632754 -0.505055 5.139853
1.597821 -0.495417 6.114299
1.433219 -0.470106 7.200918
1.088949 -0.426900 7.776669
1.354780 -0.373143 0.020762
1.336355 -0.365836 1.231069
1.432726 -0.362330 2.223247
1.544108 -0.357615 3.486304
1.652283 -0.352570 4.794784
1.657581 -0.347030 5.787640
1.680576 -0.341876 6.782107
1.326570 -0.329244 7.614295
0.377759 -0.306172 7.952305
1.641009 -0.221508 -0.524816
1.453715 -0.228441 0.768222
1.553197 -0.215265 1.742967
1.725104 -0.194758 3.031709
1.765562 -0.183440 4.471156
1.783791 -0.177924 5.192549
1.610773 -0.184539 6.350251
1.504834 -0.187281 7.288103
0.904838 -0.229564 7.917005
1.576859 -0.055899 -0.420595
1.643586 -0.037896 0.528142
1.565702 -0.045185 1.788689
1.811744 0.007726 2.962712
1.937493 0.038016 4.123087
1.706517 0.001201 5.238925
1.648486 -0.003219 6.352494
1.597333 -0.008229 7.141995
1.031381 -0.110959 7.715667
1.567506 0.089687 -0.410161
1.440535 0.060557 0.810087
1.482697 0.080943 2.212788
1.727256 0.157968 3.392464
1.781328 0.180251 4.539545
1.702710 0.163254 5.470678
1.709561 0.170605 6.380083
1.404893 0.089917 7.486894
0.821203 -0.074973 7.868595
1.560738 0.256351 -0.302126
1.372038 0.188282 0.975673
1.571738 0.277367 2.399605
1.747146 0.355796 3.679461
1.821956 0.390748 4.470104
1.716220 0.354513 5.496759
1.669064 0.342028 6.553087
1.423599 0.247959 7.315962
0.571598 -0.091217 7.901550
1.595179 0.461366 -0.653826
1.418236 0.372804 0.312265
1.713517 0.539816 1.673716
1.707824 0.544422 2.858314
1.571573 0.478426 3.942615
1.629027 0.516948 5.139853
1.674095 0.546738 6.012783
1.614547 0.520986 6.965002
1.178541 0.292072 7.692364
1.488597 0.568396 -0.441456
1.454945 0.553346 0.607137
1.614577 0.668811 2.090102
1.550088 0.633011 3.080106
1.504729 0.609485 4.018723
1.618821 0.693142 5.244429
1.592982 0.682660 6.206902
1.386795 0.554260 7.329906
0.862667 0.211558 7.795352
1.487452 0.780755 -0.638563
1.289711 0.624837 0.400419
1.719441 0.999661 3.009403
1.464000 0.796982 4.180282
1.552091 0.876768 5.114308
1.500665 0.842454 6.227680
1.399936 0.765156 7.044351
0.974852 0.417717 7.619089
1.320023 0.864377 -0.420595
1.762388 1.344142 2.500013
1.447794 1.027470 3.420189
0.216971 -0.207564 7.499791
1.362237 1.123752 -1.918926
1.322675 1.085989 -0.680163
1.173160 0.908461 0.162886
1.575053 1.430555 2.848445
1.108499 0.858621 3.497823
1.301853 1.121555 6.085485
1.291592 1.115747 6.846557
0.947313 0.697210 7.712006
1.227198 1.234752 -1.326736
1.252738 1.287867 0.028409
1.361535 1.482420 2.753130
1.223047 1.277429 3.385566
1.094424 1.093117 4.557223
1.206299 1.274262 5.540938
1.150157 1.199779 6.625897
0.958104 0.915846 7.536128
0.495213 0.211213 7.779492
1.083385 1.282164 -1.768158
1.111181 1.347431 -0.685655
1.258041 1.657629 2.173582
1.057071 1.290547 3.000120
0.913411 1.030803 3.810523
1.051377 1.320244 6.333946
0.995455 1.224298 7.075636
0.709068 0.695706 7.800372
1.026860 1.569490 -2.017229
1.002764 1.529714 -0.753334
0.759006 0.946017 -0.046393
1.105634 1.834289 2.827890
0.924476 1.403003 3.520648
0.865266 1.274361 4.567664
0.910466 1.404827 5.917410
0.890753 1.372587 6.971411
0.848116 1.647950 -1.949723
0.846566 1.665968 -0.805122
0.662046 1.048858 0.040546
0.870605 1.826280 3.002854
0.731288 1.361220 3.684069
0.663765 1.148468 4.634354
0.711315 1.332881 5.661030
0.738949 1.448837 6.688370
0.642663 1.488831 -1.695265
0.646060 1.541654 -0.545634
0.714895 2.015177 3.142524
0.620905 1.555880 4.259367
0.614510 1.584829 6.313149
0.587042 1.466850 7.173277
0.495693 1.002405 7.665565
0.506345 1.834145 -1.213079
0.478111 1.573074 -0.138509
0.455518 1.473991 2.346576
0.413900 1.040798 3.214630
0.399662 0.922168 3.949198
0.439062 1.572170 6.677954
0.418404 1.375505 7.380489
0.338249 0.454542 7.769814
0.320604 1.841795 -1.850820
0.316120 1.746159 -0.763260
0.315059 1.486451 0.239069
0.289692 2.015904 3.027240
0.274713 1.577484 7.033927
0.278216 1.158954 7.734504
0.145763 1.869891 -2.017229
0.127985 1.977425 -1.032349
0.176418 1.502065 -0.125764
0.121700 1.846536 2.639748
0.170106 1.384829 3.282193
0.227000 0.850208 3.879051
0.128115 1.577472 6.815507
-0.068347 1.961453 -1.928152
-0.046004 1.828508 -0.753334
-0.082458 1.901782 2.737789
0.013453 1.449209 3.334110
0.144711 0.827845 4.225239
-0.033290 1.566163 6.944659
-0.169015 1.637305 -1.726518
-0.175669 1.634591 -0.467955
-0.395692 2.253677 2.137028
-0.188304 1.609338 3.027792
-0.002532 1.034990 3.669821
-0.265593 1.786147 6.180528
-0.222339 1.638578 7.091821
-0.020589 1.012441 7.920663
-0.305370 1.571378 -1.507962
-0.321874 1.592129 -0.318267
-0.499457 1.959824 2.301260
-0.275417 1.437286 3.132187
-0.161637 1.166363 3.945565
-0.411759 1.697850 6.676092
-0.340513 1.525785 7.356086
-0.015775 0.776068 8.018813
-0.543863 1.682868 -1.882478
-0.475441 1.545331 -0.472732
-0.708084 1.926282 2.214767
-0.544373 1.628033 2.927321
-0.201137 1.014064 3.442947
-0.562229 1.620160 6.336231
-0.570796 1.626271 7.118473
-0.300831 1.138175 7.971830
-0.647844 1.536923 -1.674503
-0.599566 1.455228 -0.374136
-0.785115 1.693902 2.221573
-0.549300 1.350965 2.916033
-0.478713 1.238437 4.119627
-0.777331 1.651999 5.328089
-0.736281 1.580565 6.632382
-0.620931 1.408057 7.451776
-0.277233 0.914076 7.874572
-0.786869 1.445946 -1.966152
-0.805947 1.455478 -0.535226
-0.747003 1.379301 0.422494
-0.706447 1.320632 1.801675
-0.649827 1.247408 2.727319
-0.589875 1.169244 3.780194
-0.831523 1.434898 5.223066
-1.003090 1.623917 6.200592
-0.841536 1.428498 7.286770
-0.585060 1.128842 7.792837
-0.868824 1.291702 -1.289540
-0.851841 1.265270 0.064290
-0.926107 1.325498 1.243214
-0.997733 1.383670 2.369368
-0.800171 1.192367 3.219331
-1.219948 1.564008 5.880579
-1.069915 1.415597 6.927542
-0.979382 1.183828 0.007503
-1.125091 1.288323 1.026535
-1.174337 1.317720 2.195386
-0.901012 1.100799 3.195004
-1.306232 1.394011 5.665798
-1.132247 1.253590 6.628045
-1.028131 1.168004 7.420460
-0.344852 0.640566 7.853386
-1.208123 1.154718 -0.463164
-1.131724 1.098729 0.831488
-1.244543 1.160591 2.026264
-1.059600 1.038553 3.146078
-1.187413 1.109089 4.432073
-1.438926 1.256583 5.665798
-1.388864 1.219991 6.499807
-1.173002 1.080268 7.401357
-0.566191 0.700227 8.034949
-1.428290 1.086386 -2.153241
-1.347524 1.039158 -0.871107
-1.195413 0.959641 0.053843
-1.253333 0.979383 1.366217
-1.179073 0.936309 2.489833
-0.874042 0.782815 3.402616
-1.578065 1.105615 6.267494
-1.439436 1.033962 6.981484
-0.963948 0.799324 7.672771
-1.568840 0.963431 -2.408556
-1.421387 0.901123 -1.171050
-1.390810 0.883769 -0.184849
-1.291018 0.839422 1.011310
-1.293101 0.832571 2.265934
-1.139561 0.769431 3.268376
-1.719744 0.968730 5.945105
-1.661794 0.942675 6.689324
-1.238716 0.779694 7.641568
-0.453986 0.485732 8.036024
-1.854604 0.844743 -2.140570
-1.695576 0.796176 -0.851550
-1.858920 0.823875 1.595612
-1.489081 0.723315 2.487608
-1.240623 0.653340 3.497823
-1.543034 0.724615 4.629981
-1.801030 0.782412 6.107608
-1.697506 0.750872 6.933819
-2.082104 0.654783 1.344390
-1.460989 0.544100 4.212664
-0.191310 0.331879 7.640229
-1.838133 0.446237 -1.918276
-2.390048 0.450631 2.148163
-1.908294 0.421342 3.061015
-1.243684 0.384730 3.655245
-1.853790 0.400591 6.221274
-1.618462 0.383673 7.124979
-1.205245 0.359953 7.662251
-1.712136 0.270086 -1.638122
-2.341426 0.222346 1.406567
-2.270953 0.220294 2.362708
-1.869961 0.234306 3.299387
-1.346974 0.256317 3.866077
-1.563226 0.238499 5.160124
-1.908641 0.215452 6.277829
-1.564310 0.226100 7.324790
-1.055216 0.248059 7.783139
-2.011283 0.060394 -1.990069
-1.990746 0.057296 -0.924077
-2.443305 -0.025583 1.832160
-2.110326 0.018985 2.654058
-1.520549 0.101492 3.490058
-0.995283 0.176939 3.893355
-1.907908 0.025405 6.743252
-1.748669 -0.056508 -1.658897
-2.255804 -0.194190 1.105246
-2.074760 -0.158607 2.434684
-1.901458 -0.121711 3.223372
-1.162707 0.051175 3.921508
-1.915470 -0.143534 6.375659
-1.693371 -0.096755 7.472750
-1.038373 0.057843 7.867738
-2.458110 -0.527057 1.479257
-1.948639 -0.349495 2.363147
-1.537024 -0.207464 3.312875
-1.265427 -0.113437 3.888383
-1.908737 -0.360125 6.486085
-1.645234 -0.271808 7.524757
-0.838925 0.015131 7.945379
-1.807449 -0.469008 -2.006877
-1.834332 -0.490188 -0.681635
-2.140540 -0.653040 1.992889
-1.751416 -0.472520 2.782005
-1.558854 -0.386107 3.635196
-0.646980 0.046285 4.001256
-1.765363 -0.505907 7.018758
-1.317022 -0.296134 7.645769
-1.781349 -0.667694 -1.892210
-1.751949 -0.657878 -0.686618
-2.116024 -0.897077 2.036413
-1.705259 -0.653413 2.896830
-1.779932 -0.705642 3.930724
-1.593907 -0.607850 6.204553
-1.703609 -0.680242 7.072607
-1.230116 -0.397637 7.804785
-1.817313 -0.953007 -0.759407
-2.241431 -1.297043 1.969410
-1.839081 -0.996553 2.989847
-1.571835 -0.795983 3.530897
-0.869785 -0.262712 4.063054
-1.631163 -0.865542 6.900638
-1.308282 -0.623295 7.565093
-1.487763 -0.918904 -1.135129
-2.117549 -1.534237 1.848804
-1.859193 -1.297944 2.688237
-1.508359 -0.975044 3.568901
-1.063729 -0.562607 4.274495
-1.520287 -1.010260 6.638988
-1.281884 -0.793767 7.611818
-0.674445 -0.225336 7.939871
-1.512463 -1.220877 -0.862129
-1.869847 -1.661378 2.136445
-1.670145 -1.436248 2.870426
-1.366998 -1.089549 3.416710
-1.246354 -0.959260 4.515477
-1.484657 -1.246843 5.810753
-1.427487 -1.189887 6.879929
-1.145464 -0.869072 7.586029
-0.491573 -0.113780 7.909326
-1.289988 -1.197958 -0.294482
-1.650820 -1.725084 2.514421
-1.255952 -1.186361 3.357818
-1.177608 -1.087735 4.373924
-1.315604 -1.290209 5.538564
-1.268480 -1.234653 6.536744
-1.193004 -1.137088 7.253680
-0.744582 -0.521365 7.807205
-1.251406 -1.496335 -0.790022
-1.134396 -1.306482 0.577216
-1.327668 -1.660745 1.850198
-1.322928 -1.664950 2.938424
-1.212227 -1.480835 3.841255
-1.205851 -1.481909 4.907175
-1.187669 -1.461439 5.903800
-1.080739 -1.287257 7.093766
-0.916277 -1.005017 7.678780
-1.046266 -1.494128 -0.624471
-0.930108 -1.248124 0.397172
-1.122452 -1.711972 2.746696
-1.005760 -1.464929 3.779580
-1.015671 -1.505689 5.106777
-1.004243 -1.493865 6.092739
-0.988256 -1.467737 6.786340
-0.773633 -0.998906 7.651732
-0.894422 -1.567395 -0.639767
-0.872820 -1.523660 0.500008
-0.926823 -1.709396 1.936506
-0.901348 -1.655747 3.164384
-0.904760 -1.680507 3.985772
-0.901948 -1.691753 5.084368
-0.865042 -1.602276 6.203663
-0.803400 -1.436482 7.156207
-0.619760 -0.902766 7.762005
-0.723867 -1.696992 -0.774055
-0.678829 -1.519253 0.333185
-0.708179 -1.686890 1.540977
