-0.561612 -1.175797 4.139890
-0.321452 -0.761483 4.498007
-0.151201 -0.467753 4.800931
-0.116435 -0.407494 5.537416
-0.164810 -0.490786 5.855965
-0.010126 -0.224040 5.826899
0.071404 -0.083371 5.986479
0.137864 0.031534 6.694561
0.044232 -0.129771 7.099350
-0.293438 -0.825751 0.326788
-0.824273 -1.892293 3.434261
-0.763185 -1.769254 3.725987
-0.708665 -1.659552 3.752663
-0.586103 -1.412799 4.120165
-0.479793 -1.198889 4.166788
-0.351367 -0.940432 4.331404
-0.253696 -0.743804 4.597116
-0.137109 -0.508933 5.256942
-0.095109 -0.424316 5.506842
-0.077007 -0.387710 5.910317
0.079163 -0.073466 6.002921
0.081242 -0.069278 6.016313
0.029745 -0.172456 6.936354
-0.097487 -0.428235 7.365051
-0.166932 -0.567531 8.268362
-0.280489 -0.940371 0.343588
-0.024329 -0.329135 0.295396
-0.609270 -1.723498 3.004436
-0.613861 -1.734218 3.441026
-0.560859 -1.607585 3.735311
-0.548639 -1.578387 3.804430
-0.432858 -1.301877 4.231556
-0.331035 -1.058844 4.337776
-0.201461 -0.749495 4.621117
-0.127061 -0.571701 5.102727
-0.109231 -0.528937 5.504164
-0.101899 -0.511259 5.845808
-0.027537 -0.333841 5.789674
-0.185519 -0.710312 6.750792
-0.176956 -0.689666 7.145095
-0.470186 -1.688047 2.932001
-0.465147 -1.673075 3.425559
-0.492740 -1.753293 3.480115
-0.415114 -1.527192 4.000537
-0.334831 -1.293495 4.314538
-0.249378 -1.044894 4.420912
-0.201898 -0.906745 4.510496
-0.131237 -0.701064 4.776992
-0.114588 -0.652386 5.178528
-0.114194 -0.651059 5.461802
0.021488 -0.256272 5.725636
-0.153722 -0.765086 6.929492
-0.147300 -0.746159 7.323310
-0.179542 -0.839699 7.685987
-0.039094 -0.542728 0.108820
0.107495 -0.004011 0.283990
-0.317173 -1.561927 3.260329
-0.328263 -1.602368 3.641976
-0.279481 -1.422815 4.053233
-0.251721 -1.320633 4.295292
-0.195449 -1.113892 4.287227
-0.131344 -0.878108 4.610134
-0.074400 -0.668678 4.878816
-0.055325 -0.598233 5.340814
-0.053947 -0.593156 5.354623
0.031400 -0.279350 5.654320
-0.119206 -0.831825 6.745462
-0.152917 -0.955484 6.996235
-0.152600 -0.954058 7.330707
-0.157947 -0.973485 7.605998
-0.041102 -0.543825 8.062931
-0.049110 -0.764592 0.319603
0.037993 -0.337611 0.482039
-0.217799 -1.588627 2.782154
-0.221445 -1.605811 3.436636
-0.196756 -1.484304 3.946807
-0.182354 -1.413823 3.862869
-0.122559 -1.120375 4.296250
-0.088229 -0.951997 4.445293
-0.039665 -0.713413 5.043656
0.007332 -0.482779 5.375658
-0.000537 -0.521446 5.271944
0.031459 -0.364217 5.701391
0.051381 -0.265992 6.285317
-0.057236 -0.797947 6.552282
-0.082695 -0.922101 7.127076
-0.093619 -0.975464 7.286456
-0.080416 -0.910184 7.851750
-0.018064 -0.604272 8.220260
-0.026732 -0.963466 0.374224
0.029391 -0.554796 0.699623
-0.114078 -1.595042 2.791017
-0.115299 -1.603257 3.231747
-0.091021 -1.425735 3.855955
-0.069613 -1.269492 4.212768
-0.056327 -1.172904 4.186251
-0.045463 -1.093605 4.372779
-0.005957 -0.805617 4.813067
0.020127 -0.615587 5.024252
0.038555 -0.480587 5.663723
0.052029 -0.382623 5.642903
0.054410 -0.364784 5.987587
0.001890 -0.746127 6.401994
-0.046161 -1.094797 6.924026
-0.027977 -0.961910 7.343192
-0.022550 -0.922241 7.472919
0.015991 -0.641559 7.721550
-0.011935 -1.615698 2.757348
-0.016509 -1.678211 3.083984
-0.007266 -1.548524 3.592490
0.009653 -1.312288 4.118603
0.015377 -1.232360 4.303258
0.024462 -1.105459 4.603971
0.046652 -0.796964 4.831338
0.053691 -0.699390 4.806560
0.065283 -0.536565 5.503010
0.083200 -0.286876 5.896681
0.081228 -0.313591 6.121425
0.046481 -0.794343 6.565074
0.027681 -1.053737 7.052426
0.031450 -0.999989 7.558606
0.044226 -0.823053 7.454613
0.068196 -0.489304 7.880815
0.094738 -1.590241 2.578903
0.094971 -1.523050 3.404127
0.093749 -1.724852 3.444958
0.094942 -1.510432 3.910782
0.095673 -1.378628 4.208539
0.096913 -1.154115 4.738110
0.097767 -1.009036 4.828576
0.099055 -0.794920 4.824486
0.100218 -0.582913 5.365672
0.100366 -0.555700 5.437535
0.099846 -0.629261 5.814505
0.098537 -0.812499 6.812085
0.096749 -1.095078 7.238429
0.097251 -1.001187 7.540699
0.098147 -0.859825 7.320076
0.190226 -1.484282 3.001487
0.201835 -1.685176 3.044899
0.197092 -1.606302 3.920774
0.190869 -1.499563 4.160836
0.188197 -1.452854 4.019369
0.177725 -1.273265 4.432830
0.162291 -1.007746 4.811358
0.147181 -0.746889 4.924603
0.144168 -0.695261 5.055114
0.130801 -0.466292 5.657713
0.138836 -0.605943 5.857724
0.155890 -0.904328 6.828366
0.169867 -1.146791 7.050737
0.169636 -1.142849 7.062906
0.147818 -0.767497 7.596671
0.298336 -1.567928 2.797221
0.286200 -1.470614 3.463708
0.307702 -1.645199 3.559727
0.299076 -1.575892 3.952666
0.262668 -1.281285 4.380377
0.268101 -1.325179 4.277618
0.232330 -1.035754 4.711313
0.183231 -0.638265 5.174166
0.194051 -0.726113 5.222494
0.168276 -0.517497 5.493093
0.173444 -0.560711 6.256105
0.232528 -1.040729 6.696050
0.243514 -1.130459 7.059751
0.229528 -1.017612 7.418622
0.190559 -0.702123 7.781088
0.167120 -0.316428 0.243575
0.035997 0.370009 0.265050
0.415038 -1.617006 2.649400
0.405928 -1.569920 3.202073
0.423629 -1.662889 3.469216
0.415012 -1.618145 3.805535
0.340227 -1.227350 4.461092
0.334708 -1.198537 4.530457
0.276322 -0.893415 5.025087
0.236464 -0.685047 5.292780
0.230954 -0.655981 5.092712
0.205647 -0.524192 5.728874
0.281001 -0.919088 6.087033
0.324009 -1.145205 6.955927
0.319723 -1.122845 7.025504
0.288167 -0.958228 7.558153
0.244956 -0.732084 7.629134
0.234878 -0.473429 0.338930
0.120783 -0.046045 0.105423
0.516537 -1.530157 2.985676
0.512694 -1.516163 3.480488
0.527838 -1.572958 3.591109
0.490267 -1.432736 4.154833
0.426949 -1.195911 4.470067
0.401894 -1.102077 4.442960
0.321202 -0.800347 4.938875
0.296000 -0.705962 4.913852
0.247478 -0.524673 5.396067
0.276876 -0.635434 6.251053
0.413320 -1.146313 6.254779
0.434465 -1.226036 6.938725
0.375319 -1.004889 7.323391
0.191346 -0.244855 0.128271
-0.039120 0.452125 0.211847
0.595517 -1.469033 2.819386
0.601294 -1.486939 3.473177
0.586741 -1.443149 3.812162
0.597358 -1.475371 3.980143
0.511707 -1.216568 4.352599
0.464223 -1.073191 4.711075
0.448558 -1.025720 4.570788
0.329403 -0.665785 5.245381
0.298457 -0.572174 5.223085
0.336191 -0.686652 5.753518
0.462111 -1.067729 6.112600
0.517395 -1.235198 6.513560
0.514934 -1.227975 6.845768
0.436663 -0.991539 7.289035
0.341660 -0.704408 7.592328
0.379145 -0.659302 0.128679
0.183008 -0.173445 0.240087
0.711076 -1.483068 2.698922
0.737033 -1.547674 3.239732
0.689191 -1.429430 3.748283
0.682633 -1.413339 4.029811
0.580790 -1.161237 4.402787
0.560387 -1.110758 4.531131
0.435331 -0.801247 5.084199
0.416096 -0.753514 4.942977
0.302569 -0.472536 5.447214
0.459682 -0.861944 5.751801
0.556454 -1.102113 6.510847
0.618246 -1.255274 6.645447
0.559450 -1.109870 7.116204
0.508493 -0.983681 7.213138
0.362367 -0.621991 7.807660
0.506105 -0.809163 0.390798
0.314749 -0.411855 0.154736
0.005974 0.228945 0.401916
0.759496 -1.336439 3.147127
0.804860 -1.430830 3.628923
0.723895 -1.262969 4.040309
0.782941 -1.385501 3.980808
0.653848 -1.117750 4.410857
0.600756 -1.007564 4.442960
0.434619 -0.663038 5.115941
0.432244 -0.658116 5.129880
0.364609 -0.518058 5.824618
0.562340 -0.928728 6.332140
0.672942 -1.158537 6.821148
0.638008 -1.086140 7.064334
0.580608 -0.967195 7.481338
0.465146 -0.727623 7.669351
0.251830 -0.228930 0.073389
0.789296 -1.169013 2.949884
0.853014 -1.280499 3.377247
0.861827 -1.296077 3.815269
0.929765 -1.414730 3.756502
0.743278 -1.089213 4.355287
0.704071 -1.020800 4.540790
0.631503 -0.894071 4.630846
0.512207 -0.685812 4.955056
0.407951 -0.503916 5.495792
0.544923 -0.743238 5.614834
0.691623 -0.999774 6.262873
0.732359 -1.071221 6.948139
0.693036 -1.002630 7.191261
0.663759 -0.951565 7.377399
0.483754 -0.637186 7.534978
0.314874 -0.285197 0.121099
0.975900 -1.283137 2.991655
1.061699 -1.412666 3.360799
0.913755 -1.189775 3.940357
0.868527 -1.121639 4.124587
0.824019 -1.054586 4.309390
0.649653 -0.791819 4.802751
0.595462 -0.710087 4.778415
0.438470 -0.473502 5.223085
0.437677 -0.472413 5.507509
0.854648 -1.101660 6.659962
0.820423 -1.050235 7.162630
0.735196 -0.921766 7.317034
0.607554 -0.729301 7.385655
0.372066 -0.315500 0.209479
0.021600 0.144572 0.217701
0.974905 -1.107848 3.044438
1.118290 -1.296145 3.244585
0.963254 -1.092893 4.037858
0.944313 -1.068053 4.108525
0.866110 -0.965492 4.405925
0.763139 -0.830368 4.550932
0.561216 -0.565482 5.105889
0.558496 -0.561916 5.117312
0.376976 -0.323799 5.622587
0.512323 -0.501666 6.182054
0.780883 -0.854409 6.737668
0.893456 -1.002215 6.812644
0.778378 -0.851346 7.398808
0.782619 -0.750043 0.364692
0.416792 -0.324234 0.137426
0.040710 0.113433 0.141753
1.068896 -1.084095 3.178008
1.300613 -1.353817 3.361617
1.210908 -1.249515 3.654156
1.080664 -1.098004 3.850346
0.913876 -0.904089 4.433054
0.801254 -0.773155 4.847721
0.647007 -0.593752 5.170459
0.538952 -0.468050 5.321419
0.445925 -0.359818 5.415185
0.561330 -0.494338 6.093662
0.927118 -0.920095 6.305984
0.981631 -0.983752 6.987321
0.917287 -0.908865 6.967419
0.792139 -0.763308 7.236171
0.481743 -0.402140 7.420769
1.373692 -1.236862 2.962725
1.251797 -1.114221 3.793825
1.175708 -1.037584 4.033139
1.089573 -0.950758 4.062147
1.015231 -0.875883 4.303571
0.894701 -0.754418 4.449492
0.772817 -0.631667 4.867333
0.605911 -0.463501 5.193210
0.476959 -0.333644 5.676348
0.671809 -0.530111 5.793087
0.880153 -0.740431 6.759530
1.011125 -0.872583 7.153677
0.864383 -0.724746 7.481564
0.832373 -0.692420 7.291294
0.484450 -0.341744 7.537174
1.484996 -1.176565 3.325461
1.528062 -1.214752 3.437023
1.386517 -1.089456 3.842642
1.237618 -0.957587 4.040460
1.089812 -0.826687 4.240945
0.906744 -0.664576 4.559506
0.779673 -0.552033 4.707982
0.757294 -0.532300 5.049180
0.498973 -0.303599 5.670821
0.658207 -0.444761 5.962867
0.975930 -0.726347 6.260400
1.066044 -0.806345 6.830547
1.036225 -0.780049 7.274408
1.737634 -1.217374 3.086297
1.668418 -1.163674 3.265726
1.568040 -1.085862 3.768227
1.350598 -0.917111 4.134011
1.214775 -0.811681 4.277001
1.138582 -0.752508 4.248099
0.965203 -0.617946 4.507180
0.665149 -0.385127 5.178344
0.771393 -0.467609 5.109224
0.466497 -0.231047 5.847885
0.604001 -0.337927 6.254034
0.880410 -0.552699 6.776593
1.072299 -0.701761 6.997243
1.057353 -0.690257 7.383419
0.909196 -0.575282 7.653417
0.674685 -0.330561 0.345911
0.124794 0.042004 0.302548
-0.108244 0.199864 0.398363
1.755731 -1.063696 3.227178
1.751442 -1.060793 3.237847
1.668001 -1.004372 3.682467
1.398056 -0.821603 4.158801
0.857128 -0.455317 4.936063
0.834170 -0.439779 5.005319
0.662072 -0.323316 5.541991
0.676854 -0.333320 5.494612
0.634696 -0.304939 6.219182
0.923868 -0.500985 6.742194
1.061926 -0.594554 6.874269
1.093773 -0.616263 7.406765
1.111600 -0.628409 7.676950
1.897506 -0.988839 3.276946
1.777428 -0.918698 3.567601
1.772458 -0.915795 3.579819
1.466984 -0.737309 4.112992
3.514418 -1.934842 5.681518
0.729039 -0.306134 5.398351
0.700333 -0.289510 6.065746
0.852644 -0.378665 6.469523
0.960790 -0.442036 7.041567
1.235868 -0.602875 7.032006
1.001686 -0.466157 7.907302
0.872342 -0.390566 8.066221
-0.027103 0.130728 0.389552
2.027396 -0.898737 2.892995
1.971727 -0.870887 3.017734
1.876802 -0.823453 3.464734
1.639116 -0.704554 4.039055
0.641009 -0.205095 5.715291
0.599768 -0.184611 6.443702
0.931968 -0.351083 6.909123
1.216893 -0.493770 6.900858
1.016873 -0.393764 7.605056
1.215783 -0.493367 7.561274
-0.131194 0.169020 0.579556
2.079056 -0.764232 2.898186
2.130182 -0.785832 3.010768
1.974300 -0.720127 3.355980
1.870955 -0.676569 3.591603
0.683067 -0.175801 5.917464
0.851968 -0.247096 5.998630
0.956083 -0.291236 6.898240
1.127192 -0.363461 6.973710
1.176382 -0.384255 7.132828
1.033413 -0.324113 7.982750
0.956875 -0.291797 7.910124
-0.216773 0.186355 0.727034
2.060545 -0.607362 3.032481
1.986343 -0.581602 3.422294
0.636779 -0.112056 5.788311
0.710577 -0.137843 6.162581
1.165313 -0.296328 6.604825
1.106184 -0.275845 7.110473
1.084792 -0.268409 7.181084
1.085702 -0.268799 7.512703
1.057478 -0.183352 0.383452
0.419483 -0.007156 0.333517
0.021195 0.102761 0.667793
2.191373 -0.497010 2.834629
2.105522 -0.473340 3.012531
2.133657 -0.481146 3.179405
4.113958 -1.028494 5.402590
1.077237 -0.189838 5.165412
0.792723 -0.111566 6.550683
1.025082 -0.175781 6.775008
1.095360 -0.195279 7.196433
0.895225 -0.140082 7.527047
0.606454 -0.060403 7.833979
2.244739 -0.359508 2.782589
1.996324 -0.308048 3.295145
2.131181 -0.336031 3.240293
1.891813 -0.286450 3.755092
1.771698 -0.261521 3.782347
0.866105 -0.074137 6.658159
1.066430 -0.115727 6.677283
1.079907 -0.118583 6.952717
1.004172 -0.035553 0.302544
0.941540 -0.026845 0.820217
1.695172 -0.133212 2.148972
1.516442 -0.108126 2.501352
1.365239 -0.086858 2.582970
1.219858 -0.066455 2.882247
1.293749 -0.076971 3.425337
1.352872 -0.085418 4.020113
2.447030 -0.239700 5.250581
0.203699 0.075840 6.460287
0.384900 0.050247 6.864434
0.560376 0.025382 7.646124
1.281133 0.008640 1.030447
1.211799 0.013824 1.156441
0.785220 0.045847 1.316508
0.386273 0.075759 1.649173
3.350577 -0.147587 4.449534
3.353229 -0.147736 4.207277
3.085888 -0.127717 4.549229
2.166856 -0.058837 5.435904
1.687582 -0.022905 5.843338
2.407221 -0.077310 7.405831
2.264101 -0.066649 7.858791
3.474315 0.089800 2.852320
3.263774 0.090682 2.822696
2.886917 0.092187 3.116455
2.629846 0.093195 3.408211
2.454792 0.093896 3.539834
2.050369 0.095446 4.172659
1.979075 0.095760 4.087383
1.757914 0.096627 4.339072
1.699466 0.096789 4.728806
1.480091 0.097533 5.539132
1.388520 0.097864 5.779255
1.038671 0.099302 5.859219
1.355868 0.097662 7.408401
1.370141 0.097612 7.363018
1.157555 0.098494 7.372442
0.612809 0.100671 7.793498
2.786710 0.275270 1.386699
2.944873 0.284837 1.919002
2.674505 0.268189 2.417287
2.608632 0.264221 2.117042
2.196954 0.238910 2.686892
1.969292 0.224884 3.144175
2.134865 0.235039 3.033348
1.887030 0.219766 3.547728
1.712320 0.209046 3.686560
1.473253 0.194408 3.728966
1.098402 0.171345 4.332358
0.924005 0.160586 4.750914
2.026092 0.227872 5.489227
1.517993 0.196738 5.694387
1.021819 0.166148 6.789497
0.998435 0.164702 6.860163
0.845652 0.155253 7.338306
0.615421 0.141150 7.407896
2.218987 0.386404 1.339302
2.292565 0.395664 1.616395
2.194583 0.383218 1.795932
1.952840 0.352597 1.825718
1.567476 0.303639 2.571812
1.654158 0.314559 2.845027
1.689430 0.318945 3.229145
1.472072 0.291321 3.696929
1.427421 0.285696 3.555427
1.201331 0.257010 3.814752
0.927964 0.222312 4.193879
0.636106 0.185258 4.637526
1.464254 0.289893 5.794877
1.388327 0.280294 5.714515
1.082003 0.241386 6.266865
0.890635 0.217162 6.212459
0.786072 0.203857 6.516429
0.835860 0.210061 7.000464
0.681882 0.190528 7.157930
0.310644 0.143401 7.703261
2.069023 0.494511 1.154566
1.791907 0.442468 1.453657
1.643431 0.414648 1.313447
1.153488 0.322595 2.034897
1.410354 0.370699 2.402652
1.534560 0.393860 3.049045
1.510037 0.389200 3.333068
1.221208 0.334888 3.975375
1.100268 0.312197 4.006542
0.954500 0.284836 4.096307
0.669603 0.231361 4.265145
1.268490 0.343452 5.423314
1.256010 0.340984 6.024019
0.944236 0.282442 6.316947
0.806826 0.256647 6.414669
0.685854 0.233879 6.779878
0.830595 0.260988 6.973123
0.677322 0.232204 7.132263
0.180161 0.138816 7.770527
1.677919 0.550091 1.391766
1.301564 0.450982 1.269409
0.727713 0.299579 2.410197
1.214325 0.427685 2.746637
1.396728 0.475618 3.276990
1.186039 0.420020 3.748490
0.978578 0.365375 3.737922
0.735608 0.301305 4.060799
0.472733 0.231978 4.447370
0.372559 0.205479 4.972375
1.193103 0.421371 6.123821
0.912281 0.347286 6.652094
0.778327 0.311911 7.073647
0.645963 0.277024 7.174434
0.224870 0.166018 7.574402
-0.331736 0.019362 7.765886
1.430375 0.586491 0.965353
0.767545 0.365480 2.507298
0.989864 0.439451 2.711058
1.108664 0.478909 3.143296
1.147300 0.491687 3.529220
0.833910 0.387243 4.022852
0.741167 0.356372 3.996864
0.390193 0.239387 4.619291
0.339466 0.222470 4.751999
1.285966 0.537362 5.774565
0.927464 0.417842 6.530569
0.830402 0.385460 6.834961
0.593818 0.306597 7.286381
-0.194836 0.043878 7.991102
0.905191 0.479993 0.876494
0.581242 0.348336 2.182953
0.799975 0.436939 2.608416
0.882249 0.470240 2.884212
0.744637 0.414259 3.680990
0.775449 0.426715 3.852569
0.698752 0.395571 4.042068
1.109896 0.561880 5.891019
0.802014 0.436889 6.527272
0.725880 0.405961 6.771694
0.583082 0.347948 7.251497
0.302743 0.234199 7.559056
-0.168542 0.043017 7.879474
0.791192 0.498151 2.560216
0.608505 0.409778 2.982477
0.790459 0.497690 3.022898
0.672535 0.440588 3.544877
0.586497 0.398907 4.008779
0.446466 0.331159 4.375408
0.081833 0.154920 4.572672
0.936889 0.567825 5.718130
1.101099 0.647154 5.801456
0.728654 0.467126 6.058986
0.456831 0.335649 6.626451
0.709073 0.457509 6.734743
0.536258 0.373865 7.334140
0.295739 0.257601 7.526113
0.056358 0.141885 7.722315
-0.293375 -0.027086 7.625645
-0.808098 -0.275847 7.811588
0.715220 0.525887 2.657569
0.612440 0.467488 2.903761
0.661855 0.495510 3.017552
0.617634 0.470327 3.364586
0.497761 0.402211 3.670579
0.438832 0.368665 4.076587
0.267135 0.271155 4.287172
0.831274 0.590983 5.923524
0.836565 0.593921 6.201809
0.686831 0.508955 6.089069
0.376983 0.332978 6.506093
0.569730 0.442318 6.790186
0.503003 0.404306 7.361705
0.349164 0.317008 7.256527
0.835058 0.674208 0.383452
0.796686 0.648549 2.150095
0.843388 0.679161 2.484788
0.626642 0.536569 3.021431
0.530332 0.473206 3.269105
0.512182 0.461205 3.558773
0.420021 0.400569 3.807690
1.006762 0.785788 5.519482
0.615513 0.528308 6.834457
0.533076 0.474049 7.140741
0.481049 0.439887 7.006502
0.225887 0.272103 7.312928
0.811127 0.742907 1.789954
0.876921 0.792423 2.286064
0.685340 0.647797 2.543629
0.457727 0.475895 3.141154
0.439598 0.462140 3.430901
0.465592 0.481710 3.602369
0.430910 0.455450 3.949551
0.747288 0.693662 5.924430
0.495932 0.503763 6.834412
0.432498 0.455834 7.081184
0.323788 0.373781 7.180940
0.081487 0.190870 7.491427
-0.193374 -0.016557 7.599550
-0.599417 -0.323026 7.931346
3.834073 3.446036 4.848162
3.725650 3.352316 5.391263
3.446906 3.111520 6.245534
0.309779 0.404519 4.755192
0.661106 0.707521 5.490572
0.614247 0.666956 5.944010
0.405782 0.486828 6.739389
0.388877 0.472131 7.134766
0.204535 0.312915 7.590386
0.056710 0.185351 7.545414
-0.242826 -0.073234 7.835940
-0.755695 -0.515803 7.659153
0.931806 1.062744 0.592206
0.738699 0.872605 1.706912
3.492028 3.577976 5.177875
3.491398 3.577214 5.665641
3.373627 3.461264 6.309624
3.304389 3.393215 6.282815
0.697436 0.830953 5.464227
0.646928 0.781253 5.650903
0.455104 0.592569 6.095951
0.205651 0.347344 6.186569
0.410196 0.548192 6.903435
0.285634 0.425691 7.121810
2.962807 3.508210 5.349778
3.082534 3.643544 5.683239
3.158060 3.728906 5.923769
3.027221 3.580664 6.670632
3.165192 3.736981 5.898614
0.469092 0.687098 5.858534
0.295032 0.489861 6.932225
0.355002 0.557686 6.977337
0.156247 0.332651 7.612671
0.365872 0.635805 0.580970
1.118629 1.594386 2.322940
1.098754 1.568967 2.604836
0.790464 1.176031 2.936495
0.557117 0.878589 3.265961
0.458294 0.752711 3.135961
2.761094 3.685872 6.339506
0.266563 0.507345 6.296639
0.318980 0.574010 6.669316
0.281179 0.525670 7.184929
0.078876 0.267881 7.228727
-0.178793 -0.060560 7.577788
0.130173 0.375218 0.580214
1.129929 1.833325 3.021637
0.939600 1.555648 2.800227
0.561608 1.003851 3.265787
0.380001 0.738740 3.485300
0.273687 0.583616 3.415736
2.361006 3.628633 6.492521
0.379726 0.737573 5.577162
0.171219 0.432784 6.943434
0.255436 0.555617 7.135226
0.168023 0.427991 7.295849
-0.091469 0.049250 7.432353
1.265885 2.367017 2.639000
1.163997 2.192944 3.033170
0.920816 1.777928 2.877148
0.620708 1.265650 2.951670
0.439019 0.955505 3.007250
0.280710 0.685112 3.444199
2.162187 3.895445 6.177692
0.412324 0.908953 5.412312
0.252938 0.636670 5.974334
0.132720 0.431055 6.989708
0.207505 0.558759 6.856234
0.100291 0.375620 7.194074
-0.119599 0.000128 7.600015
0.130893 0.495246 0.779911
1.177115 2.583902 2.992282
0.350389 0.932572 3.124801
0.238024 0.706898 5.804769
0.155737 0.542442 6.019784
-0.013392 0.204407 6.503271
0.034627 0.300171 6.818400
0.160461 0.551457 6.924392
-0.016933 0.196859 7.530453
-0.139300 -0.047490 7.396786
0.151805 0.629807 0.531170
1.057019 2.776102 3.175502
1.138134 2.968422 3.428169
0.187631 0.711976 5.831324
0.115759 0.541007 6.668169
0.128524 0.571174 6.889385
0.018276 0.309294 7.465440
-0.108765 0.007851 7.513321
0.169234 0.806363 0.419350
0.956714 3.071638 2.914026
1.035736 3.298855 3.320115
1.036507 3.300651 3.991030
1.115288 3.527310 4.184277
1.206348 3.789066 4.770386
1.293771 4.040481 5.151461
1.226304 3.845973 5.622658
0.159145 0.774171 5.399265
0.100505 0.605066 5.880952
0.033780 0.412816 6.155275
-0.001938 0.309594 6.793965
0.084221 0.557509 6.957571
0.033229 0.410621 7.117090
-0.109770 -0.001272 7.520856
0.061136 0.615539 0.584266
0.795499 3.275891 3.716099
0.849323 3.470667 4.216962
0.933155 3.774613 4.252922
0.971551 3.913525 4.649750
0.944910 3.816371 5.360793
0.069637 0.642303 5.789689
0.071023 0.647111 6.070975
0.058888 0.603007 6.200864
0.070898 0.646174 6.689528
0.084833 0.696577 6.850459
-0.016195 0.329828 7.393802
0.011936 0.575491 0.662753
0.015116 0.590708 0.841800
0.597302 3.406714 3.992881
0.664061 3.729754 4.229926
0.604187 3.438901 5.119323
-0.046377 0.288320 5.335392
0.040099 0.706485 5.911046
0.087844 0.937457 6.141994
0.085529 0.925901 6.478614
0.034039 0.676101 6.927526
0.010721 0.562806 7.293637
-0.001967 0.501505 7.158068
-0.091187 0.069379 7.231184
-0.027511 0.564563 0.476295
-0.040022 0.473388 1.059603
0.153273 1.865634 2.915127
0.163810 1.941912 2.760570
0.100505 1.484288 3.251171
0.062373 1.209255 3.136549
-0.001703 0.746358 3.430923
-0.029553 0.545049 3.639472
-0.065289 0.286217 4.247071
-0.039466 0.471258 5.122574
0.018659 0.889889 5.699694
0.041241 1.051765 6.427557
0.048240 1.102038 6.587357
0.032011 0.984855 6.624644
-0.012581 0.661998 7.306583
-0.044272 0.433170 7.377786
-0.101120 0.022363 7.722853
-0.057833 0.646278 0.529333
-0.059716 0.619153 0.992744
0.024556 1.770262 2.230807
0.022173 1.736791 2.515222
-0.015675 1.216496 3.124406
-0.024701 1.092756 3.152897
-0.044258 0.824506 3.256322
-0.062915 0.567953 3.580926
-0.072744 0.432409 3.890423
-0.032415 0.979676 5.742725
-0.021364 1.129777 6.206384
-0.022122 1.118424 6.541756
-0.030781 0.999679 6.580879
-0.053171 0.691134 7.205618
-0.071348 0.441707 7.337271
-0.104740 -0.016186 7.475182
-0.095898 1.246793 0.880315
-0.093554 1.526666 2.706495
-0.095159 1.290527 2.961858
-0.096208 1.138654 3.047500
-0.097966 0.878910 3.367009
-0.100517 0.505463 3.709848
-0.100558 0.499267 3.723933
-0.102048 0.245593 5.128124
-0.097730 0.849244 5.509659
-0.095133 1.204858 5.987666
-0.095552 1.130240 6.496182
-0.096508 0.991247 6.593349
-0.098134 0.757739 6.659938
-0.100956 0.336381 7.321291
-0.102568 0.104528 7.397090
-0.105874 -0.372271 7.601360
-0.185955 1.405302 2.483584
-0.175663 1.229028 2.841124
-0.166829 1.076946 2.926761
-0.156887 0.906724 3.288736
-0.141318 0.638514 3.394832
-0.126452 0.383244 3.722628
-0.120092 0.274436 3.974692
-0.114893 0.186428 4.445277
-0.107778 0.063823 4.481791
-0.165641 1.067629 6.049095
-0.168368 1.115261 6.212249
-0.157577 0.931030 6.747678
-0.152963 0.851158 6.671602
-0.131698 0.486034 7.151370
-0.120609 0.295745 7.431707
-0.096126 -0.126560 7.450625
-0.256666 1.222349 2.598570
-0.248858 1.159593 2.727177
-0.214079 0.880126 3.320124
-0.192226 0.704141 3.467555
-0.154469 0.400401 3.912655
-0.133105 0.228364 4.063909
-0.226948 0.987837 5.652942
-0.235114 1.054855 6.346377
-0.243728 1.124495 6.448831
-0.191196 0.701948 7.095609
-0.172146 0.548588 7.254007
-0.150472 0.373616 7.147458
-0.082810 -0.171301 7.583938
-0.284625 0.934561 0.553090
-0.327711 1.163108 2.681275
-0.321269 1.129365 2.751494
-0.283828 0.933274 3.169258
-0.218474 0.590502 3.449289
-0.185448 0.417291 3.598480
-0.136373 0.160339 4.206725
-0.258966 0.805696 5.819076
-0.289240 0.964776 5.958644
-0.289124 0.964834 6.560026
-0.263203 0.828866 6.657020
-0.202165 0.509199 7.343430
-0.176005 0.371618 7.119640
-0.076354 -0.151098 7.495987
-0.241313 0.512907 0.269983
-0.393118 1.099726 2.313989
-0.370809 1.014069 2.717838
-0.313592 0.793921 3.195654
-0.255490 0.570186 3.460094
-0.217786 0.424928 3.550371
-0.190065 0.318286 3.800811
-0.173974 0.257257 5.004463
-0.273877 0.642863 5.644867
-0.303557 0.757476 5.902578
-0.288265 0.699178 6.683500
-0.301271 0.749443 6.844960
-0.271516 0.634787 6.885543
-0.161054 0.209338 7.282092
-0.098311 -0.032394 7.417533
-0.301674 0.579130 0.318473
-0.147971 0.113944 0.373671
0.071677 -0.550858 0.402395
-0.398709 0.874428 2.734631
-0.433693 0.980314 2.733888
-0.353738 0.738667 3.270928
-0.273035 0.494611 3.595673
-0.225985 0.352263 3.687396
-0.191672 0.248573 3.939087
-0.134741 0.076542 4.371394
-0.109161 -0.000572 4.842972
-0.195434 0.260821 5.240453
-0.269629 0.485727 5.749848
-0.313606 0.618966 5.949563
-0.271301 0.491379 6.643504
-0.305780 0.595728 6.630056
-0.232398 0.373880 7.024661
-0.159553 0.153442 7.096294
-0.028125 -0.244129 7.443635
-0.464192 0.874390 2.674728
-0.484942 0.926028 2.789079
-0.417773 0.759157 2.932958
-0.334272 0.551879 3.414357
-0.229372 0.291360 3.800579
-0.198565 0.214893 3.992153
-0.140505 0.070789 4.363667
-0.023873 -0.218972 4.603204
-0.325809 0.532036 5.561982
-0.318730 0.514630 5.903498
-0.250482 0.345118 6.119129
-0.237514 0.313289 6.848428
-0.285908 0.433716 7.099647
-0.158760 0.117921 7.529752
-0.510006 0.821047 0.369457
-0.246750 0.272235 0.430005
0.026587 -0.297670 0.332949
0.324523 -0.918910 0.134173
-0.526666 0.856656 2.193141
-0.526771 0.857089 2.641627
-0.475770 0.750879 2.885587
-0.413955 0.622151 3.189175
-0.235025 0.249439 3.868400
-0.232856 0.244922 3.880021
-0.321559 0.430773 5.800119
-0.319745 0.426997 5.811654
-0.240520 0.261929 6.026599
-0.166811 0.108653 6.845621
-0.288743 0.362908 6.948754
-0.174195 0.124345 7.466431
-0.040590 -0.154204 7.452987
0.180208 -0.614371 7.781849
-0.556925 0.766306 2.309768
-0.543870 0.743615 2.817561
-0.499639 0.666097 3.005003
-0.376478 0.450258 3.545687
-0.225689 0.185912 3.992619
-0.131867 0.021289 3.927105
-0.066724 -0.092862 4.240861
-0.061316 -0.102227 4.532790
-0.349291 0.403513 5.810962
-0.294748 0.307956 6.119593
-0.168297 0.086170 6.245712
-0.115129 -0.006833 6.889713
-0.265151 0.256510 7.260909
-0.159457 0.071093 7.274873
0.029415 -0.260155 7.503634
0.338319 -0.801922 7.872205
-0.537457 0.624685 0.217711
-0.633076 0.770438 2.209916
-0.617044 0.746318 2.719422
-0.536568 0.624395 3.025082
-0.413980 0.438676 3.508858
-0.331099 0.313026 3.600794
-0.228156 0.157078 4.031516
-0.132439 0.011985 4.186997
0.156518 -0.426121 4.414329
-0.427830 0.460448 5.549337
-0.393689 0.408848 6.010567
-0.212038 0.133395 6.043943
-0.119397 -0.006906 6.537818
-0.304413 0.273760 6.796489
-0.166561 0.064888 7.258028
0.053080 -0.268082 7.546344
0.203770 -0.496647 7.413513
0.519203 -0.974920 7.598162
0.348491 -0.640883 0.308149
0.709560 -1.123705 0.162345
-0.531483 0.536525 2.704173
-0.602313 0.631304 2.920201
-0.484291 0.473648 3.342719
-0.464759 0.447557 3.414357
-0.343263 0.285181 3.622549
-0.136899 0.009361 3.913743
0.082838 -0.284315 4.273818
-0.493446 0.486593 5.376438
-0.368078 0.319063 5.649854
-0.295138 0.221759 6.290274
-0.122307 -0.009355 6.206996
-0.080434 -0.065160 6.733755
-0.238345 0.146149 7.227562
-0.064020 -0.086960 7.153486
0.107864 -0.316689 7.413007
0.383095 -0.684638 7.561739
0.783973 -1.220579 7.728649
-0.555740 0.489152 2.506034
-0.613465 0.556717 2.781328
-0.596174 0.536597 3.070515
-0.486968 0.409059 3.435038
-0.355273 0.255184 3.643154
-0.241350 0.122065 3.794278
-0.034998 -0.119071 4.028773
0.338932 -0.556056 4.378266
-0.502494 0.427856 5.464557
-0.386734 0.292694 5.949055
-0.220240 0.098115 6.073569
-0.102232 -0.039757 6.293615
-0.169581 0.039175 6.940097
-0.204515 0.080062 7.102599
0.020573 -0.183015 7.207807
0.257332 -0.459715 7.378768
0.504983 -0.749125 7.617865
-0.527420 0.385901 2.457986
-0.672473 0.532957 2.719300
-0.538631 0.397528 3.360391
-0.451698 0.309450 3.391051
-0.217853 0.072651 3.898536
-0.077867 -0.069130 4.112828
0.037901 -0.186471 3.988662
0.167044 -0.317116 4.708070
-0.256525 0.112271 5.369629
-0.485251 0.344112 5.641122
-0.487435 0.346409 5.924209
-0.307394 0.164015 6.047971
-0.122922 -0.022769 6.507083
-0.292356 0.148980 6.733720
-0.142113 -0.003156 7.075209
0.181515 -0.331039 7.213515
0.585057 -0.739661 8.145657
-0.402960 0.218727 2.182337
-0.668468 0.455005 2.592859
-0.579339 0.375795 2.840704
-0.419302 0.233641 3.544591
-0.395111 0.212144 3.617457
-0.283166 0.112596 3.709739
0.136659 -0.260675 4.269067
0.542919 -0.622032 4.280224
-0.512383 0.317011 5.620178
-0.492356 0.299217 5.692701
-0.174848 0.016967 6.293427
-0.115913 -0.035477 6.214974
-0.077948 -0.069025 7.012568
-0.148843 -0.005862 7.385376
0.082340 -0.211497 7.373014
-0.603340 0.338303 2.607084
-0.624715 0.355020 2.781331
-0.603479 0.338533 3.072310
-0.512917 0.267966 3.321222
-0.784907 0.480632 5.337091
-0.477609 0.241083 5.807271
-0.374443 0.160717 6.175209
-0.050770 -0.091655 6.450185
-0.122204 -0.035930 6.494651
-0.237012 0.053751 7.019038
-0.024562 -0.111895 7.212836
-0.550808 0.252037 2.105115
-0.694983 0.351252 2.427111
-0.652625 0.322270 2.994844
-0.557837 0.257156 3.242274
-0.572132 0.267098 3.690115
-0.456503 0.188010 5.346307
-0.702091 0.356890 5.406577
-0.512488 0.226602 5.736479
-0.265771 0.057022 5.977966
-0.003847 -0.122998 6.285317
-0.045114 -0.094581 6.450421
-0.243142 0.041722 7.006207
0.147082 -0.226461 7.534241
-0.647410 0.258687 1.921818
-0.746056 0.316658 2.362228
-0.724325 0.304034 2.871756
-0.530589 0.190506 3.354628
-0.771873 0.332125 3.707668
-1.231823 0.602054 4.233568
-1.237583 0.605615 4.991717
-1.153270 0.556152 4.966664
-0.892157 0.403105 5.462434
-0.669515 0.272533 5.579550
-0.546856 0.200606 5.675197
-0.215699 0.006468 6.155273
0.004580 -0.122715 6.283902
-0.021241 -0.107514 6.509741
-0.181549 -0.013302 7.244929
0.053396 -0.151151 7.109960
-0.551685 0.160585 1.945699
-0.683605 0.227076 2.547486
-0.559065 0.164559 3.073055
-0.538396 0.154230 3.362925
-1.402723 0.589257 4.643617
-1.230590 0.502788 5.112277
-1.184760 0.479704 4.972047
-0.911683 0.342408 5.198755
-0.645339 0.208562 5.701063
-0.424439 0.097547 6.092494
-0.289647 0.029710 5.919264
0.169970 -0.201329 6.496585
-0.011499 -0.109975 6.843432
-0.045972 -0.092508 7.396835
-0.888553 0.262919 0.238729
-0.638300 0.157263 2.224043
-0.586227 0.135314 2.797306
-0.586350 0.135419 3.031618
-0.693871 0.181165 3.741149
-1.511523 0.528114 4.972489
-1.229397 0.408548 5.197406
-1.096684 0.352301 5.290449
-0.879540 0.260248 5.345277
-0.549380 0.120418 6.025315
-0.282370 0.007331 6.561423
-0.206935 -0.024596 6.811971
-0.028500 -0.100186 7.093704
-1.063843 0.261067 0.344810
-0.520472 0.071037 0.344699
-0.669872 0.123738 2.400827
-0.561394 0.085904 2.869611
-0.435264 0.041909 3.397966
-1.656199 0.469182 4.683359
-1.584015 0.443977 4.865788
-1.251269 0.327682 5.202562
-1.031546 0.250911 5.525266
-0.892515 0.202250 5.350735
-0.674402 0.126043 5.679497
-0.420688 0.037412 6.131176
0.127229 -0.154175 6.282157
0.101546 -0.145070 6.842421
-0.254325 -0.020584 6.976821
0.108154 -0.147302 7.202132
-0.714315 0.089600 2.321499
-0.661774 0.075168 2.893021
-0.672054 0.078113 3.344555
-1.753981 0.378194 5.027712
-1.503535 0.308781 4.870980
-1.141425 0.208554 5.268814
-1.114269 0.201046 5.340957
-0.864435 0.131862 5.457707
-0.621900 0.064758 5.847606
-0.273973 -0.031536 6.269937
0.174411 -0.155721 6.397714
0.072361 -0.127382 6.717220
-0.107117 -0.077575 7.123731
-0.728316 0.044763 2.301570
-0.730062 0.045222 2.754073
-0.775121 0.054715 3.362986
-1.900210 0.288804 4.721696
-1.508566 0.207512 5.165980
-1.367083 0.178073 4.989706
-1.049474 0.112189 5.541552
-0.861616 0.073138 5.483450
-0.616154 0.022212 5.871982
-0.344457 -0.034210 6.054709
0.183823 -0.143984 6.084193
-0.042426 -0.096706 7.322313
-0.516083 -0.032898 0.359472
-0.498285 -0.034953 2.551572
-0.758914 0.001894 2.696394
-0.749554 0.000724 3.423828
-1.888078 0.161891 5.045360
-1.561795 0.115803 5.058511
-1.395715 0.092318 4.940117
-1.206700 0.065661 5.146349
-0.825344 0.011944 5.876559
-0.665192 -0.010647 6.030329
-0.262447 -0.067352 6.922739
-0.145471 -0.083867 6.964435
-0.560956 -0.062897 0.477678
-0.532383 -0.064946 0.943661
-0.401172 -0.074568 2.062311
-0.461667 -0.069908 2.620919
-0.697883 -0.052125 2.820982
-1.953672 0.042524 4.394929
-2.035433 0.048731 4.708946
-1.567463 0.013654 5.054962
-1.354992 -0.002306 5.048278
-1.144019 -0.018098 5.310287
-0.913794 -0.035323 5.633936
-0.772701 -0.045901 5.727449
-0.318345 -0.079818 6.733488
-0.124250 -0.094338 7.013598
-1.839418 -0.087496 0.849179
-1.562084 -0.090067 0.932060
-1.365000 -0.091833 1.286619
-0.993061 -0.095203 1.770845
-0.617273 -0.098603 2.289991
-0.543479 -0.099115 3.139647
-2.650427 -0.079108 4.795137
-2.528620 -0.080186 5.079860
-0.869888 -0.095588 5.455885
-0.031768 -0.103029 7.292710
-2.157990 -0.226199 1.079958
-1.945750 -0.214263 1.048942
-1.820080 -0.207188 1.068173
-1.471714 -0.187455 1.703354
-1.376847 -0.182124 1.669015
-0.858327 -0.152830 2.238162
-0.476427 -0.131226 2.794787
-0.568021 -0.136323 3.070062
-2.710898 -0.256466 5.136277
-2.613806 -0.251009 5.109518
-0.799131 -0.148796 5.622124
-0.512939 -0.132526 6.425291
-0.200628 -0.114822 7.061042
0.104430 -0.097591 7.376486
-1.745332 -0.317135 1.171276
-1.613901 -0.301137 1.410239
-1.454439 -0.281726 1.707361
-1.299642 -0.262926 1.787992
-0.761915 -0.197596 2.185354
-0.726168 -0.193244 2.257388
-0.665714 -0.185835 2.608230
-0.609725 -0.178968 2.958715
-2.549021 -0.413809 5.213249
-2.384815 -0.393856 5.352001
-0.627244 -0.180506 5.771312
-0.268650 -0.136907 6.189827
-0.348335 -0.146496 6.575757
-0.191717 -0.127390 7.064543
-1.851664 -0.453555 1.139279
-1.821808 -0.447989 0.990066
-1.417263 -0.371991 1.737864
-1.379837 -0.364914 2.025124
-1.053124 -0.303666 2.014845
-0.638617 -0.225922 2.183412
-0.574929 -0.213955 2.313908
-0.639104 -0.225869 2.867774
-0.677139 -0.232917 3.257418
-2.548900 -0.583424 5.135700
-0.943853 -0.282457 5.446100
-0.605213 -0.218897 5.796582
-0.189233 -0.140914 5.790485
0.083473 -0.089550 6.926842
-0.009424 -0.106887 7.298817
-2.165999 -0.676653 1.107399
-1.824195 -0.586980 0.919536
-1.458692 -0.490947 1.389931
-1.652384 -0.541774 1.440665
-1.468998 -0.493565 1.791699
-0.940795 -0.354843 2.193368
-0.745174 -0.303362 2.831548
-1.035953 -0.379618 3.130989
-2.548506 -0.776210 5.019141
-0.748301 -0.303581 5.636508
-0.397046 -0.211299 6.050823
-0.189763 -0.156759 6.681238
0.127768 -0.073337 7.053049
-1.518593 -0.615237 1.004462
-1.382282 -0.569761 1.681771
-1.457589 -0.594743 1.959134
-1.029709 -0.452412 2.178200
-0.769448 -0.365893 2.055709
-1.245228 -0.523780 3.544566
-1.140409 -0.488871 3.787340
-2.376472 -0.899623 5.053375
-2.221054 -0.847855 5.449933
-0.696961 -0.340988 5.722419
-0.168306 -0.164977 6.716702
0.053302 -0.091270 6.789047
-1.474607 -0.712503 1.210602
-1.292198 -0.638204 1.783319
-1.559048 -0.746689 1.880488
-1.357107 -0.664432 2.519802
-1.418629 -0.689326 3.063680
-1.479651 -0.714066 3.389942
-1.195306 -0.598350 3.817147
-0.630317 -0.368224 5.560310
-0.088828 -0.147733 6.946649
-1.530331 -0.856517 2.046889
-1.374050 -0.780712 2.829141
-1.617861 -0.898610 3.186290
-1.515720 -0.849130 3.423796
-1.357449 -0.772510 3.563636
-1.130033 -0.662392 3.877161
-1.071306 -0.633882 4.274502
-0.470521 -0.342772 5.969103
-0.296828 -0.258735 5.914724
0.102629 -0.065281 6.594557
0.124786 -0.054466 7.000421
-0.388056 -0.340462 0.361088
-1.549590 -0.998605 2.306934
-1.623915 -1.040684 2.578578
-1.598337 -1.026114 2.859687
-1.599122 -1.026506 3.084135
-1.476377 -0.956837 3.377312
-1.222284 -0.812611 4.013134
-0.992485 -0.682286 4.116702
-0.420923 -0.357879 5.470496
-0.536844 -0.423625 5.400751
-0.374393 -0.331462 5.614040
0.042594 -0.094917 6.062612
0.465767 0.145074 6.250235
0.339649 0.073610 6.448492
0.361283 0.086054 7.192311
-1.623824 -1.190371 1.983159
-1.649870 -1.207261 2.792800
-1.604252 -1.177245 3.128241
-1.576618 -1.159097 3.196158
-1.371927 -1.024660 3.714129
-1.204948 -0.915047 3.911672
-1.069355 -0.826108 3.784703
-0.486690 -0.443443 5.188861
-0.485585 -0.442647 5.472365
-0.329926 -0.340458 5.686149
0.003521 -0.121457 6.526555
0.264085 0.049590 6.840435
-1.747895 -1.448223 2.353094
-1.681300 -1.397868 2.955326
-1.632195 -1.360821 3.079350
-1.583574 -1.324138 3.203672
-1.367077 -1.160795 3.776849
-1.167214 -1.010059 4.088403
-0.936334 -0.835980 4.250250
-0.522576 -0.523832 5.252935
-0.412040 -0.440415 5.618567
-0.315842 -0.367892 5.656095
-0.042268 -0.161580 6.018590
0.279895 0.081250 5.960691
0.417222 0.184984 6.798589
0.313597 0.106939 7.054726
-1.841624 -1.722970 2.303658
-1.689121 -1.591529 2.910284
-1.580754 -1.498168 3.198466
-1.597004 -1.512167 3.154724
-1.410883 -1.351814 3.667604
-1.201471 -1.171451 4.031643
-0.982617 -0.983018 4.190220
-0.657356 -0.702966 4.430080
-0.307258 -0.401435 5.036835
-0.308868 -0.402668 5.593483
-0.305369 -0.399653 5.605955
0.130624 -0.024062 6.653979
0.293288 0.116055 7.000273
-1.673886 -1.788313 2.657598
-1.452549 -1.570983 3.277163
-1.506315 -1.623777 3.123131
-1.405762 -1.525042 3.413157
-1.132588 -1.256864 4.000726
-1.027285 -1.153529 4.085960
-0.809348 -0.939728 4.034651
-0.371540 -0.509926 4.985622
-0.368994 -0.507345 5.270429
-0.270374 -0.410484 5.637606
0.043998 -0.101779 6.598853
0.292921 0.142562 7.035700
-1.560395 -1.902198 2.855751
-1.501099 -1.835802 3.032372
-1.406675 -1.730070 3.320186
-1.254155 -1.559354 3.566947
-1.129736 -1.420027 3.971337
-0.964884 -1.235493 4.282018
-0.728444 -0.970944 4.346867
-0.403787 -0.607511 5.005399
-0.354569 -0.552387 5.194143
-0.291380 -0.481614 5.442374
0.132740 -0.006830 6.335309
0.227945 0.099822 6.772123
-0.173083 -0.390213 0.320079
-1.327614 -1.860224 3.206161
-1.323564 -1.855059 3.219538
-1.084270 -1.549981 3.802393
-0.961042 -1.392911 3.999842
-0.854150 -1.256672 4.143053
-0.615354 -0.952290 4.536495
-0.373890 -0.644498 4.965561
-0.191308 -0.411611 5.742822
-0.149216 -0.357919 5.932121
-0.101679 -0.297379 5.850370
0.178982 0.060341 6.243596
0.338625 0.263899 6.710694
0.258620 0.162051 6.965336
-0.223776 -0.511856 0.488280
-1.213281 -1.955007 2.949936
-1.214021 -1.956005 3.172089
-0.994680 -1.635693 3.752903
-0.933514 -1.546341 3.989797
-0.798568 -1.349389 4.033360
-0.663521 -1.152290 4.078964
-0.291959 -0.609652 5.143179
-0.188145 -0.457971 5.627670
-0.173169 -0.436089 5.699793
-0.021591 -0.214713 6.155273
0.176287 0.074099 6.251874
0.214918 0.130670 6.781370
0.184987 0.087050 6.946025
-0.337997 -0.775785 0.379886
-1.075106 -2.018394 3.203142
-0.970954 -1.842577 3.395106
-0.834761 -1.612538 3.968700
-0.772087 -1.506773 3.998076
-0.577567 -1.178502 4.118379
-0.442603 -0.950728 4.226094
-0.016316 -0.231140 4.948568
-0.016253 -0.230804 5.512571
-0.134851 -0.430824 5.749765
-0.036260 -0.264488 5.696262
0.190792 0.118900 6.367389
0.076048 -0.074730 6.325328
0.042106 -0.131689 7.093724
-0.855608 -1.911333 2.916761
-0.758816 -1.720804 3.588479
-0.767857 -1.738592 3.545976
-0.606904 -1.422029 4.082630
-0.574141 -1.357678 3.998883
-0.408875 -1.032733 4.334616
-0.271357 -0.762134 5.074371
-0.164904 -0.552775 5.404819
-0.047363 -0.321718 5.526774
0.061225 -0.108006 6.199020
-0.028866 -0.284900 6.548845
-0.120813 -0.465442 6.894179
-0.345937 -0.907524 7.656138
-0.325841 -1.024498 0.380288
-0.146289 -0.606283 0.370869
0.046934 -0.156192 0.427019
-0.683620 -1.856394 3.152035
-0.555911 -1.558568 3.840237
-0.513405 -1.459435 4.080410
-0.475000 -1.369995 4.053233
-0.397050 -1.188325 4.255639
-0.264151 -0.878622 4.538234
-0.197274 -0.722771 4.687450
-0.167521 -0.653226 5.147310
-0.130037 -0.565788 5.394915
-0.093452 -0.480441 5.643383
-0.086595 -0.464290 5.985584
-0.156067 -0.625893 6.391762
-0.220207 -0.775049 6.851126
-0.211971 -0.755660 7.244654
-0.170546 -0.793865 0.440578
-0.025357 -0.384585 0.602250
-0.477261 -1.656681 2.989743
-0.520383 -1.777948 3.413812
-0.423060 -1.503273 4.047560
-0.357126 -1.317331 4.247875
-0.332961 -1.249281 4.163201
-0.211981 -0.908119 4.501859
-0.202127 -0.880303 4.572809
-0.090813 -0.566244 5.134510
-0.097674 -0.585442 5.360147
-0.030500 -0.395791 5.905447
0.086805 -0.065137 5.997753
-0.160472 -0.761445 6.936350
-0.184625 -0.829450 7.038302
-0.169840 -0.787266 7.868955
-0.173136 -0.796349 8.201294
-0.035093 -0.521053 0.350239
-0.310955 -1.518866 2.890376
-0.352002 -1.667343 3.260913
-0.339059 -1.620170 3.599510
-0.309827 -1.514037 3.839688
-0.243479 -1.273331 4.155131
-0.165275 -0.989559 4.591140
-0.139199 -0.895074 4.566438
-0.062795 -0.617818 5.011143
-0.049981 -0.571065 5.414494
-0.036840 -0.523335 5.546386
0.079755 -0.100509 5.874763
-0.151205 -0.936895 6.733367
-0.160670 -0.970777 7.273525
-0.147471 -0.922547 7.781272
-0.128523 -0.853682 8.027955
-0.207254 -1.517310 2.702718
-0.192369 -1.444692 3.315296
-0.233198 -1.642112 3.356772
-0.168893 -1.330400 4.053000
-0.162650 -1.300135 4.123308
-0.103068 -1.011532 4.558508
-0.073525 -0.868563 4.649759
-0.044036 -0.725850 4.742168
-0.015240 -0.585928 5.379947
-0.000796 -0.515876 5.570393
0.068761 -0.179110 5.932036
-0.092057 -0.955763 7.019390
-0.084674 -0.919594 7.469736
-0.087534 -0.933470 7.423595
-0.058723 -0.793644 7.902302
-0.121315 -1.554149 3.101836
-0.119627 -1.541860 3.596930
-0.100183 -1.408084 3.893883
-0.095735 -1.377476 3.963108
-0.076894 -1.247830 4.261926
-0.034850 -0.958852 4.697764
-0.013928 -0.815228 4.788864
0.000236 -0.717731 5.035407
0.020529 -0.578028 5.400673
0.059847 -0.307728 5.852697
-0.046280 -1.033769 7.112626
-0.059464 -1.124126 7.155359
-0.039864 -0.989568 7.253112
-0.010077 -0.784800 7.585700
-0.023768 -1.595049 3.026437
-0.031279 -1.687721 3.294688
-0.022333 -1.575897 3.533023
-0.007417 -1.389416 3.943672
0.010881 -1.160588 4.472471
0.016728 -1.088119 4.387690
0.036103 -0.846429 4.709926
0.045854 -0.724426 5.014560
0.060657 -0.539155 5.497475
0.072049 -0.397296 5.593271
0.009288 -1.174655 6.686531
0.012583 -1.132546 7.133702
0.026363 -0.960691 7.347279
0.050480 -0.660101 7.651954
0.092266 -1.402535 2.960152
0.089762 -1.694201 3.046223
0.091404 -1.485037 3.724961
0.091448 -1.479558 3.736979
0.092740 -1.312891 4.361110
0.092782 -1.307705 4.373207
0.095387 -0.996653 4.596127
0.097179 -0.780083 4.861955
0.097524 -0.729846 5.262322
0.099432 -0.497990 5.592559
0.099531 -0.470029 6.263984
0.094689 -1.032895 6.472141
0.093941 -1.102627 7.215396
0.094540 -1.026389 7.459144
0.096212 -0.831456 7.412633
0.191886 -1.548544 2.644324
0.195642 -1.617060 3.186800
0.194262 -1.593670 3.469854
0.190120 -1.521759 3.865894
0.175546 -1.265792 4.450997
0.168375 -1.139892 4.752534
0.159002 -0.973453 4.632181
0.145393 -0.733622 4.958466
0.142444 -0.681886 5.089731
0.129419 -0.453419 5.693317
0.142560 -0.687008 5.927780
0.162927 -1.049467 6.400186
0.168688 -1.153824 7.029784
0.161126 -1.021434 7.448276
0.151164 -0.844610 7.344003
0.300647 -1.602589 3.183259
0.294547 -1.553213 3.522601
0.276592 -1.407153 4.089345
0.272832 -1.376480 4.159627
0.263068 -1.296843 4.344537
0.216460 -0.915851 4.742961
0.201519 -0.794018 5.048346
0.181198 -0.627870 5.201722
0.172305 -0.555369 5.392382
0.188429 -0.688780 6.190532
0.244344 -1.147522 6.690810
0.252897 -1.217741 6.794041
0.231836 -1.046183 7.327008
0.208184 -0.852417 7.281122
0.220688 -0.609367 0.327201
0.120748 -0.075566 0.272542
0.393415 -1.534895 3.048602
0.425313 -1.705368 3.149365
0.403762 -1.591084 3.869430
0.357785 -1.345894 4.183966
0.356669 -1.339950 4.197815
0.310717 -1.095202 4.786352
0.284443 -0.954683 4.608370
0.227275 -0.649934 5.110600
0.179962 -0.397700 5.502211
0.243930 -0.739564 5.714646
0.306148 -1.072445 6.247903
0.338873 -1.247668 6.648404
0.327330 -1.186592 7.153499
0.154647 -0.181424 0.267148
0.019428 0.346368 0.217906
0.497690 -1.522210 2.562062
0.487401 -1.482691 3.330184
0.530840 -1.652315 3.427763
0.487464 -1.483537 4.047782
0.455100 -1.357472 4.344757
0.406685 -1.168683 4.547080
0.358646 -0.981363 4.752037
0.305529 -0.774045 4.747102
0.275150 -0.655734 5.052364
0.241435 -0.524681 5.688785
0.402322 -1.153586 6.860105
0.387168 -1.094598 7.045330
0.367790 -1.019171 7.288809
0.284025 -0.692591 7.708741
0.299588 -0.578472 0.321229
0.168029 -0.176513 0.256648
0.598663 -1.493786 2.770414
0.595756 -1.485379 3.480709
0.633899 -1.602046 3.691190
0.547767 -1.339156 4.060364
0.499501 -1.191940 4.416910
0.490147 -1.163412 4.487572
0.400937 -0.890984 4.654866
0.326287 -0.663144 4.980898
0.303096 -0.592421 5.170493
0.329686 -0.674265 6.086339
0.485178 -1.149555 6.472884
0.530231 -1.287321 6.665992
0.487260 -1.156321 7.079375
0.439130 -1.009385 7.233913
0.293284 -0.564161 7.742002
0.367388 -0.635786 0.376127
0.228183 -0.287898 0.023911
-0.024806 0.343890 0.213860
0.638537 -1.314415 2.845311
0.695607 -1.457164 3.216465
0.710918 -1.495620 3.597962
0.694316 -1.454341 3.935832
0.663944 -1.378584 4.118832
0.554368 -1.105136 4.549552
0.518104 -1.014543 4.523640
0.410989 -0.747248 4.963034
0.314907 -0.507478 5.350250
0.400836 -0.722236 5.586746
0.508017 -0.990486 6.557781
0.569411 -1.143904 6.692807
0.560464 -1.121773 7.081845
0.509735 -0.995124 7.179279
0.403446 -0.729781 7.422898
0.324937 -0.436583 0.310555
0.038156 0.163066 0.269421
0.735359 -1.296143 3.245830
0.834035 -1.502459 3.230909
0.745617 -1.317911 3.909004
0.743201 -1.312866 3.921454
0.614636 -1.044257 4.351815
0.610081 -1.034867 4.633636
0.547313 -0.903670 4.723527
0.364582 -0.521848 5.246063
0.395096 -0.585832 5.623546
0.715813 -1.256843 6.508922
0.638799 -1.096070 7.036728
0.597237 -1.009311 7.337076
0.432650 -0.557623 0.426988
0.183559 -0.113199 0.312906
0.806785 -1.226097 2.832170
0.829444 -1.266774 3.429463
0.902376 -1.396949 3.582709
0.861369 -1.323869 3.764689
0.808536 -1.229717 4.004226
0.720570 -1.072962 4.416686
0.590521 -0.841116 4.794145
0.474368 -0.633923 4.847787
0.381894 -0.469154 5.329768
0.442005 -0.576617 5.858346
0.626117 -0.905383 6.594132
0.734571 -1.098983 6.874876
0.741973 -1.112169 6.829652
0.576295 -0.816911 7.561100
0.463677 -0.616031 7.632335
0.484516 -0.551591 0.376356
0.224630 -0.152750 0.202320
0.850006 -1.113306 2.742157
0.982518 -1.316794 3.157372
0.933432 -1.241728 3.821928
0.944400 -1.258540 3.777774
0.857753 -1.125722 4.132174
0.800454 -1.037893 4.373879
0.654760 -0.814479 4.751584
0.575476 -0.692859 4.843007
0.459770 -0.515522 5.382401
0.475938 -0.540518 5.875985
0.729974 -0.930386 6.059449
0.803022 -1.042789 6.892121
0.811392 -1.055616 6.846216
0.767986 -0.989103 7.087233
0.572605 -0.689486 7.559814
0.454067 -0.431101 0.366500
0.107731 0.030935 0.374355
1.049848 -1.226746 2.759562
1.146362 -1.355704 3.343411
1.040167 -1.214247 3.964187
0.967177 -1.116883 3.991313
0.903868 -1.032506 4.230886
0.812789 -0.911123 4.586409
0.627491 -0.663998 4.810930
0.471553 -0.456099 5.195062
0.375173 -0.327666 5.619353
0.541404 -0.549471 5.734766
0.814051 -0.913378 6.240841
0.840656 -0.949147 7.038972
0.805063 -0.901727 7.222743
0.712974 -0.778927 7.377214
0.485409 -0.475412 7.592736
0.584896 -0.523480 0.286452
0.145698 -0.009318 0.469177
1.091519 -1.117394 2.640996
1.166742 -1.205757 3.550890
1.187915 -1.230600 3.718321
0.976050 -0.982699 4.201389
0.956353 -0.959659 4.271132
0.893226 -0.885741 4.243964
0.734419 -0.699909 4.563946
0.578315 -0.517331 5.159365
0.501928 -0.427993 5.465476
0.531004 -0.462089 5.630882
0.601017 -0.544248 6.214313
0.827292 -0.809341 6.738119
0.900324 -0.895047 7.361651
0.824079 -0.805791 7.401964
0.709281 -0.671351 7.297119
0.575873 -0.433711 0.399947
0.146899 0.000356 0.466834
1.113883 -0.978909 3.029523
1.369186 -1.237373 3.428734
1.263890 -1.130988 3.991453
1.195446 -1.061720 3.964187
1.073524 -0.938387 4.108079
0.882973 -0.745676 4.484189
0.779937 -0.641439 4.575275
0.643093 -0.503106 5.055194
0.606918 -0.466538 5.186348
0.589885 -0.449404 5.529170
0.649213 -0.509629 6.172770
0.934769 -0.798692 6.525678
1.023055 -0.888198 7.094161
0.838410 -0.701501 7.596020
0.700883 -0.562321 7.552076
0.204412 -0.043058 0.122786
1.474952 -1.188247 3.096839
1.583333 -1.285908 3.254180
1.344167 -1.070687 3.941586
1.252742 -0.988350 3.971278
1.086562 -0.838746 4.229992
0.940379 -0.707137 4.434628
0.742278 -0.528817 4.816389
0.668555 -0.462484 5.064325
0.530334 -0.338126 5.548188
0.509957 -0.319793 5.621789
0.635866 -0.433313 6.032810
0.962109 -0.727312 6.594028
1.084542 -0.837712 7.046311
0.888990 -0.661720 7.546336
0.743980 -0.531099 7.500661
1.741310 -1.241641 3.051787
1.608353 -1.136792 3.400317
1.499549 -1.050993 3.694880
1.275450 -0.874283 4.331066
1.258110 -0.860544 4.132163
