0.317163 1.323685 8.143270
0.324849 1.335040 9.084608
0.254444 1.107935 9.997169
0.537102 1.621385 0.179639
0.437378 1.377306 1.176393
0.499111 1.512673 2.096762
0.413985 1.303176 3.059938
0.385485 1.226811 3.990799
0.493165 1.470082 4.897175
0.527732 1.541212 5.869070
0.464341 1.383086 6.793394
0.435088 1.306528 7.570563
0.411617 1.243442 8.356430
0.377678 1.152289 9.486181
0.276690 0.909748 10.042653
0.566741 1.365892 1.662033
0.527606 1.284219 2.531048
0.477186 1.181990 3.302277
0.532032 1.278620 4.157742
0.619279 1.433879 5.339174
0.610442 1.409195 6.261235
0.544283 1.277826 6.950939
0.491927 1.169565 7.997040
0.495499 1.169894 8.746117
0.443766 1.065112 9.524785
0.244758 0.682222 10.173020
0.584554 1.172933 0.744254
0.672397 1.303211 1.690989
0.608233 1.196284 2.579813
0.542434 1.086310 3.534517
0.707230 1.335817 4.625523
0.836160 1.530832 5.504524
0.698077 1.308664 6.350522
0.602578 1.153215 7.176792
0.576685 1.105978 8.084432
0.532357 1.029735 9.017182
0.742791 1.208228 0.990842
0.786159 1.259323 1.903800
0.621796 1.035971 2.919531
0.442727 0.793704 3.864873
0.975403 1.483289 5.735972
0.763541 1.198591 6.562983
0.642769 1.033913 7.393652
0.652031 1.041019 8.162159
0.592031 0.954361 9.304951
0.420015 0.723183 9.980147
0.593707 0.872266 0.107272
0.701966 0.986290 1.153505
0.778068 1.065138 2.106998
0.870449 1.160885 3.258926
1.129532 1.440632 4.618240
1.202298 1.516311 5.481988
0.990809 1.278242 5.991781
0.700938 0.950348 6.955682
0.649369 0.887671 7.851323
0.698340 0.938090 8.518100
0.634261 0.862109 9.314177
0.360205 0.553595 9.977101
0.796098 0.945249 0.487293
0.803606 0.945220 1.777501
0.849148 0.984330 2.483976
0.302725 0.463262 3.397730
1.201389 1.298461 5.839172
0.916578 1.026615 6.360839
0.696248 0.814616 7.072277
0.760003 0.870048 7.937730
0.685963 0.793965 9.054410
0.538070 0.650138 9.808405
0.056952 0.192672 10.372433
0.805915 0.816353 0.927373
0.936065 0.913723 2.068338
0.816814 0.815134 2.853315
1.433118 1.292378 5.099851
1.190111 1.095099 5.991781
0.784839 0.771530 6.416859
0.627206 0.641796 7.339944
0.735739 0.722157 8.454777
0.708442 0.696088 9.318338
0.552163 0.569643 9.808681
0.750907 0.663898 1.259262
0.936474 0.781906 2.349693
0.776539 0.671648 3.185050
1.378347 1.060533 5.439365
1.160142 0.911924 6.201138
0.719736 0.617085 6.679648
0.555367 0.503395 7.616004
0.762299 0.636552 8.507776
0.749117 0.624058 9.283851
0.418295 0.399473 10.288897
1.095476 0.764890 0.627292
1.070127 0.746022 1.690191
0.959575 0.681466 2.456693
0.892288 0.639574 3.490853
1.064738 0.729100 4.733233
1.260406 0.832881 5.662739
0.992465 0.682694 6.151234
0.187338 0.234603 6.921798
0.742479 0.532246 8.860352
0.677402 0.493003 9.582558
0.091151 0.165311 10.452486
0.991185 0.594426 0.907892
1.087076 0.633009 1.864906
1.157560 0.659416 3.012784
1.473505 0.795668 4.088138
1.294591 0.712013 4.958349
1.097483 0.621127 5.626296
0.858861 0.511217 6.408476
0.336605 0.275291 7.066870
0.400141 0.299476 8.014737
0.716829 0.436599 8.967394
0.555728 0.360322 9.967227
0.993926 0.493289 2.224967
0.677137 0.377916 3.009410
1.013905 0.488583 4.991384
0.728829 0.384412 5.778873
0.373728 0.255234 6.623166
0.075882 0.146074 7.521680
0.382114 0.249604 8.642918
0.636388 0.336770 9.291575
0.266506 0.202388 10.130499
1.165051 0.449326 0.821326
1.110072 0.430992 1.767775
0.835076 0.355765 2.529439
1.133774 0.430154 3.467427
1.314610 0.472952 4.575072
0.662683 0.299614 5.174697
0.414538 0.231137 6.005627
0.286503 0.194527 6.742343
0.164030 0.158366 7.722232
0.565601 0.258641 8.919443
0.546627 0.250179 9.760600
-0.008924 0.102549 10.251669
1.037018 0.325165 0.818375
1.086384 0.329763 1.835975
0.983164 0.308269 2.623937
1.676621 0.421768 4.914845
1.243952 0.341585 5.784544
0.457346 0.199523 6.454419
0.134229 0.140124 6.985720
0.321881 0.169396 7.959505
0.683989 0.229115 9.044628
0.598541 0.210159 9.982336
0.925076 0.223774 0.153871
0.758608 0.204943 1.199201
0.915505 0.214505 2.246615
0.884395 0.208991 2.937221
1.130098 0.225110 4.293504
1.294295 0.236163 5.129951
0.774993 0.187235 5.953310
0.315836 0.144115 6.645996
0.187423 0.129316 7.520095
0.405419 0.145271 8.312602
0.564313 0.155607 9.211485
0.452990 0.142517 10.033885
0.855509 0.145947 1.258573
0.850433 0.141145 2.442795
0.632052 0.136476 3.072404
0.876117 0.130795 5.085409
0.455175 0.123278 5.928991
0.262959 0.117594 6.875339
0.231414 0.113598 7.794201
0.537856 0.112614 8.789140
0.616419 0.110003 9.632068
0.162246 0.102913 10.288026
1.014563 0.065302 0.915646
0.997304 0.062582 1.904826
0.832380 0.070798 2.852045
1.215494 0.039267 3.745262
1.214129 0.034799 4.880633
0.756761 0.065053 5.651054
0.421012 0.087123 6.251064
0.036163 0.111851 7.080305
0.251874 0.092599 7.955878
0.525431 0.067980 9.116780
0.398139 0.074208 9.876257
0.656039 0.035529 0.146664
0.651514 0.031998 1.198905
0.938845 -0.018947 2.051680
0.690801 0.018370 2.953926
1.000358 -0.040985 4.971653
0.585077 0.024609 5.715511
0.171095 0.089732 6.522222
0.141987 0.090559 7.501643
0.513450 0.025589 8.384917
0.528779 0.018567 9.488765
0.326898 0.049780 10.016334
0.901563 -0.075639 0.924110
0.980317 -0.097851 1.680283
0.866079 -0.074351 2.695623
1.072589 -0.129085 3.827860
1.189213 -0.161234 4.767439
0.849349 -0.081593 5.432323
0.322231 0.042714 6.273036
0.168745 0.076812 7.025763
0.372314 0.023340 8.025122
0.436470 0.003408 9.086091
0.338790 0.023452 9.966509
0.761193 -0.106876 0.019748
0.621229 -0.063509 0.951435
0.798653 -0.128110 2.043473
0.549629 -0.048180 3.046816
1.123895 -0.251215 5.151230
0.637589 -0.090207 5.949533
0.095233 0.090082 6.669177
0.175278 0.059429 7.517805
0.520798 -0.061317 8.450032
0.387501 -0.020489 9.449129
0.169821 0.050301 10.108971
0.487041 -0.056408 0.403139
0.505777 -0.067788 1.159320
0.667496 -0.143029 2.427214
0.891095 -0.244544 3.603901
1.184603 -0.375248 4.564953
0.884287 -0.248697 5.226256
0.334378 -0.014183 5.799047
-0.076360 0.158430 6.810735
0.118942 0.069561 7.884583
0.535792 -0.113101 8.570185
0.472697 -0.089877 9.478870
-0.021625 0.119599 10.298907
0.713067 -0.222688 0.853345
0.728612 -0.235684 1.887307
0.605029 -0.172524 2.497012
1.171056 -0.484979 4.801168
0.649449 -0.209420 5.399275
0.083723 0.089474 6.042213
0.183299 0.030561 7.315165
0.497076 -0.140184 8.050364
0.463989 -0.126814 8.992016
0.333920 -0.061853 9.966509
0.485459 -0.148063 1.040292
0.562995 -0.203093 2.105614
0.576472 -0.216114 3.015097
0.804781 -0.368622 4.154911
0.934793 -0.455708 4.854344
0.448417 -0.146706 5.755707
0.117231 0.064077 6.290884
0.186635 0.013562 7.507794
0.466996 -0.172100 8.569023
0.433139 -0.153377 9.215600
0.208605 -0.012691 10.043442
0.386354 -0.117663 0.061475
0.329482 -0.080321 1.328819
0.678036 -0.353016 2.220193
0.622380 -0.316318 3.430013
0.818046 -0.471589 4.362839
0.697685 -0.383645 5.284050
0.277593 -0.063935 5.978580
-0.006340 0.150979 6.679651
0.188566 -0.004688 7.806274
0.469731 -0.226070 8.803564
0.382625 -0.162241 9.434198
-0.060019 0.173667 10.356498
0.416161 -0.182025 -0.580815
0.250439 -0.036427 0.310007
0.384362 -0.163129 1.258790
0.527697 -0.299520 2.419267
0.584487 -0.357914 3.682772
0.876591 -0.627940 4.584434
0.588051 -0.369352 5.196619
0.129656 0.042799 5.921750
0.262696 -0.083397 6.925248
0.436963 -0.247427 8.004819
0.453135 -0.266327 8.783739
0.356925 -0.184299 9.762138
-0.074562 0.203723 10.433014
0.283512 -0.101274 1.110212
0.481184 -0.318420 2.027400
0.384459 -0.220882 3.061018
0.542188 -0.395045 3.945035
0.496520 -0.352676 5.059427
0.248456 -0.090254 5.623029
0.019305 0.149581 6.582297
0.199026 -0.048479 7.523949
0.474597 -0.349399 8.496554
0.422361 -0.298168 9.300328
0.186315 -0.050265 10.143490
-0.050183 0.298879 -0.863675
0.029292 0.191023 0.277299
0.311126 -0.173049 1.477562
0.432230 -0.333270 2.577653
0.370010 -0.259880 3.392851
0.406056 -0.312030 4.410082
0.389660 -0.296378 5.194932
0.183207 -0.040077 5.923035
0.248339 -0.130019 7.097924
0.438648 -0.377147 8.107545
0.417267 -0.356067 9.027609
0.325605 -0.244740 9.732301
0.215509 -0.074447 1.120616
0.404144 -0.365295 2.175443
0.403374 -0.370022 2.988401
0.412618 -0.390797 3.941211
0.346316 -0.299297 5.052852
0.211168 -0.101942 5.820136
0.209007 -0.103876 6.535736
0.383419 -0.373151 7.560411
0.428626 -0.450034 8.805344
0.351971 -0.339534 9.439179
0.121176 0.002011 10.125574
0.163898 -0.004451 0.167871
0.261746 -0.194208 1.299115
0.420329 -0.494839 2.310536
0.321159 -0.322408 3.529275
0.338755 -0.361992 4.382160
0.284792 -0.269335 5.184383
0.170749 -0.065636 5.943062
0.252276 -0.224409 6.964757
0.430442 -0.561252 7.992779
0.371358 -0.460411 8.943793
0.233397 -0.213707 9.827623
-0.005247 0.221776 10.317569
0.370773 -0.508048 2.095243
0.327768 -0.418473 2.891278
0.308237 -0.384581 3.935969
0.311300 -0.399513 4.739529
0.222852 -0.208034 5.647630
0.174174 -0.107703 6.655753
0.278245 -0.353029 7.601467
0.364192 -0.555696 8.389217
0.270162 -0.351540 9.295059
0.172377 -0.137947 10.107971
0.363512 -0.615579 0.317193
0.294746 -0.428458 1.198952
0.297936 -0.450537 2.254131
0.258709 -0.350385 3.296011
0.285669 -0.438379 4.147653
0.283456 -0.441472 4.921675
0.174534 -0.140551 5.947268
0.203378 -0.237212 7.064448
0.342510 -0.646476 7.789616
0.317839 -0.586750 8.711990
0.241073 -0.374355 9.409361
0.071814 0.103154 10.193809
0.246252 -0.377911 -0.399593
0.199234 -0.208258 0.400699
0.219771 -0.304503 1.427765
0.273321 -0.528808 2.448943
0.235868 -0.398119 3.363054
0.241470 -0.433761 4.226992
0.183080 -0.222802 5.203880
0.115268 0.028160 5.967838
0.195534 -0.299731 6.981230
0.269874 -0.604242 7.971040
0.252508 -0.551360 8.874554
0.185205 -0.306047 9.866897
0.020552 0.327055 10.245255
0.209470 -0.385448 0.462397
0.220445 -0.476514 1.634083
0.219328 -0.495736 2.724631
0.200317 -0.406571 3.607358
0.200326 -0.428328 4.529147
0.165157 -0.247861 5.503236
0.134296 -0.086436 6.227588
0.168263 -0.308122 7.299271
0.200546 -0.518667 8.311324
0.190633 -0.476555 8.957612
0.174260 -0.397887 0.841299
0.181320 -0.538429 2.116015
0.175030 -0.501913 2.891278
0.164069 -0.428677 4.035238
0.160189 -0.427602 4.975616
0.145971 -0.298380 5.722033
0.133505 -0.196016 6.612443
0.150588 -0.436528 7.551809
0.161393 -0.607268 8.547270
0.145889 -0.464670 9.325025
0.116075 -0.158091 10.123476
0.143850 -0.418162 0.272515
0.138599 -0.351012 1.487246
0.136859 -0.649968 2.339581
0.132971 -0.667886 3.333660
0.127779 -0.590660 4.519685
0.124642 -0.486202 5.155248
0.120017 -0.219284 5.934393
0.116926 -0.359946 6.901577
0.114163 -0.627545 7.965101
0.109524 -0.503606 8.947697
0.105672 -0.350103 9.692882
0.099582 0.215586 10.418652
0.088667 -0.653538 0.931829
0.073259 -0.812578 1.700581
0.093235 -0.496214 2.823770
0.094464 -0.434532 3.705270
0.078053 -0.590568 4.780959
0.087491 -0.429865 5.527706
0.112436 -0.066992 6.310955
0.087495 -0.330693 7.435052
0.057320 -0.673386 8.339859
0.060509 -0.588433 9.181803
0.079951 -0.293168 10.031701
0.014661 -0.759147 0.218646
-0.001813 -0.825725 1.484593
0.005620 -0.764409 2.220193
-0.012377 -0.840282 3.472278
-0.025109 -0.897915 4.192638
-0.001268 -0.730542 5.327931
0.013491 -0.632052 5.816504
0.096762 -0.118589 6.809372
0.047238 -0.390215 7.628984
-0.012409 -0.717768 8.599112
0.020486 -0.499470 9.637485
0.094527 -0.047798 10.316313
-0.038992 -0.732126 0.823522
-0.054117 -0.773358 1.994973
-0.100682 -0.942743 3.042577
-0.139666 -1.080354 4.172542
-0.168189 -1.179200 5.110342
-0.087414 -0.847044 5.604451
0.080874 -0.157155 6.505450
0.003686 -0.453806 7.284773
-0.070422 -0.734323 8.292143
-0.048346 -0.632417 9.098001
0.035350 -0.279107 10.161406
-0.110996 -0.774598 0.467468
-0.100172 -0.728305 1.573349
-0.098783 -0.714615 2.328573
-0.297372 -1.279075 4.589362
-0.209709 -1.007433 5.370008
-0.044005 -0.502554 6.165775
0.042449 -0.236551 6.785681
-0.043365 -0.478937 7.883825
-0.125029 -0.709570 8.930897
-0.048330 -0.471540 9.642563
0.135063 0.086766 10.486107
-0.238077 -0.906326 0.973721
-0.261570 -0.950598 2.002454
-0.340924 -1.124580 3.074502
-0.464454 -1.404029 3.896838
-0.327046 -1.076722 4.600616
-0.177383 -0.720144 5.374914
-0.055126 -0.426384 6.251064
-0.050710 -0.404735 7.367915
-0.176924 -0.690520 8.182018
-0.162939 -0.647810 9.177521
-0.079981 -0.447423 9.875685
-0.365566 -0.970674 0.807728
-0.376950 -0.981926 1.972693
-0.491519 -1.184907 3.071629
-0.602100 -1.381617 4.038218
-0.430160 -1.058079 4.628190
-0.233686 -0.686615 5.510537
-0.055140 -0.347942 6.443170
-0.072793 -0.372722 7.381544
-0.234696 -0.665671 8.211600
-0.252176 -0.691602 8.975640
-0.121905 -0.441683 9.989574
-0.549262 -1.106165 0.132693
-0.377015 -0.834492 1.022732
-0.507997 -1.028891 2.001257
-0.626962 -1.203496 3.156088
-0.680670 -1.277898 4.278258
-0.658716 -1.239203 4.944173
-0.416274 -0.858652 5.947620
-0.096312 -0.362471 6.450005
-0.142961 -0.428052 7.294705
-0.297090 -0.656592 8.475227
-0.245241 -0.570852 9.281055
-0.125527 -0.380016 10.173854
-0.682112 -1.109789 0.105394
-0.509077 -0.881365 0.974657
-0.611450 -1.006051 2.059347
-0.772143 -1.206557 3.029688
-0.856746 -1.308945 4.026338
-0.768788 -1.187868 5.227006
-0.627761 -1.002625 5.793820
-0.240789 -0.500908 6.342372
-0.184762 -0.422819 7.254979
-0.306439 -0.571577 8.458346
-0.409998 -0.700718 9.095169
-0.290223 -0.540896 9.957921
-0.755816 -1.044187 0.311751
-0.585206 -0.851497 1.063256
-0.723015 -0.997971 1.991125
-0.793280 -1.067258 3.367672
-0.958228 -1.245394 4.007086
-0.836207 -1.104395 5.077826
-0.685911 -0.934880 5.701125
-0.240222 -0.437651 6.636653
-0.216311 -0.407581 7.254979
-0.341430 -0.538117 8.507742
-0.474267 -0.680933 9.129890
-0.345711 -0.534090 9.972455
-0.331553 -0.500661 -0.084441
-0.464271 -0.616352 1.169575
-0.749806 -0.874068 2.253608
-1.071313 -1.159842 4.281502
-0.847095 -0.948326 5.104618
-0.700581 -0.808662 5.908256
-0.294286 -0.429984 6.557320
-0.231435 -0.366448 7.565513
-0.515074 -0.623648 8.423260
-0.589707 -0.688050 9.248813
-0.338022 -0.450283 10.234954
-0.863279 -0.853902 0.594884
-0.888010 -0.868229 1.582994
-0.836047 -0.823392 2.398672
-1.282021 -1.161296 4.604496
-0.961598 -0.907045 5.271514
-0.618349 -0.633243 6.268471
-0.266170 -0.353614 7.037060
-0.334520 -0.402647 7.915579
-0.633766 -0.632862 8.712144
-0.624421 -0.620911 9.621851
-0.131357 -0.230961 10.395412
-0.855148 -0.723553 1.299279
-1.038801 -0.838103 2.464251
-1.380414 -1.056334 3.555782
-1.420672 -1.078015 4.526570
-0.998672 -0.797743 5.407301
-0.807194 -0.670169 5.891194
-0.385048 -0.389973 6.736106
-0.302918 -0.332100 7.601467
-0.635189 -0.543946 8.750264
-0.755424 -0.619498 9.396617
-0.415320 -0.393238 10.185455
-0.963017 -0.683664 0.130943
-0.734949 -0.556584 0.884887
-0.995103 -0.692347 2.039729
-1.673265 -1.049064 4.433377
-1.203522 -0.791141 5.149693
-0.925243 -0.637232 5.818034
-0.759661 -0.542879 6.823561
-0.498218 -0.397807 7.555473
-0.605946 -0.452209 8.431607
-0.767878 -0.536376 9.224570
-0.539414 -0.409494 9.888255
-1.018073 -0.600884 1.094449
-1.173784 -0.666129 1.903640
-0.737398 -0.469004 2.889754
-1.716575 -0.891635 5.164944
-1.369754 -0.735744 5.771951
-0.819720 -0.489254 6.565076
-0.341114 -0.274803 7.248624
-0.581283 -0.377388 8.051960
-0.879928 -0.504745 9.097987
-0.695281 -0.419317 9.975481
-1.230901 -0.576930 0.696435
-1.318640 -0.603111 1.729614
-1.122770 -0.530753 2.697113
-1.970186 -0.816376 4.967468
-1.729810 -0.730022 5.579166
-1.212714 -0.546988 6.252378
-0.364004 -0.247484 7.142872
-1.007990 -0.464432 8.893864
-1.280073 -0.466767 0.569176
-1.342270 -0.477896 1.661668
-1.360455 -0.478321 2.664972
-2.054639 -0.643390 4.985012
-1.874790 -0.595820 5.545005
-1.298485 -0.447398 6.370517
-0.586958 -0.265600 7.039552
-0.589487 -0.262097 8.040174
-1.032716 -0.369846 8.952379
-1.312291 -0.352543 1.311410
-1.197795 -0.329115 2.494418
-2.141469 -0.474164 4.564318
-2.014446 -0.450076 5.408435
-1.564747 -0.374114 6.104837
-1.023501 -0.283541 6.733155
-0.956797 -0.268088 7.866110
-1.271732 -0.316437 8.571493
-1.047697 -0.275733 9.622075
-0.559926 -0.194022 10.209739
-1.348483 -0.245230 1.535164
-1.348442 -0.241838 2.377086
-1.321276 -0.235515 3.405585
-1.756671 -0.265913 4.545706
-2.047368 -0.285837 5.398945
-1.602882 -0.246757 6.234659
-1.282435 -0.217971 6.989006
-1.300029 -0.216524 7.699902
-1.302156 -0.213342 8.532714
-1.053386 -0.189715 9.436410
-0.597359 -0.150476 10.081174
-1.253538 -0.147934 0.074410
-1.372419 -0.143700 1.263007
-1.417608 -0.139706 2.309154
-1.244135 -0.134977 3.293397
-2.058124 -0.130451 5.334186
-1.695886 -0.126248 5.975453
-1.368635 -0.121759 6.727411
-1.280551 -0.116955 7.825980
-1.330455 -0.114616 8.464876
-1.209570 -0.110991 9.232873
-0.744667 -0.105721 10.025231
-1.391193 -0.023990 1.486777
-1.483042 -0.013525 2.231743
-1.416594 -0.014711 3.278980
-1.823841 0.022650 4.336572
-2.074268 0.046870 5.296230
-1.653565 0.016024 6.128986
-1.306154 -0.008833 6.969610
-1.305542 -0.005748 7.748380
-1.263905 -0.004999 8.775240
-1.228705 -0.005802 9.286665
-0.755272 -0.040859 10.138152
-1.534643 0.114896 1.459278
-1.430896 0.102193 2.549735
-1.489735 0.115762 3.496365
-1.722519 0.157799 4.378440
-1.837521 0.181079 5.431998
-1.603631 0.145866 6.273109
-1.310433 0.100914 7.128308
-1.322614 0.105932 7.867313
-1.288412 0.103918 8.761352
-1.206787 0.092927 9.374151
-0.748263 0.021036 10.319921
-1.489963 0.230359 0.670953
-1.623470 0.268511 1.779217
-1.544922 0.252261 2.625045
-1.535935 0.254386 3.684767
-1.644776 0.285647 4.626454
-1.576709 0.271665 5.383492
-1.430697 0.239782 6.550619
-1.539159 0.269595 7.165216
-1.412805 0.241522 8.058492
-1.375119 0.235891 8.987853
-1.154203 0.183838 9.831608
-0.426871 0.002915 10.302057
-1.388155 0.319261 0.080251
-1.350319 0.311681 1.311743
-1.503905 0.367679 2.269972
-1.529758 0.380112 3.141287
-1.489796 0.371316 4.255118
-1.524880 0.386612 5.065443
-1.518472 0.389061 6.155304
-1.589716 0.415815 6.783460
-1.458504 0.375615 7.768919
-1.379147 0.351987 8.526438
-1.272571 0.320054 9.496650
-0.961687 0.218160 10.261939
-1.359934 0.439148 0.844714
-1.609421 0.551352 1.712287
-1.394781 0.463132 2.866039
-1.510468 0.516520 3.578909
-1.567105 0.545838 4.655252
-1.574824 0.553218 5.575532
-1.595296 0.565867 6.433579
-1.502498 0.529504 7.338821
-1.419519 0.497165 8.188546
-1.419728 0.500594 8.951565
-1.140195 0.382787 9.787782
-0.428635 0.076885 10.539281
-1.341429 0.574893 1.020890
-1.450214 0.639319 2.116002
-1.355909 0.592375 3.114782
-1.454971 0.649952 3.873426
-1.442000 0.647496 4.885929
-1.456639 0.660425 5.965200
-1.565207 0.723004 6.682121
-1.474048 0.677942 7.716827
-1.474181 0.680817 8.329814
-1.343557 0.613438 9.198077
-1.024675 0.443405 10.104376
-1.276679 0.661329 0.110252
-1.260555 0.656496 1.292754
-1.405887 0.755211 2.154473
-1.355407 0.727221 3.170777
-1.393317 0.757120 4.262258
-1.315336 0.709828 4.985588
-1.298929 0.703709 5.938059
-1.454548 0.809120 6.799914
-1.389623 0.770916 7.646584
-1.377722 0.768429 8.745153
-1.284818 0.711474 9.478667
-0.898025 0.463498 10.266438
-1.081854 0.668445 0.468585
-1.267949 0.819562 1.526744
-1.252346 0.812162 2.472215
-1.280312 0.838789 3.399954
-1.310241 0.868358 4.603327
-1.354336 0.906803 5.371989
-1.358540 0.915104 6.354673
-1.430008 0.974487 7.025633
-1.345835 0.913561 8.004401
-1.324602 0.900737 8.750734
-1.194060 0.802962 9.623516
-0.763178 0.468513 10.204701
-1.337090 1.051864 1.712287
-1.192136 0.922833 2.635306
-1.227327 0.960703 3.608624
-1.311305 1.043836 4.607260
-1.328997 1.064915 5.470004
-1.304263 1.047671 6.500738
-1.354948 1.098174 7.163512
-1.273566 1.028401 8.170167
-1.222636 0.986471 9.117607
-1.096198 0.874005 9.937695
-0.601212 0.419517 10.550870
-1.167421 1.083707 2.096762
-1.088587 1.003530 3.181695
-1.075792 0.995264 4.153996
-1.029962 0.950112 5.029458
-1.162100 1.099412 5.712081
-1.222640 1.172361 6.787579
-1.156645 1.105884 7.803350
-1.163800 1.117780 8.479798
-1.093193 1.044204 9.155134
-0.823991 0.754771 10.235685
-1.109414 1.208675 1.537952
-1.015648 1.093817 2.472215
-1.015777 1.098816 3.209978
-1.030257 1.124532 4.284026
-1.059485 1.168838 5.291048
-1.116535 1.248041 6.145849
-1.125018 1.265626 7.159840
-1.132871 1.279821 7.780195
-1.066806 1.200814 8.731503
-0.985118 1.100062 9.440062
-0.669405 0.697890 10.228069
-0.917292 1.165567 1.971391
-0.930287 1.191393 2.759921
-0.907950 1.163823 3.687555
-0.878478 1.126559 4.791172
-0.940990 1.230213 5.791212
-0.993437 1.316174 6.493700
-1.000899 1.333283 7.255788
-0.978829 1.306167 8.189382
-0.932669 1.241654 9.083381
-0.827763 1.257402 2.308648
-0.803795 1.220079 3.163045
-0.810686 1.239668 3.963298
-0.717725 1.075298 4.960897
-0.748194 1.141177 6.051463
-0.874913 1.383906 6.895943
-0.865827 1.373100 7.614432
-0.828728 1.313660 8.739572
-0.777436 1.224278 9.444611
-0.619235 0.936626 10.206442
-0.689304 1.249879 2.434350
-0.677784 1.232882 3.374893
-0.703676 1.300527 4.191368
-0.644188 1.172702 5.062109
-0.698149 1.305288 5.928409
-0.769403 1.478467 6.883527
-0.728393 1.394622 7.909174
-0.749693 1.450625 8.616167
-0.709255 1.364374 9.271673
-0.541250 0.987868 10.186949
-0.596680 1.338410 2.539768
-0.586016 1.318118 3.421603
-0.575156 1.298841 4.431494
-0.585269 1.340538 5.402824
-0.637553 1.504635 6.280278
-0.665082 1.594675 7.035214
-0.627645 1.498408 8.116143
-0.619437 1.482001 8.731503
-0.569391 1.345124 9.517282
-0.417134 0.907392 10.193459
-0.540019 1.595929 1.750654
-0.484426 1.387119 2.530114
-0.468027 1.337550 3.489249
-0.473043 1.371655 4.344537
-0.488840 1.449999 5.275513
-0.524302 1.606347 6.181883
-0.521058 1.608165 7.076455
-0.512614 1.587108 7.841136
-0.487622 1.505722 8.948624
-0.452566 1.376275 9.575220
-0.325849 0.884046 10.365173
-0.396477 1.563379 1.856092
-0.374121 1.448486 2.664239
-0.373159 1.467032 3.657686
-0.381633 1.538464 4.489259
-0.383893 1.574414 5.400819
-0.384214 1.605185 6.577538
-0.385516 1.626896 7.143617
-0.353610 1.462776 8.290874
-0.364292 1.545506 9.040628
-0.330105 1.358791 9.826507
-0.217498 0.698324 10.560724
-0.255845 1.521249 1.894326
-0.246107 1.444711 2.808584
-0.249980 1.534796 3.618253
-0.233470 1.385474 4.783132
-0.244532 1.559146 5.450831
-0.250995 1.688310 6.385631
-0.239787 1.600251 7.438286
-0.233789 1.567257 8.279607
-0.224830 1.502789 9.237527
-0.131211 1.583061 1.913794
-0.127671 1.429432 2.885849
-0.123476 1.402076 3.947344
-0.120184 1.372905 4.784770
-0.116110 1.419158 5.773260
-0.111581 1.580375 6.808229
-0.108172 1.522069 7.691802
-0.105424 1.533581 8.370028
-0.102141 1.467202 9.227031
-0.100048 1.258763 9.870253
-0.021602 1.353919 1.447562
-0.007796 1.474463 2.318454
-0.009864 1.410853 3.154712
-0.006007 1.408325 4.166149
-0.010046 1.315626 5.129951
0.008525 1.498083 5.870525
0.022052 1.602193 7.020892
0.016674 1.503538 7.778562
0.017482 1.478578 8.508886
0.013556 1.385364 9.511793
-0.015323 1.012253 10.256661
0.108102 1.457268 0.532782
0.132066 1.570778 1.624179
0.129387 1.533087 2.558200
0.125091 1.487483 3.429652
0.125725 1.465494 4.514148
0.122747 1.422620 5.593966
0.160082 1.625456 6.196221
0.159825 1.598049 7.290736
0.147741 1.512979 7.916201
0.131735 1.392127 9.089936
0.124970 1.341322 9.574533
0.016565 0.692608 10.350514
0.236632 1.475011 0.943681
0.265162 1.570316 1.904174
0.221979 1.386729 2.896036
0.226937 1.390293 3.871100
0.235510 1.411368 4.630042
0.243571 1.423997 5.790362
0.310833 1.673875 6.488597
0.262692 1.470429 7.518611
0.227357 1.318197 8.455187
0.246528 1.382876 9.060924
0.190096 1.151261 9.841342
0.185849 0.975125 0.006245
0.319708 1.345943 1.379798
0.359531 1.450337 2.270209
0.333318 1.363305 3.174052
0.345353 1.386680 4.108149
0.354734 1.403259 4.969716
0.379310 1.461762 6.000960
0.397672 1.502569 7.007497
0.387013 1.463956 7.637336
0.367990 1.397739 8.541797
0.334504 1.291816 9.268602
0.187181 0.852042 10.332265
0.420595 1.301910 0.677071
0.529400 1.538159 1.759785
0.437348 1.318142 2.867543
0.429829 1.293439 3.634368
0.459806 1.351491 4.639706
0.426246 1.266197 5.554062
0.425102 1.255614 6.356388
0.476429 1.362561 7.319177
0.429913 1.247015 8.317651
0.432157 1.246619 8.869311
0.569615 1.320363 1.069184
0.604116 1.375317 1.990711
0.511427 1.199714 2.878868
0.384881 0.961742 3.877938
0.561779 1.265989 5.898976
0.489866 1.129715 6.592027
0.550200 1.231826 7.480440
0.523705 1.176588 8.340934
0.486493 1.102247 9.159578
0.322481 0.796543 10.126902
0.676967 1.274464 0.512670
0.778516 1.420635 1.460354
0.627984 1.186619 2.444873
0.628179 1.180357 3.348292
0.806974 1.441843 4.448130
0.853528 1.504605 5.468106
0.587932 1.099114 6.184998
0.497943 0.957948 6.948541
0.604855 1.112897 7.800432
0.572224 1.057117 8.710062
0.510898 0.959101 9.480489
0.202235 0.488031 10.289944
0.670159 1.071390 0.909756
0.837038 1.277037 1.739746
0.625109 1.001859 2.852691
0.353776 0.655860 3.301853
1.045704 1.515860 5.609712
0.726325 1.107730 6.271761
0.533837 0.857029 7.401151
0.655571 1.006679 8.062789
0.626470 0.964184 8.943647
0.832520 1.091260 1.155762
0.806113 1.056841 2.213305
0.719795 0.959122 3.150821
1.218795 1.479611 5.296682
1.117134 1.367764 5.848743
0.701333 0.918706 6.675572
0.577201 0.780362 7.652019
0.760591 0.971527 8.461401
0.687664 0.887950 9.427024
0.461919 0.642929 10.083668
0.513647 0.658730 0.289902
0.715760 0.836624 1.406722
0.818473 0.924469 2.446210
0.949747 1.039688 3.231369
1.177386 1.239520 4.586695
1.329564 1.373210 5.474265
1.045451 1.111113 6.121559
0.610268 0.712308 6.623851
0.540605 0.642715 7.764741
0.711474 0.792883 8.750651
0.624431 0.709307 9.553281
0.331312 0.439950 10.027834
0.982137 0.930855 0.529708
0.970726 0.916916 1.554337
0.825336 0.800421 2.524851
0.399585 0.470489 3.151471
1.365756 1.199628 5.602087
1.030598 0.939756 6.124008
0.439633 0.481712 7.009918
0.509690 0.531637 7.769908
0.764623 0.722612 8.696309
0.623253 0.609852 9.538399
0.138996 0.234783 10.211315
0.807095 0.683884 1.318414
0.951093 0.772521 2.204430
0.880327 0.723276 2.959806
1.132986 0.880103 4.240918
1.458536 1.084716 5.359167
1.194924 0.910701 6.198682
0.705090 0.592037 6.777640
0.601381 0.521545 7.533620
0.744669 0.608648 8.644796
0.740340 0.602924 9.259122
0.385567 0.370031 10.116994
0.524399 0.443112 -0.272180
0.946492 0.663282 0.907892
1.071931 0.725470 1.971529
0.891077 0.624991 2.816231
1.094597 0.729096 3.836782
1.321641 0.845122 4.999770
1.261884 0.810772 5.531892
0.956263 0.643855 6.326413
0.217554 0.245179 7.196910
0.771274 0.533458 8.865760
0.566893 0.420273 9.740271
0.838857 0.512020 1.494388
0.988608 0.572854 2.408786
0.525185 0.369576 3.014115
1.271999 0.681830 5.545656
1.072628 0.592794 6.168122
0.352806 0.279124 6.633099
0.163149 0.192735 7.612297
0.687747 0.415722 8.556735
0.720765 0.426070 9.459685
0.156529 0.177545 10.431058
1.044547 0.500147 0.780341
1.127480 0.523699 1.835790
0.903922 0.444575 2.682596
1.536622 0.648132 5.097057
1.339997 0.578963 5.742075
0.836252 0.406424 6.292348
0.282229 0.215859 7.087303
0.308085 0.219816 8.215894
0.710813 0.351795 9.183684
0.622695 0.318975 9.902825
1.019128 0.395628 1.299075
1.073197 0.404838 2.331215
0.643868 0.294561 3.118746
0.223200 0.174083 6.895301
0.080734 0.136254 7.455400
0.486329 0.233059 8.495273
0.640635 0.267191 9.543127
0.234598 0.162947 10.275626
1.005887 0.302003 0.778419
1.093255 0.311946 1.767819
1.091825 0.307658 2.766859
1.339240 0.341820 4.091259
0.608664 0.215369 6.475790
0.078559 0.128071 7.109514
0.277595 0.155619 8.158787
0.590406 0.201596 9.147416
0.460579 0.177105 10.068230
0.902615 0.197506 2.353988
0.675160 0.179039 2.934194
1.011951 0.194128 5.122164
0.533274 0.157390 5.814509
0.209216 0.131355 6.572466
0.115807 0.121379 7.405300
0.498997 0.143817 8.584470
0.593298 0.147008 9.454162
0.301666 0.123401 10.180331
0.825705 0.132590 1.651432
0.852314 0.129306 2.442795
0.924059 0.125595 3.294582
1.094995 0.120302 4.439703
0.803709 0.117650 5.397574
0.439063 0.116770 5.988571
0.233292 0.114735 6.705748
0.265223 0.110758 7.664406
0.517156 0.105276 8.773828
0.525718 0.101995 9.582870
0.021372 0.101456 10.231575
1.027306 0.050933 0.827274
0.942669 0.053638 1.973566
0.902092 0.054321 2.675328
1.654657 -0.019735 4.900367
1.055146 0.028899 5.700673
0.341761 0.088353 6.260045
0.117848 0.104462 7.069418
0.321860 0.082245 8.204414
0.534714 0.060319 9.077142
0.384057 0.069812 9.955835
0.853469 -0.008702 2.130833
0.457549 0.055099 2.942874
0.922829 -0.032664 5.130322
0.493640 0.036449 6.022671
0.250972 0.075586 6.512525
0.152438 0.088425 7.461577
0.437862 0.035384 8.607626
0.532816 0.015785 9.468945
0.207449 0.067704 10.262411
0.773228 -0.059104 0.665605
0.784082 -0.064955 1.386309
0.801615 -0.073722 2.385463
0.950817 -0.118617 3.727675
1.181725 -0.183201 4.624889
0.811819 -0.088510 5.301500
0.281477 0.047745 6.152384
-0.080442 0.140699 6.740135
0.074336 0.095013 7.918828
0.524895 -0.027332 8.783739
0.440483 -0.008833 9.687392
-0.125657 0.138133 10.231021
0.644915 -0.080471 0.892140
0.795388 -0.138005 1.916257
0.657773 -0.093792 2.954850
0.958501 -0.204662 4.034407
1.307237 -0.332474 5.108703
0.884401 -0.186232 5.857204
0.122838 0.079872 6.568862
0.168650 0.060789 7.248798
0.486090 -0.055756 8.274358
0.432551 -0.040332 9.096028
0.262835 0.015829 9.992609
0.432723 -0.034846 -0.008137
0.454383 -0.050076 1.288353
0.698890 -0.162437 2.338432
0.710725 -0.171113 3.127607
0.888413 -0.254760 4.344842
0.922842 -0.273908 5.251401
0.432874 -0.060325 5.788176
0.089470 0.086509 6.816304
0.307269 -0.013266 7.680451
0.575308 -0.135431 8.601053
0.442012 -0.080142 9.389494
0.068468 0.081012 10.181350
0.541371 -0.139470 0.732642
0.617807 -0.185949 1.662519
0.667231 -0.216839 2.446319
0.881903 -0.341106 3.689714
1.192895 -0.517521 4.704132
0.671155 -0.232134 5.310490
0.061431 0.101259 6.045238
0.155179 0.043993 7.242488
0.412232 -0.102014 8.122201
0.437735 -0.120678 9.121078
0.412960 -0.109909 9.756952
0.438597 -0.122617 0.362702
0.474800 -0.152868 1.634364
0.633525 -0.263050 2.554186
0.862584 -0.420943 3.650536
1.123721 -0.600375 4.781753
0.565423 -0.231702 5.463303
0.024692 0.126561 5.876165
0.194180 0.008759 6.889132
0.442642 -0.162269 8.028704
0.496982 -0.201874 8.734188
0.370663 -0.122959 9.821824
-0.124447 0.203272 10.574522
0.309356 -0.064320 0.210478
0.347136 -0.099377 1.209419
0.576701 -0.287716 2.457483
0.794427 -0.465459 3.468928
0.964249 -0.605260 4.485292
0.513060 -0.252041 5.341837
0.056167 0.107363 5.873217
0.183284 0.000661 7.035775
0.444995 -0.211392 7.939387
0.456032 -0.224869 8.863052
0.412469 -0.194154 9.607927
-0.082420 0.194069 10.392600
0.209990 -0.002560 0.249159
0.329581 -0.120211 1.298922
0.502406 -0.289186 2.625598
0.638700 -0.421685 3.533640
0.894259 -0.665958 4.477130
0.539565 -0.339528 5.460896
0.101933 0.067611 5.877406
0.236233 -0.063445 6.862220
0.438547 -0.258834 7.975066
0.457240 -0.280493 8.734188
0.374378 -0.207855 9.622943
-0.093359 0.225145 10.459098
0.403914 -0.236950 0.332906
0.482322 -0.336274 2.400141
0.341460 -0.185816 3.356949
0.629188 -0.515585 5.148533
0.271611 -0.123773 5.928684
0.258025 -0.115653 7.087942
0.494888 -0.383212 7.909733
0.504673 -0.398836 8.706523
0.329363 -0.208838 9.439179
-0.051472 0.207605 10.412806
0.275020 -0.130633 0.850943
0.464077 -0.385757 2.026946
0.373124 -0.274166 3.148179
0.425570 -0.348864 4.068375
0.402973 -0.324558 4.864308
0.203736 -0.068998 5.638410
0.088100 0.075109 6.726231
0.279056 -0.181009 7.676549
0.415603 -0.366126 8.654937
0.345190 -0.278229 9.295059
0.144952 -0.022124 10.184642
0.244357 -0.123619 0.930807
0.437596 -0.432579 1.997276
0.394854 -0.372920 2.929948
0.380553 -0.358028 3.924488
0.319100 -0.270412 5.017585
0.210298 -0.105580 5.645703
0.203572 -0.101215 6.468972
0.362173 -0.355717 7.468698
0.424953 -0.460754 8.442834
0.320867 -0.305857 9.419295
0.158971 -0.059141 10.159040
0.225654 -0.122594 0.239752
0.256852 -0.189345 1.189763
0.400650 -0.470452 2.458154
0.389243 -0.455357 3.200921
0.321366 -0.337970 4.393926
0.290171 -0.285665 5.134642
0.164484 -0.056681 5.983124
0.256518 -0.238442 7.011112
0.415272 -0.545967 8.081559
0.414724 -0.550454 8.727324
0.258185 -0.263249 9.548658
0.024948 0.169002 10.265673
0.155110 -0.004077 0.449599
0.264877 -0.268812 1.487246
0.365195 -0.512075 2.565490
0.317325 -0.411317 3.564909
0.289604 -0.357275 4.568865
0.240675 -0.250025 5.169185
0.148645 -0.045140 5.986071
0.239271 -0.266087 7.077343
0.330850 -0.490242 8.267555
0.318036 -0.467453 8.948385
0.274306 -0.388205 0.682202
0.348759 -0.629175 1.740556
0.280168 -0.433326 2.794017
0.257538 -0.378349 3.889472
0.277779 -0.450213 4.670124
0.215111 -0.269669 5.508053
0.100739 0.067428 6.448046
0.195243 -0.232061 7.296627
0.322759 -0.632950 8.191878
0.267878 -0.476282 9.037514
0.174757 -0.203878 9.962654
0.238784 -0.397459 1.208996
0.254726 -0.478143 2.116536
0.233516 -0.407197 3.059923
0.232976 -0.421627 4.043523
0.222612 -0.395103 4.985549
0.175759 -0.217318 5.824530
0.167754 -0.200895 6.792286
0.239441 -0.507569 7.556685
0.257715 -0.599303 8.552837
0.206117 -0.403802 9.493785
0.124572 -0.083298 10.299299
0.245860 -0.642673 0.137382
0.230374 -0.572808 1.218661
0.228372 -0.587642 2.291352
0.188107 -0.360030 3.307202
0.198146 -0.440111 3.965740
0.185430 -0.384191 4.910432
0.139604 -0.121732 5.933048
0.163954 -0.300980 6.944828
0.206935 -0.598301 7.984863
0.204593 -0.605436 8.840383
0.177011 -0.445130 9.364719
0.102638 -0.002856 10.386629
0.173147 -0.444452 0.801687
0.175412 -0.547644 2.164992
0.173927 -0.565615 2.869590
0.160903 -0.451450 3.975665
0.156637 -0.445561 4.925967
0.142938 -0.308866 5.779115
0.138011 -0.277563 6.419525
0.149612 -0.487712 7.458781
0.155604 -0.622635 8.487982
0.143084 -0.498910 9.290414
0.122950 -0.272132 10.061626
0.138025 -0.597291 0.365120
0.133771 -0.474130 1.585030
0.129395 -0.619609 2.487128
0.124577 -0.668468 3.624875
0.121424 -0.740783 4.316985
0.119051 -0.354851 5.408457
0.117288 -0.220871 6.021426
0.112417 -0.417402 6.980872
0.107205 -0.689411 7.927649
0.103990 -0.641500 8.790989
0.101943 -0.423806 9.583192
0.101592 0.231834 10.519782
0.082490 -0.583557 1.159300
0.060412 -0.775763 2.053675
0.074894 -0.581448 3.094234
0.071622 -0.571454 4.144319
0.049575 -0.758545 5.152821
0.074227 -0.465880 6.015554
0.105553 -0.105816 6.829423
0.071535 -0.424049 7.680955
0.048036 -0.621801 8.795459
0.056022 -0.511926 9.434238
0.084802 -0.185670 10.073451
-0.006548 -0.840039 0.041572
0.051622 -0.495286 1.000569
0.013288 -0.680304 2.231540
-0.027676 -0.887417 3.131695
-0.014128 -0.787795 4.208689
0.001892 -0.679043 5.082575
0.020303 -0.558495 5.891065
0.074392 -0.238766 6.745709
0.021276 -0.515889 7.534403
-0.006363 -0.645653 8.582470
0.008250 -0.549030 9.265771
0.070782 -0.178619 10.288026
-0.053483 -0.753201 0.347808
-0.048179 -0.717375 1.356806
-0.043742 -0.686159 2.280353
-0.149312 -1.038494 5.225562
-0.042291 -0.622120 6.018709
0.077837 -0.155005 6.892615
0.000835 -0.431802 7.776457
-0.071385 -0.687870 8.831412
-0.034794 -0.538294 9.563053
0.074558 -0.112130 10.419597
-0.181163 -0.926551 0.529916
-0.146639 -0.816889 1.602405
-0.147826 -0.810632 2.404585
-0.214712 -0.983174 3.667759
-0.304966 -1.225431 4.582798
-0.162807 -0.816688 5.414955
-0.018543 -0.402992 6.167484
0.013804 -0.302204 7.008113
-0.095807 -0.599232 7.883981
-0.146289 -0.729634 8.822498
-0.071914 -0.512318 9.548238
0.166590 0.167036 10.408542
-0.408060 -1.246454 0.145114
-0.214089 -0.808607 1.081193
-0.268617 -0.919496 2.070981
-0.375158 -1.143916 3.208386
-0.473322 -1.352966 4.022372
-0.427833 -1.243947 4.893012
-0.249713 -0.840835 5.859725
-0.011584 -0.307170 6.612625
-0.071304 -0.429992 7.555575
-0.209324 -0.726531 8.431607
-0.188791 -0.671720 9.400044
-0.061718 -0.385441 9.955835
-0.344975 -0.911902 0.461364
-0.286723 -0.796742 1.690601
-0.485703 -1.147148 2.687398
-0.620617 -1.381119 3.800384
-0.525033 -1.200973 4.750975
-0.369295 -0.914013 5.506918
-0.201480 -0.606285 6.141635
-0.024841 -0.282468 6.798892
-0.118178 -0.441780 7.877859
-0.287756 -0.740554 8.709814
-0.225175 -0.620497 9.587557
0.076615 -0.070177 10.356490
-0.383787 -0.832228 -0.005983
-0.335789 -0.752212 1.110679
-0.396756 -0.835099 2.285816
-0.555163 -1.065309 3.285364
-0.602604 -1.129041 4.305775
-0.509429 -0.983452 5.125942
-0.369931 -0.769108 5.852439
-0.079348 -0.328227 6.589448
-0.128066 -0.393619 7.645038
-0.301432 -0.648086 8.390705
-0.286050 -0.618948 9.232024
-0.147916 -0.406386 9.994898
-0.549295 -0.904376 0.699806
-0.572516 -0.928109 1.494638
-0.601283 -0.957773 2.438019
-0.729612 -1.108745 3.731237
-0.879706 -1.290200 4.481007
-0.679741 -1.035883 5.448231
-0.389514 -0.672078 6.022189
-0.024240 -0.212616 6.992194
-0.146519 -0.358126 7.965404
-0.370607 -0.630333 8.881616
-0.346853 -0.594800 9.829047
0.029857 -0.123124 10.489802
-0.704317 -0.954260 0.839747
-0.724797 -0.969794 1.913546
-0.852495 -1.100771 2.790646
-1.093013 -1.350556 3.915553
-0.922879 -1.164142 4.778301
-0.651414 -0.870940 5.431866
-0.353424 -0.549423 6.092241
-0.036291 -0.206543 6.915672
-0.207899 -0.383304 7.967265
-0.483781 -0.671894 8.903087
-0.429570 -0.608074 9.931926
-0.730752 -0.846562 1.054446
-0.801636 -0.905580 1.981517
-0.928997 -1.014540 3.107683
-1.167329 -1.224791 4.040167
-1.149326 -1.204032 4.871565
-0.862097 -0.940293 5.662910
-0.487297 -0.597769 6.394930
-0.291039 -0.416282 7.172052
-0.288281 -0.408667 8.119781
-0.497295 -0.591190 9.282090
-0.474918 -0.566586 10.094186
-0.768727 -0.752521 1.151999
-0.883511 -0.834329 2.097905
-1.356316 -1.180385 4.186995
-1.091365 -0.975703 5.157519
-0.879832 -0.813655 5.659917
-0.548457 -0.559831 6.441227
-0.333585 -0.393788 7.237943
-0.422275 -0.456143 8.138994
-0.660084 -0.629435 9.342189
-0.560224 -0.550919 9.980654
-0.577888 -0.534439 -0.079421
-0.750511 -0.637922 1.111886
-0.907782 -0.731154 2.418142
-1.471259 -1.077583 4.487051
-0.964595 -0.753629 5.250318
-0.723889 -0.598717 5.825299
-0.499818 -0.452711 6.739945
-0.351804 -0.355531 7.498452
-0.517731 -0.455143 8.613296
-0.669378 -0.546442 9.577667
-0.455828 -0.408945 10.100948
-0.979652 -0.668951 0.476183
-1.000124 -0.675094 1.475654
-1.092810 -0.717682 2.734459
-1.522919 -0.936359 3.923235
-1.805920 -1.079725 4.819929
-1.516906 -0.926168 5.483486
-1.030829 -0.669521 6.243293
-0.435617 -0.356633 6.868256
-0.426921 -0.348809 7.596299
-0.839303 -0.558281 8.778759
-0.817039 -0.543422 9.499517
-0.263349 -0.251645 10.239053
-1.036088 -0.590380 0.947703
-1.131006 -0.626741 1.845480
-0.707805 -0.443085 2.784025
-1.795304 -0.894723 5.030172
-1.372234 -0.711487 5.885320
-0.861809 -0.492134 6.523018
-0.443136 -0.311807 7.138831
-0.596902 -0.372331 8.221463
-0.907857 -0.500384 9.113025
-0.656807 -0.389567 10.098765
-1.120147 -0.511761 1.544000
-1.348956 -0.581953 2.731784
-1.868599 -0.748469 3.746640
-1.988711 -0.783502 4.799676
-1.765088 -0.706674 5.586817
-1.334396 -0.562861 6.119132
-0.515676 -0.290646 6.855079
-0.481869 -0.276042 7.681664
-0.954296 -0.426917 8.725612
-0.908151 -0.408253 9.553421
-0.325702 -0.213934 10.233542
-1.035790 -0.391360 0.956208
-1.233883 -0.434327 2.068338
-1.087234 -0.396480 2.708409
-2.082617 -0.625669 5.076806
-1.790051 -0.552628 5.756566
-1.173006 -0.401168 6.562877
-0.723436 -0.290597 7.203241
-0.838461 -0.314248 8.163840
-1.089353 -0.370798 9.056135
-0.849063 -0.309665 9.891383
-1.278609 -0.332016 1.398607
-1.320919 -0.334643 2.328923
-2.014884 -0.429649 4.794113
-2.026677 -0.429357 5.305718
-1.557260 -0.354928 6.143302
-1.034726 -0.273585 6.703866
-0.942958 -0.255126 7.830687
-1.163618 -0.284412 8.842006
-1.077716 -0.269298 9.363443
-0.554941 -0.186598 10.249314
-1.393508 -0.241148 0.756453
-1.497290 -0.244382 1.826645
-1.559498 -0.244188 2.998024
-2.029388 -0.273953 4.083754
-2.151118 -0.279361 4.937693
-1.879804 -0.256328 5.764106
-1.374577 -0.217083 6.396928
-1.113930 -0.194779 7.234930
-1.237352 -0.199577 8.271054
-1.206098 -0.194045 9.081799
-1.681131 -0.120341 0.286215
-1.417979 -0.119374 1.351103
-1.460377 -0.115655 2.145072
-1.482159 -0.111837 3.028530
-1.862795 -0.102570 4.146665
-2.039450 -0.095656 5.316850
-1.721679 -0.096975 5.982824
-1.367759 -0.098394 6.737090
-1.241277 -0.095779 7.784574
-1.291596 -0.091718 8.639379
-1.209055 -0.089845 9.364429
-0.797348 -0.092367 10.024649
-1.416290 -0.002701 1.554945
-1.411730 0.000566 2.473017
-1.453437 0.008226 3.392627
-1.806315 0.046282 4.534842
-1.983655 0.067272 5.571716
-1.611037 0.033719 6.011007
-1.300801 0.008250 6.989006
-1.392666 0.019860 7.708878
-1.330178 0.017513 8.596526
-1.135214 0.002142 9.368551
-0.639760 -0.041401 10.218710
-1.433820 0.118057 0.522331
-1.524265 0.138924 1.604398
-1.440359 0.127670 2.588051
-1.459608 0.134608 3.430451
-1.686387 0.180123 4.474302
-1.828209 0.209909 5.451098
-1.572791 0.167184 6.369289
-1.427240 0.143933 7.161204
-1.363837 0.136245 8.104547
-1.351099 0.137744 9.040545
-1.229405 0.117481 9.500938
-0.509322 -0.010448 10.255768
-1.549108 0.284753 2.010100
-1.457502 0.263106 2.837085
-1.452491 0.265865 3.830336
-1.613225 0.313828 4.778617
-1.503483 0.288227 5.849012
-1.466330 0.280369 6.405840
-1.421098 0.272129 7.402904
-1.405517 0.271056 8.170749
-1.328938 0.254289 9.181422
-1.453649 0.384265 1.478232
-1.443326 0.384173 2.337582
-1.484513 0.402739 3.170777
-1.448252 0.394891 4.427314
-1.478055 0.408648 5.105704
-1.476187 0.412943 6.270870
-1.508123 0.427919 7.052691
-1.463388 0.414429 7.711077
-1.461559 0.417819 8.660926
-1.285863 0.357426 9.511387
-0.877615 0.211451 10.165468
-1.424248 0.490920 0.553684
-1.456442 0.510554 1.701205
-1.401382 0.489692 2.625995
-1.447088 0.514051 3.456995
-1.543235 0.561754 4.401410
-1.486080 0.540449 5.441209
-1.478356 0.541536 6.482208
-1.498214 0.552987 7.040125
-1.365338 0.497858 8.186338
-1.413501 0.522015 8.718769
-1.179652 0.420282 9.666326
-0.684068 0.198378 10.242027
-1.380056 0.610773 1.031628
-1.466992 0.663640 1.990929
-1.341657 0.599377 3.210649
-1.457610 0.668274 4.138410
-1.489170 0.689198 4.863526
-1.511445 0.705660 5.744223
-1.534076 0.723451 6.871141
-1.450728 0.681228 7.793733
-1.460120 0.689102 8.368260
-1.344697 0.629508 9.401465
-1.027798 0.456512 10.196695
-1.263223 0.688683 0.883971
-1.402616 0.787975 1.865706
-1.272099 0.703522 2.703219
-1.300794 0.728259 3.791741
-1.394736 0.796534 4.733585
-1.464332 0.848259 5.667463
-1.558277 0.915092 6.311340
-1.461301 0.854835 7.447998
-1.431228 0.837522 8.083734
-1.390377 0.813404 8.823596
-1.204639 0.691904 9.744256
-0.666174 0.329664 10.349472
-1.266745 0.841654 1.313612
-1.233801 0.820603 2.366526
-1.261523 0.847264 3.218960
-1.346882 0.920185 4.061511
-1.224626 0.826571 4.958349
-1.217619 0.826517 6.041890
-1.401913 0.978616 6.823197
-1.314146 0.913141 7.803350
-1.301213 0.907398 8.706667
-1.255400 0.873695 9.310212
-0.910488 0.601353 10.240908
-1.308127 1.058063 1.692820
-1.161872 0.923971 2.625995
-1.205385 0.971007 3.637514
-1.259503 1.028290 4.675909
-1.350121 1.119006 5.475796
-1.318455 1.095233 6.627250
-1.350551 1.128962 7.198860
-1.244714 1.033992 8.247041
-1.214016 1.008756 8.967868
-1.083234 0.888206 9.686220
-0.633947 0.463556 10.255463
-1.178641 1.110731 1.904302
-1.111669 1.041105 2.731002
-1.097950 1.032362 3.819667
-1.132460 1.075677 4.632206
-1.172012 1.125245 5.550697
-1.202433 1.165335 6.584524
-1.197646 1.164535 7.339105
-1.137957 1.104317 8.381667
-1.094925 1.062082 9.329485
-0.957989 0.912522 9.821677
-0.994264 1.098678 2.366526
-1.021381 1.140166 3.190047
-1.074465 1.217080 4.156484
-0.979951 1.097088 4.977652
-0.975362 1.098720 6.136019
-1.101365 1.271832 7.012198
-1.061542 1.223729 7.726438
-1.031479 1.190678 8.754776
-0.979662 1.127556 9.604539
-0.742579 0.816617 10.172630
-1.031900 1.377156 1.856832
-0.917646 1.201460 2.491256
-0.935308 1.236310 3.418464
-0.952200 1.271516 4.555215
-0.978575 1.319010 5.333560
-0.972927 1.317748 6.354673
-1.000181 1.366134 7.066863
-0.939540 1.277082 7.963393
-0.912424 1.242180 9.020220
-0.848036 1.145518 9.691154
-0.543108 0.669164 10.391168
-0.830174 1.311611 1.807514
-0.738787 1.144044 2.868072
-0.766079 1.205779 3.889343
-0.818856 1.314071 4.595146
-0.816613 1.317966 5.537472
-0.829237 1.351864 6.621276
-0.874269 1.444688 7.271940
-0.836275 1.379859 8.266265
-0.795616 1.309164 9.179705
-0.724838 1.369961 2.135270
-0.682387 1.281838 3.325797
-0.698820 1.329701 4.199774
-0.665371 1.257673 4.886164
-0.686078 1.318918 6.078117
-0.750587 1.481880 7.088976
-0.718312 1.413512 7.861062
-0.707551 1.397666 8.793275
-0.681028 1.342708 9.546675
-0.518842 0.966024 10.211643
-0.602845 1.402305 1.932867
-0.563476 1.294653 2.876696
-0.580220 1.357851 3.830336
-0.558502 1.303520 4.744458
-0.560419 1.322074 5.734606
-0.604359 1.468230 6.705160
-0.610341 1.497169 7.540808
-0.608906 1.501752 8.237429
-0.576428 1.416723 9.310212
-0.494328 1.488990 2.154497
-0.464351 1.383665 3.306483
-0.463778 1.396846 4.210670
-0.434730 1.290355 5.069967
-0.465892 1.436513 6.000960
-0.503216 1.611056 7.086047
-0.489310 1.564460 7.751898
-0.482240 1.548737 8.552818
-0.457207 1.457422 9.319849
-0.362041 1.074311 10.147968
-0.361184 1.510378 2.193008
-0.344114 1.425926 3.287174
-0.352152 1.497682 3.951474
-0.314822 1.273897 4.902707
-0.327999 1.385608 5.773260
-0.353551 1.590209 7.017980
-0.357052 1.630403 7.636675
-0.339337 1.536493 8.541391
-0.318106 1.421539 9.536592
-0.274488 1.143976 10.055212
-0.239218 1.538457 2.183379
-0.225370 1.403576 3.336221
-0.225603 1.457905 4.201018
-0.212833 1.325509 5.128076
-0.219629 1.479261 6.049177
-0.231006 1.696329 6.906705
-0.213074 1.490580 7.871515
-0.210038 1.490004 8.616723
-0.204567 1.464922 9.551283
-0.174653 1.069845 10.279935
-0.119100 1.213264 1.134059
-0.110027 1.522007 2.193075
-0.106729 1.484165 3.162397
-0.102919 1.433959 4.307238
-0.102175 1.309229 4.978503
-0.097418 1.354896 5.986090
-0.089042 1.618589 7.046810
-0.087538 1.522808 7.794396
-0.084507 1.473472 8.742130
-0.081734 1.486557 9.382170
-0.084127 1.114254 10.235685
0.022899 1.514052 1.391116
0.025660 1.505189 2.308648
0.020869 1.423888 3.259647
0.033905 1.512085 4.170847
0.019753 1.342342 5.128076
0.032932 1.429859 6.092569
0.061376 1.659995 7.088976
0.052203 1.546141 7.810217
0.048181 1.477427 8.620719
0.040205 1.370427 9.458343
-0.000896 0.957027 10.145193
0.252805 2.053389 0.467037
0.130741 1.402534 1.321758
0.170293 1.592978 2.010160
0.130737 1.362853 3.194107
0.143043 1.409688 3.994540
0.146121 1.407953 4.829834
0.164866 1.486462 5.710956
0.203000 1.663864 6.668254
0.188214 1.570021 7.479953
0.167794 1.439715 8.634387
0.168493 1.430284 9.250761
0.105412 1.085098 10.109512
0.374939 1.892903 0.529216
0.270025 1.503555 1.051461
0.291574 1.567107 2.029395
0.244876 1.381017 3.107025
0.259369 1.421453 3.917233
0.237877 1.326432 5.033047
0.265129 1.411058 5.988663
0.326897 1.624336 6.735444
0.296465 1.499368 7.682165
0.277369 1.420325 8.317771
0.257137 1.332153 9.283486
0.195350 1.096927 9.982726
0.364435 1.399974 1.234778
0.422304 1.549571 2.000544
0.346752 1.330392 3.040578
0.344303 1.314052 3.863624
0.380776 1.402150 4.874829
0.413061 1.477345 6.008279
0.413313 1.468384 6.833114
0.371804 1.346930 7.493163
0.358013 1.298338 8.416438
0.355725 1.281870 9.287982
0.284774 1.081107 9.831741
0.540080 1.488153 1.990854
0.459350 1.303784 3.021223
0.445472 1.266000 3.835673
0.538080 1.456867 4.812107
0.487064 1.339018 5.603630
0.399102 1.137680 6.773852
0.481570 1.308992 7.502836
0.474147 1.285140 8.319610
0.464485 1.255368 9.249225
0.348379 0.995635 10.163485
0.640429 1.421294 1.042392
0.615645 1.368904 2.058229
0.509544 1.172395 3.014077
0.357983 0.894744 4.006429
0.558494 1.235039 5.995773
0.515243 1.152652 6.664070
0.553450 1.211751 7.744873
0.518575 1.143741 8.476825
0.487135 1.081523 9.247124
0.334541 0.803439 10.067995
0.670240 1.236495 0.413575
0.652703 1.205822 1.097251
0.665313 1.215513 2.338374
0.590418 1.099977 3.091752
0.738210 1.311079 3.971839
0.886896 1.520918 5.213132
0.772671 1.346443 6.119176
0.686227 1.214837 6.743925
0.668020 1.182342 7.544887
0.623657 1.110994 8.399158
0.570070 1.026578 9.183521
0.361807 0.713163 10.176762
0.541510 0.894934 0.186202
0.715983 1.103998 1.223190
0.715405 1.096658 2.261775
0.811952 1.210196 3.172700
1.021729 1.461841 4.376001
1.070242 1.514721 5.487459
0.875271 1.268890 6.241968
0.727364 1.082547 6.791285
0.691779 1.032819 7.690966
0.674597 1.006763 8.445964
0.554713 0.851344 9.577941
0.312540 0.547510 10.277995
0.869536 1.111130 0.403905
0.811848 1.046292 1.203802
0.880161 1.111840 2.193478
0.879969 1.106510 3.078016
1.084705 1.313047 4.304193
1.265134 1.496780 5.088767
1.040481 1.257391 5.943731
0.682220 0.878938 6.736970
0.667521 0.859204 7.494854
0.738554 0.928444 8.337194
0.603197 0.781336 9.347688
0.358629 0.521615 10.125270
