-0.006430 -1.375887 1.679793
-0.006267 -1.340805 2.001978
-0.005441 -1.130597 2.486029
-0.008346 -1.941700 3.400684
-0.008044 -1.872249 3.845412
-0.006495 -1.459872 4.082596
-0.005885 -1.306534 4.497413
-0.007211 -1.677542 4.945434
-0.006467 -1.491332 5.490486
-0.005837 -1.326193 5.673229
-0.004439 -0.961721 6.166226
-0.004423 -0.957612 6.179740
-0.003213 -0.640552 6.545611
-0.002143 -0.368018 7.152014
-0.003754 -0.811348 7.431020
-0.005450 -1.285716 7.998697
-0.005394 -1.282733 8.438262
-0.005720 -1.383670 8.897941
-0.005352 -1.295678 9.312300
-0.005115 -1.239320 9.593296
-0.004782 -1.160722 10.009539
0.087908 -1.398847 0.013894
0.071032 -1.134379 0.318731
0.085170 -1.354798 0.777339
0.095701 -1.518587 1.363674
0.093268 -1.480018 1.686001
0.081721 -1.298332 2.342499
0.099374 -1.573872 2.714046
0.121426 -1.918077 3.185149
0.119464 -1.886395 3.799642
0.111051 -1.754247 4.143059
0.099819 -1.577781 4.620817
0.098031 -1.549202 5.000594
0.106880 -1.687284 5.212474
0.098102 -1.549314 5.624587
0.076865 -1.217011 5.678404
0.069838 -1.106531 6.028264
0.054398 -0.864268 6.486808
0.036896 -0.590113 6.717884
0.019792 -0.321589 7.325230
0.053289 -0.844987 7.694191
0.076690 -1.210075 8.300339
0.076827 -1.211508 8.739387
0.081932 -1.291196 8.841115
0.079966 -1.259428 9.478842
0.075685 -1.191900 9.827976
0.066899 -1.054143 10.025193
0.037117 -0.587700 10.378578
0.135829 -1.046536 0.713229
0.172965 -1.329192 1.279022
0.179648 -1.379847 1.645553
0.159658 -1.226988 2.237682
0.170911 -1.312738 2.289578
0.258449 -1.979075 3.533536
0.234338 -1.794905 4.005821
0.196374 -1.505329 4.212050
0.173654 -1.331754 4.691736
0.207090 -1.586267 5.169387
0.207222 -1.587030 5.479136
0.162272 -1.244035 5.897125
0.143890 -1.103815 6.014025
0.120226 -0.923220 6.267761
0.109322 -0.839876 6.551946
0.063853 -0.492853 7.057848
0.072161 -0.555757 7.602563
0.136513 -1.045936 8.100530
0.165789 -1.268838 8.451637
0.172122 -1.316926 8.687323
0.162212 -1.241108 9.034972
0.165564 -1.266372 9.403285
0.153424 -1.173446 9.886108
0.242192 -1.215818 0.112242
0.236800 -1.188656 0.618971
0.287232 -1.440034 1.008156
0.284569 -1.426489 1.507984
0.259660 -1.301956 2.031823
0.265819 -1.332458 2.461112
0.322182 -1.613306 3.069353
0.404051 -2.021411 3.638822
0.372685 -1.864729 4.046573
0.316554 -1.584772 3.953275
0.294927 -1.476580 4.534762
0.349317 -1.747687 4.949194
0.308388 -1.543199 5.559885
0.253029 -1.266928 5.779606
0.229190 -1.147981 5.830935
0.188908 -0.946863 6.153773
0.171689 -0.860625 6.807860
0.129264 -0.648978 6.836588
0.092364 -0.464535 7.538302
0.218232 -1.092260 7.861411
0.261810 -1.309461 8.216599
0.258859 -1.294475 8.722939
0.249511 -1.247730 8.938666
0.248888 -1.244360 9.443682
0.237996 -1.189877 9.727019
0.167186 -0.836490 10.025249
0.055899 -0.281159 10.367112
0.366610 -1.316049 0.083681
0.310494 -1.115302 0.502237
0.370507 -1.329646 0.960587
0.407213 -1.460606 1.613092
0.413496 -1.482994 1.803125
0.371567 -1.332982 2.152222
0.550521 -1.972185 3.405822
0.531643 -1.904536 3.851269
0.489308 -1.753051 4.261170
0.506372 -1.814002 4.377312
0.453314 -1.624140 4.920845
0.434429 -1.556440 5.432951
0.433051 -1.551507 5.448257
0.333780 -1.196475 5.936504
0.267850 -0.960631 6.395235
0.266602 -0.956164 6.410852
0.176627 -0.634378 6.848093
0.119255 -0.429150 7.250024
0.203428 -0.729880 7.638344
0.310528 -1.112532 8.111486
0.362769 -1.299084 8.596492
0.364320 -1.304466 9.032876
0.355935 -1.274437 9.179723
0.333268 -1.193253 9.595397
0.285607 -1.022735 9.994288
0.172335 -0.617812 10.072871
0.428610 -1.213205 1.157988
0.475805 -1.346208 1.566162
0.504137 -1.426034 1.862962
0.452583 -1.280504 2.210794
0.706681 -1.996872 3.497608
0.692430 -1.956557 3.874953
0.617317 -1.744584 4.180307
0.582727 -1.646927 4.457485
0.620001 -1.751894 5.034168
0.573093 -1.619450 5.443508
0.517858 -1.463586 5.624327
0.409846 -1.158796 5.978001
0.355654 -1.005876 6.164172
0.294343 -0.832738 6.787935
0.222315 -0.629552 6.815455
0.112792 -0.320475 7.258454
0.264866 -0.749247 7.901542
0.420458 -1.188080 8.102051
0.452561 -1.278497 8.564048
0.435377 -1.229808 9.269055
0.449156 -1.268581 9.570374
0.435300 -1.229432 9.784852
0.327494 -0.925303 9.877869
0.170756 -0.483068 10.231170
0.524490 -1.218713 0.161665
0.514082 -1.194473 0.665873
0.580354 -1.347898 1.009981
0.538833 -1.251537 1.709081
0.584922 -1.358238 1.937964
0.524235 -1.217574 2.285388
0.837550 -1.943024 3.503476
0.820786 -1.904094 3.880063
0.731740 -1.697750 4.185197
0.624788 -1.449891 4.626790
0.698889 -1.621364 5.302463
0.708279 -1.643052 5.545461
0.596795 -1.384755 5.761415
0.485881 -1.127774 5.981679
0.397379 -0.922667 6.370624
0.286970 -0.666658 7.363186
0.404427 -0.938620 7.816436
0.524341 -1.216275 8.261896
0.530715 -1.230943 8.632869
0.516426 -1.197680 9.270627
0.527589 -1.223442 9.638693
0.482524 -1.119038 9.699950
0.383578 -0.889775 9.946467
0.163538 -0.380003 10.214846
0.639303 -1.245608 0.238487
0.574997 -1.120580 0.521795
0.647861 -1.262044 1.112764
0.697800 -1.358983 1.588373
0.653697 -1.273175 2.044879
0.652275 -1.270355 2.300677
0.946693 -1.842201 3.614288
0.981881 -1.910503 3.963936
0.856599 -1.666946 4.401999
0.745037 -1.450064 4.779408
0.818096 -1.592006 4.927526
0.796251 -1.549456 5.371666
0.720133 -1.401496 5.553911
0.615207 -1.197508 5.938764
0.531189 -1.034178 6.193117
0.347718 -0.677411 7.229237
0.414312 -0.806679 7.864736
0.560194 -1.090084 8.245418
0.618866 -1.204029 8.574774
0.608214 -1.183200 9.145681
0.626515 -1.218698 9.447163
0.589592 -1.146852 9.862701
0.430892 -0.838400 10.092230
0.222558 -0.433483 10.379877
0.742926 -1.236368 1.062656
0.862764 -1.435320 1.273050
0.779410 -1.296791 1.861921
0.776954 -1.292663 2.117956
0.760701 -1.265610 2.440051
0.941539 -1.565753 3.152907
1.156625 -1.922794 3.721185
1.100613 -1.829731 3.996820
0.886065 -1.473364 4.532938
0.822263 -1.367410 4.580314
0.894569 -1.487314 5.390784
0.835573 -1.389282 5.736113
0.701878 -1.167248 5.889054
0.575430 -0.957189 6.344341
0.552528 -0.919131 6.493674
0.371169 -0.617954 6.628111
0.269719 -0.449428 6.958385
0.410356 -0.682853 7.487213
0.622093 -1.034281 8.323733
0.720780 -1.198140 8.383921
0.691984 -1.150184 9.089398
0.740900 -1.231403 9.124309
0.639491 -1.062920 9.587519
0.548008 -0.910931 9.987685
0.673786 -0.967439 0.010673
0.868837 -1.246489 1.368358
0.881876 -1.265127 1.556902
0.826870 -1.186282 2.011483
0.808735 -1.160258 2.332265
0.955779 -1.370690 3.006925
1.277006 -1.830569 3.483298
1.276672 -1.829994 4.025682
1.053175 -1.509885 4.491810
1.036559 -1.486079 4.570895
1.034380 -1.482851 5.178909
0.993064 -1.423652 5.390267
0.848655 -1.216793 5.837197
0.755323 -1.083117 6.020971
0.662610 -0.950328 6.206544
0.536321 -0.769425 6.597372
0.368516 -0.529090 6.897334
0.292269 -0.419823 7.391712
0.648321 -0.929586 7.784178
0.765522 -1.097331 8.205866
0.756853 -1.084827 8.711153
0.785608 -1.125959 8.947088
0.761114 -1.090760 9.650475
0.667132 -0.956128 9.981371
0.525448 -0.753206 10.230420
0.242003 -0.347353 10.158769
0.892689 -1.111132 0.188350
0.825676 -1.027866 0.402239
0.884846 -1.101238 1.125297
1.031474 -1.283321 1.332883
0.931517 -1.159076 1.919727
0.950367 -1.182418 2.346824
0.822027 -1.022937 2.827803
1.431571 -1.779791 4.166393
1.354310 -1.683824 4.208380
0.960626 -1.194667 5.365811
0.948611 -1.179682 5.743194
0.879611 -1.093925 6.089978
0.765642 -0.952332 6.342071
0.737986 -0.917958 6.489846
0.457335 -0.569303 6.963348
0.443239 -0.551782 7.045062
0.582512 -0.724644 7.773458
0.792324 -0.985186 8.085782
0.772066 -0.959931 8.659512
0.837507 -1.041137 9.118191
0.897128 -1.115183 9.151970
0.742081 -0.922490 9.883477
0.640741 -0.796568 10.216555
0.461523 -0.573991 10.109233
0.860885 -0.922703 0.291162
1.007151 -1.078997 0.992258
1.144790 -1.226130 1.267095
1.097054 -1.175030 1.654023
0.992358 -1.062991 2.240673
0.991910 -1.062475 2.493752
1.270031 -1.359778 3.071809
1.564753 -1.674799 3.870806
1.538876 -1.647074 4.244573
1.421206 -1.521225 4.417554
1.319617 -1.412537 4.823673
1.108215 -1.186447 5.100377
0.997940 -1.068460 5.579346
1.110022 -1.188287 5.721072
0.899313 -0.962881 6.371432
0.817446 -0.875335 6.423032
0.537489 -0.575932 6.757988
0.508932 -0.545374 6.906769
0.628730 -0.673397 7.406241
0.831601 -0.890255 7.856321
0.862685 -0.923393 8.520368
0.983458 -1.052515 8.644117
1.016571 -1.087815 9.365808
0.938687 -1.004525 9.424676
0.715346 -0.765615 10.072221
0.554914 -0.594040 10.253538
0.200852 -0.215438 10.319741
0.829017 -0.776214 0.096510
0.922641 -0.863584 0.513136
1.171399 -1.095786 1.188535
1.030626 -0.964237 1.844067
1.115992 -1.043922 2.072936
1.076879 -1.007309 2.699525
1.321665 -1.235863 2.934885
1.605189 -1.500536 3.568741
1.779246 -1.663007 4.052746
1.598692 -1.494350 4.418218
1.455945 -1.360975 4.953194
1.366939 -1.277852 4.997634
1.146348 -1.071779 5.573133
1.235000 -1.154525 5.846430
1.040990 -0.973282 6.361107
0.909979 -0.850906 6.612962
0.653909 -0.611763 6.744910
0.568431 -0.531883 7.166051
0.699525 -0.654232 7.663165
0.824365 -0.770732 8.221340
0.907155 -0.847988 8.615915
1.058791 -0.989591 8.605771
1.011913 -0.945707 9.374486
1.010085 -0.943998 9.386771
0.888179 -0.830114 9.715192
0.670632 -0.626891 10.232542
0.355407 -0.332505 10.383374
0.908719 -0.743143 0.020672
0.955964 -0.781605 0.572203
1.150529 -0.940217 1.204537
1.261435 -1.030655 1.370209
1.161261 -0.948880 1.891599
1.206432 -0.985676 2.253200
1.112236 -0.908808 2.533924
1.848564 -1.509172 4.179057
1.806049 -1.474475 4.322292
1.689484 -1.379347 4.726063
1.539832 -1.257252 4.967541
1.469126 -1.199506 5.539536
1.381788 -1.128224 5.883025
1.271767 -1.038471 5.998963
1.067644 -0.871911 6.516795
0.826047 -0.674854 6.513214
0.628696 -0.513816 7.043244
0.827230 -0.675670 7.635680
0.872777 -0.712798 7.809741
0.981464 -0.801412 8.074237
1.055381 -0.861641 8.537105
1.145873 -0.935399 8.929274
1.077743 -0.879774 9.344171
0.918190 -0.749565 9.876111
0.744480 -0.607865 9.989388
0.449389 -0.367118 10.430338
1.060778 -0.753512 -0.009222
0.989998 -0.703308 0.387017
1.243724 -0.883032 0.889668
1.254178 -0.890356 1.565744
1.272922 -0.903614 1.755813
1.294715 -0.919001 2.185401
1.194564 -0.848001 2.467157
1.945683 -1.380019 4.181585
1.976801 -1.402047 4.361631
1.836159 -1.302368 4.535859
1.715419 -1.216761 4.941976
1.599193 -1.134354 5.350067
1.600317 -1.135112 5.659690
1.353644 -0.960286 5.942997
1.121366 -0.795624 6.528560
0.850530 -0.603704 6.594053
0.783598 -0.556241 6.880649
1.048740 -0.744076 7.205606
1.059994 -0.751959 7.942859
1.122470 -0.796215 8.049427
1.083196 -0.768306 8.687847
1.136141 -0.805801 8.856127
1.121456 -0.795324 9.424676
1.017545 -0.721678 9.551810
0.852720 -0.604818 10.085434
0.580643 -0.412007 10.250474
0.981333 -0.602422 0.288702
1.217918 -0.747169 0.859503
1.358441 -0.833113 1.445965
1.325581 -0.812961 1.769067
1.274121 -0.781386 2.398370
1.273769 -0.781140 2.653153
2.094063 -1.283086 4.000514
2.041428 -1.250815 4.439192
1.934204 -1.185142 4.778365
1.869631 -1.145591 4.988556
1.868039 -1.144580 5.295773
1.707391 -1.046217 5.538472
1.512023 -0.926585 5.915793
1.385007 -0.848781 6.393086
1.003396 -0.615182 6.492740
0.916609 -0.562017 6.844085
1.095781 -0.671646 7.207966
1.122279 -0.687785 7.876567
1.104625 -0.676918 8.383729
1.119390 -0.685911 8.755421
1.221404 -0.748308 9.146489
1.171784 -0.717901 9.427814
1.074309 -0.658229 9.489076
0.900880 -0.552008 10.023608
0.626172 -0.383845 10.120976
1.013671 -0.523869 0.309774
1.346640 -0.695358 0.680976
1.407955 -0.726854 1.465437
1.321301 -0.682162 1.919727
1.344444 -0.694062 2.107024
1.424303 -0.735168 2.400199
1.251717 -0.646176 3.118786
2.103942 -1.085047 4.510757
2.035618 -1.049825 4.718228
1.947896 -1.004603 4.991355
1.966510 -1.014164 5.232935
1.805494 -0.931154 5.768371
1.660328 -0.856350 5.947619
1.461411 -0.753833 6.327498
1.045833 -0.539725 6.493003
0.990685 -0.511248 7.073412
1.297709 -0.669385 7.326698
1.286521 -0.663571 7.766092
1.280908 -0.660629 8.204305
1.350189 -0.696307 8.307734
1.299049 -0.669881 9.010072
1.383392 -0.713328 9.044468
1.195859 -0.616658 9.571683
0.961752 -0.496020 9.883923
0.730453 -0.376827 10.201362
0.357003 -0.184432 10.284696
1.044780 -0.453918 0.089660
1.191621 -0.517444 0.441280
1.447944 -0.628341 1.009973
1.489710 -0.646354 1.618485
1.372043 -0.595385 1.900453
1.398202 -0.606661 2.330431
1.293728 -0.561377 2.852660
2.246891 -0.973833 4.295248
2.241489 -0.971492 4.310640
2.188843 -0.948653 4.749103
2.055516 -0.890892 5.153880
1.967823 -0.852899 5.429997
1.755763 -0.761058 5.807010
1.548053 -0.671100 6.188430
1.349339 -0.585076 6.211651
1.164426 -0.504992 6.533439
1.339384 -0.580641 7.328001
1.407548 -0.610137 7.436603
1.412390 -0.612191 7.810733
1.334405 -0.578346 8.583603
1.345184 -0.583018 8.532762
1.309490 -0.567495 9.171283
1.293590 -0.560603 9.254045
1.102865 -0.477980 9.787218
0.908651 -0.393901 9.830476
0.546699 -0.237159 10.336483
1.161311 -0.412623 0.126687
1.473880 -0.523178 0.809847
1.569557 -0.556963 1.528560
1.476380 -0.523961 1.743600
1.414931 -0.502170 2.133317
1.417977 -0.503194 2.628676
1.454154 -0.515952 3.054840
2.287641 -0.810812 4.352289
2.213252 -0.784460 4.561878
2.206646 -0.782089 4.871062
2.071253 -0.734124 5.276433
1.810835 -0.641898 5.783639
1.676112 -0.594202 5.900311
1.444691 -0.512245 6.350520
1.312888 -0.465582 6.467921
1.344807 -0.476814 7.071109
1.488407 -0.527617 7.270525
1.492226 -0.528929 7.641561
1.393174 -0.493826 8.053864
1.405928 -0.498300 8.423585
1.367741 -0.484715 9.058833
1.351746 -0.479046 9.138400
1.130268 -0.400584 9.802205
0.999992 -0.354454 9.999307
0.719499 -0.255182 9.958770
1.196398 -0.336235 0.106202
1.311899 -0.368474 0.766614
1.590971 -0.446506 1.086892
1.607906 -0.451172 1.757851
1.458183 -0.409253 2.103640
1.516823 -0.425618 2.463548
1.472932 -0.413274 3.086829
2.219432 -0.621987 4.112373
2.275899 -0.637739 4.520624
2.179951 -0.610839 5.086831
2.088167 -0.585134 5.360185
2.019861 -0.566005 5.569022
1.759397 -0.493090 6.076330
1.584271 -0.444075 6.324389
1.411085 -0.395602 6.574980
1.370574 -0.384216 7.083377
1.389435 -0.389459 7.390332
1.504449 -0.421597 7.721309
1.404173 -0.393503 8.134407
1.463541 -0.410092 8.304611
1.494026 -0.418588 8.607076
1.377808 -0.386020 9.153797
1.348239 -0.377732 9.300799
1.173979 -0.328944 9.697060
0.886826 -0.248562 10.215296
0.566204 -0.158856 10.383404
1.533492 -0.318601 1.268510
1.584227 -0.329057 1.631194
1.549603 -0.321862 1.950777
1.433233 -0.297738 2.469764
1.560511 -0.324016 2.932213
1.501522 -0.311799 3.077725
2.275613 -0.471750 4.626966
2.386535 -0.494695 4.609152
2.289178 -0.474529 4.880179
2.035138 -0.421938 5.314919
1.922734 -0.398653 5.654818
1.720807 -0.356854 5.965610
1.482351 -0.307485 6.412965
1.438732 -0.298410 6.920350
1.623639 -0.336649 6.987546
1.460052 -0.302749 7.598496
1.451693 -0.300974 8.035886
1.543706 -0.320002 8.072453
1.372050 -0.284419 8.818505
1.436271 -0.297685 8.986088
1.337983 -0.277305 9.466514
1.259288 -0.260984 9.881316
1.040084 -0.215632 9.992439
0.678641 -0.140833 10.361621
1.657503 -0.226560 1.044157
1.674337 -0.228777 1.714364
1.608770 -0.219857 1.859691
1.546935 -0.211418 2.245404
1.672242 -0.228390 2.709053
1.675297 -0.228779 2.959297
2.383198 -0.324784 4.409876
2.282552 -0.311055 4.975200
2.278147 -0.310455 4.987624
2.051045 -0.279539 5.651775
1.867596 -0.254596 5.895669
1.727386 -0.235539 6.009771
1.567106 -0.213750 6.191463
1.461985 -0.199398 6.898719
1.534961 -0.209299 7.005429
1.518033 -0.206955 7.444146
1.524133 -0.207745 7.815154
1.550955 -0.211357 8.117915
1.453326 -0.198053 8.529895
1.415470 -0.192846 9.164758
1.371726 -0.186882 9.377622
1.342570 -0.182907 9.523799
1.081323 -0.147389 9.834572
1.617466 -0.111189 0.466898
1.711496 -0.117494 1.186895
1.791842 -0.122913 1.484979
1.694144 -0.116239 1.937895
1.545800 -0.106117 2.523834
1.666595 -0.114287 2.749694
1.679837 -0.115135 3.238629
1.700702 -0.116501 3.724819
2.058759 -0.140742 4.182917
2.375046 -0.162138 4.762757
2.185893 -0.149252 5.295264
2.092707 -0.142903 5.569278
1.907160 -0.130291 5.813175
1.653336 -0.112989 6.631995
1.591435 -0.108769 6.844371
1.627069 -0.111161 7.084210
1.646556 -0.112452 7.389433
1.568051 -0.107055 8.091935
1.532330 -0.104616 8.238274
1.532690 -0.104596 8.673899
1.470412 -0.100343 8.953769
1.369602 -0.093455 9.434873
1.353543 -0.092358 9.515165
1.175766 -0.080258 9.912681
0.794886 -0.054376 10.348344
2.153909 0.144392 4.213984
2.030624 0.136070 4.257583
2.021295 0.135472 4.568397
1.899922 0.127340 5.206679
1.706514 0.114271 5.155307
1.407724 0.094150 5.736424
1.550668 0.103826 5.944863
1.669361 0.111908 6.578386
1.568678 0.105143 6.924350
1.604722 0.107602 7.164873
1.458348 0.097772 7.711591
1.467401 0.098422 8.083834
1.528434 0.102562 8.254920
1.469614 0.098661 8.957939
1.549676 0.104079 9.059803
1.574915 0.105821 9.426908
0.966532 0.064844 10.533385
1.901016 0.268641 6.452465
1.780807 0.251642 6.861102
1.702473 0.240565 7.138904
1.722251 0.243401 7.443484
1.774109 0.250814 8.035955
1.690714 0.239027 8.379958
1.737758 0.245720 8.614748
1.604395 0.226877 9.224467
1.560825 0.220722 9.437297
1.395947 0.197381 9.764864
1.161374 0.164145 9.942943
0.783767 0.110657 10.379247
1.160728 0.236780 0.222108
1.375172 0.280855 0.682449
1.591776 0.325398 1.379285
1.762465 0.360451 1.478791
1.669263 0.341389 2.170136
1.701520 0.348056 2.594504
1.730675 0.354061 2.779425
1.627323 0.332896 3.294555
1.699994 0.347852 3.647266
1.727052 0.353458 4.129634
1.808806 0.370279 4.477135
1.758264 0.359980 5.217323
1.661106 0.340030 5.198244
1.690489 0.346120 5.738589
1.842710 0.377424 6.239053
1.776891 0.363970 6.808515
1.811469 0.371094 7.047378
1.735637 0.355554 7.324708
1.679521 0.344056 7.536526
1.669959 0.342138 7.972303
1.697638 0.347852 8.274486
1.683657 0.345034 8.773902
1.651729 0.338494 8.919787
1.552138 0.318098 9.397822
1.376052 0.281988 9.792026
1.216663 0.249299 10.122722
0.793522 0.162441 10.270578
1.325884 0.366860 0.064854
1.588409 0.439869 0.637810
1.742395 0.482720 1.225233
1.585301 0.439130 1.812768
1.611324 0.446407 2.242078
1.642953 0.455241 2.668953
1.697933 0.470531 2.790267
1.710622 0.474109 3.279496
1.730703 0.479741 3.765972
1.782095 0.494066 4.183653
1.679224 0.465542 4.762348
1.787753 0.495729 5.043175
1.694609 0.469877 5.323115
1.745363 0.484031 5.798451
1.783542 0.494697 6.336300
1.832323 0.508270 6.513090
1.789846 0.496521 7.018037
1.696871 0.470722 7.363942
1.751344 0.485877 7.538069
1.678060 0.465588 8.239349
1.752543 0.486296 8.344941
1.589204 0.440988 9.088627
1.707700 0.473905 8.993475
1.542152 0.427938 9.319943
1.355139 0.376022 9.783145
1.163694 0.322882 10.318195
0.675565 0.187244 10.314589
1.509823 0.541881 0.501402
1.687987 0.606065 1.024218
1.674183 0.601151 1.521864
1.667820 0.598915 2.017188
1.636791 0.587781 2.337918
1.695417 0.608922 2.697392
1.706492 0.612961 3.186402
1.724786 0.619599 3.672682
1.773850 0.637304 4.090268
1.762869 0.633386 4.404571
1.644631 0.590898 5.048057
1.617841 0.581264 5.129968
1.685340 0.605604 5.540561
1.847514 0.664024 5.978668
1.741998 0.626122 6.681542
1.809647 0.650483 6.791309
1.699852 0.611008 7.199358
1.702703 0.612075 7.568480
1.662999 0.597845 8.134512
1.720998 0.618739 8.303205
1.616308 0.581109 8.778556
1.623853 0.583872 9.209901
1.516099 0.545094 9.268565
1.437833 0.516969 9.680602
1.272226 0.457404 10.075933
0.925831 0.332764 10.442013
1.641766 0.717927 1.027571
1.685893 0.737306 1.391186
1.733785 0.758334 1.752679
1.568045 0.685774 2.401242
1.550043 0.677948 2.956969
1.713885 0.749758 3.047625
1.634856 0.715208 3.795374
1.707848 0.747235 4.144536
1.676200 0.733408 4.522456
1.691979 0.740350 4.767769
1.559890 0.682511 5.177549
1.587015 0.694458 5.717914
1.766891 0.773326 6.086947
1.702707 0.745262 6.656063
1.769095 0.774368 6.763581
1.628204 0.712686 7.304064
1.647985 0.721388 7.607664
1.639943 0.717912 8.042144
1.623352 0.710697 8.541436
1.695644 0.742389 8.643474
1.611594 0.705602 9.052843
1.582964 0.693072 9.198529
1.368753 0.599273 9.856560
1.332491 0.583405 10.070255
1.634393 0.849567 1.387066
1.574220 0.818276 1.770469
1.544438 0.802804 2.087419
1.573400 0.817934 2.509810
1.607371 0.835674 2.929730
1.588051 0.825649 3.243380
1.561818 0.812059 3.857310
1.611780 0.838124 4.270189
1.709191 0.888883 4.548728
1.558697 0.810568 5.021458
1.479461 0.769371 5.594615
1.813050 0.943105 5.731279
1.715692 0.892444 6.070517
1.706571 0.887738 6.440139
1.701437 0.885106 6.808772
1.667810 0.867653 7.307941
1.672002 0.869878 7.674417
1.680111 0.874143 8.039723
1.650744 0.858915 8.601269
1.556495 0.809889 9.074531
1.567042 0.815375 9.019800
1.455127 0.757165 9.627135
1.366110 0.710808 9.619220
1.079728 0.561749 10.263525
0.774998 0.403086 10.495689
1.464214 0.894868 1.185861
1.507224 0.921246 1.548445
1.630851 0.996959 1.711308
1.550673 0.947922 2.160662
1.530420 0.935588 2.715442
1.541690 0.942547 3.201609
1.604118 0.980812 3.553273
1.583563 0.968301 4.165636
1.616909 0.988739 4.345436
1.569464 0.959742 4.787851
1.405383 0.859310 5.031940
1.491008 0.911812 5.670896
1.658142 1.014189 6.039720
1.631554 0.997962 6.476608
1.610332 0.985020 6.912581
1.543368 0.944053 7.189047
1.560916 0.954834 7.492212
1.509672 0.923534 8.124188
1.617772 0.989710 8.029442
1.589264 0.972322 8.591491
1.510684 0.924259 8.999152
1.425284 0.872027 9.474289
1.378495 0.843413 9.751595
1.292788 0.790936 9.744612
0.925799 0.566322 10.441583
0.577908 0.353318 10.456256
1.532434 1.084807 1.311929
1.401341 0.991905 1.655650
1.470849 1.041223 1.950640
1.448150 1.025199 2.507488
1.501229 1.062877 2.863782
1.460019 1.033707 3.245701
1.435183 1.016176 3.861957
1.541612 1.091661 4.079471
1.549773 1.097516 4.623733
1.412016 0.999905 5.097918
1.411862 0.999835 5.407322
1.586914 1.123986 5.712277
1.585651 1.123174 6.376479
1.611895 1.141810 6.614797
1.484454 1.051522 7.153483
1.501060 1.063334 7.456157
1.548367 1.096896 7.626091
1.582548 1.121160 7.860966
1.514663 1.073124 8.620826
1.555088 1.101815 8.852915
1.482704 1.050546 9.260491
1.356291 0.960951 9.517278
1.322216 0.936818 9.728770
1.079494 0.764792 10.238754
0.789817 0.559448 10.538419
1.418516 1.153866 0.951795
1.407325 1.144814 1.446312
1.425367 1.159538 1.633073
1.377026 1.120236 2.256071
1.425597 1.159855 2.612622
1.405772 1.143744 2.928184
1.398045 1.137522 3.478730
1.345263 1.094578 3.924462
1.480991 1.205210 4.307663
1.419149 1.154892 4.815664
1.308041 1.064425 5.224896
1.343204 1.093096 5.402153
1.549851 1.261517 5.869746
1.539648 1.253253 6.240572
1.532959 1.247852 6.610440
1.440635 1.172688 7.017522
1.455303 1.184678 7.320542
1.458815 1.187588 7.688301
1.403105 1.142292 8.384370
1.416581 1.153320 8.749563
1.391346 1.132780 8.894156
1.344575 1.094711 9.171137
1.355120 1.103359 9.600769
1.237187 1.007311 9.859541
1.026194 0.835460 10.236921
0.597832 0.486500 10.504507
1.263323 1.184347 1.153034
1.321852 1.239348 1.450951
1.294851 1.214072 2.010737
1.292448 1.211852 2.263812
1.337698 1.254392 2.621892
1.286566 1.206475 3.307370
1.378728 1.293046 3.528334
1.360417 1.275939 4.141964
1.317367 1.235577 4.586617
1.295958 1.215527 4.964674
1.261647 1.183371 5.408097
1.364279 1.279772 5.617699
1.460748 1.370437 6.183957
1.497377 1.404856 6.358793
1.379762 1.294490 6.897928
1.392361 1.306364 7.202562
1.362931 1.278749 7.348320
1.366182 1.281854 7.717619
1.396415 1.310335 8.372724
1.348694 1.265564 8.650167
1.271329 1.192984 9.126442
1.300079 1.220023 9.425502
1.151070 1.080177 9.949378
1.077637 1.011223 9.944089
0.791397 0.742512 10.442111
1.249319 1.341849 1.405349
1.222992 1.313578 1.725584
1.178799 1.266099 2.111448
1.239505 1.331443 2.404603
1.244786 1.337197 2.893399
1.192188 1.280686 3.341968
1.225098 1.316150 3.760557
1.244841 1.337458 4.242363
1.253511 1.346867 4.787078
1.137989 1.222629 4.966146
1.185711 1.274024 5.376574
1.366578 1.468650 5.845928
1.371334 1.473811 6.151694
1.298167 1.395213 6.850386
1.231676 1.323742 7.192913
1.299408 1.396658 7.588062
1.362823 1.464878 7.626891
1.257578 1.351759 8.231618
1.268068 1.363099 8.597409
1.311713 1.410072 8.764561
1.260005 1.354501 9.106738
1.166260 1.253764 9.780376
1.147386 1.233483 9.926020
0.903491 0.971176 10.218851
0.684719 0.735862 10.315754
1.125555 1.385771 1.041241
1.155603 1.422886 1.406122
1.131520 1.393279 1.966626
1.092459 1.345172 2.352129
1.114427 1.372331 2.776328
1.139988 1.403920 3.198000
1.169109 1.439900 3.617072
1.217738 1.499925 3.967725
1.133014 1.395550 4.610078
1.129703 1.391470 4.624519
1.082412 1.333234 5.135139
1.160188 1.429239 5.707773
1.184399 1.459182 6.244196
1.301880 1.604070 6.317895
1.175807 1.448708 6.988704
1.233772 1.520195 7.030579
1.211636 1.492980 7.531555
1.205211 1.485127 7.965721
1.192808 1.469913 8.464452
1.194785 1.472422 8.896085
1.138980 1.403670 9.305850
1.128454 1.390703 9.386295
1.006994 1.240996 9.845005
0.927643 1.143163 9.974319
0.764203 0.941664 10.288755
1.057680 1.499186 1.402516
1.017685 1.442475 1.789826
1.050047 1.488484 2.151387
1.035677 1.468181 2.708479
1.074061 1.522738 3.065119
1.076808 1.526683 3.315972
1.104137 1.565556 3.734633
1.077653 1.528078 4.413574
1.059272 1.502049 4.792486
1.029103 1.459245 4.939649
1.030624 1.461513 5.548040
1.117931 1.585551 6.051268
1.111176 1.576027 6.424734
1.096006 1.554568 6.862976
1.105581 1.568216 7.168657
1.071663 1.520102 7.381252
1.100783 1.561547 7.973942
1.144858 1.624139 8.079238
1.060789 1.504895 8.686209
1.056180 1.498441 9.184495
1.046275 1.484394 9.265645
0.990613 1.405456 9.743404
0.910540 1.291813 9.938989
0.747477 1.060395 10.386786
0.448922 0.636554 10.454926
0.993197 1.639003 1.230202
0.893367 1.474072 1.640915
0.906298 1.495531 2.069338
0.922233 1.521954 2.495361
0.893428 1.474419 2.880160
0.943063 1.556519 3.170168
0.980318 1.618168 3.523964
0.954151 1.575052 4.204248
0.974103 1.608066 4.386054
0.921087 1.520490 4.664760
0.882470 1.456759 5.175997
1.007050 1.662788 5.714330
1.016315 1.678221 6.315426
1.063387 1.756038 6.359816
1.029467 1.700082 6.927523
1.019606 1.683868 7.363234
1.013232 1.673418 7.796054
1.035482 1.710242 8.030819
1.000086 1.651790 8.306474
1.000682 1.652860 8.736834
0.989985 1.635290 9.297279
0.896266 1.480455 9.686282
0.868726 1.434989 9.964329
0.816564 1.348767 9.959247
0.613408 1.013063 10.455731
0.891934 1.727410 1.405064
0.847614 1.641421 1.375738
0.830140 1.607645 1.934658
0.830445 1.608347 2.425219
0.779330 1.509295 2.940669
0.811448 1.571686 3.294980
0.821768 1.591814 3.777577
0.846917 1.640697 4.191375
0.865022 1.675862 4.370370
0.775096 1.501522 4.910752
0.774175 1.499804 5.220755
0.885224 1.715365 5.755909
0.894196 1.732904 6.354157
0.890932 1.726656 6.723542
0.889727 1.724400 7.091896
0.898773 1.742017 7.393492
0.909188 1.762290 7.694013
0.944169 1.830179 7.796949
0.874996 1.696112 8.399439
0.862760 1.672500 8.960353
0.893134 1.731464 9.125275
0.848097 1.644196 9.597878
0.784235 1.520342 9.788909
0.698857 1.354805 10.247799
0.557111 1.079817 10.275351
0.720709 1.658271 1.459198
0.705958 1.624341 1.777179
0.728841 1.677194 2.135415
0.741935 1.707493 2.557280
0.757278 1.742977 2.976666
0.695811 1.601420 3.619883
0.737117 1.696732 3.902792
0.722385 1.662860 4.279981
0.737439 1.697692 4.756443
0.651708 1.500106 5.065634
0.698177 1.607318 5.341189
0.812493 1.870994 5.743044
0.774101 1.782639 6.375453
0.756075 1.741205 6.876082
0.763105 1.757493 7.178416
0.785602 1.809406 7.348364
0.787586 1.814075 7.714260
0.778323 1.792847 8.210245
0.796816 1.835543 8.442475
0.753458 1.735697 8.914077
0.707650 1.630219 9.453365
0.751043 1.730259 9.419347
0.659943 1.520382 10.072833
0.580790 1.337876 10.048873
0.360343 0.829670 10.310836
0.602470 1.723759 1.421061
0.579935 1.659248 1.806606
0.589098 1.685662 2.232335
0.609498 1.744281 2.589707
0.573653 1.641635 3.104165
0.579916 1.659748 3.589411
0.596994 1.708858 4.005821
0.617737 1.768386 4.120870
0.621267 1.778681 4.664861
0.534619 1.530305 5.107639
0.573015 1.640514 5.384583
0.667617 1.911964 5.787562
0.649325 1.859656 6.290297
0.659572 1.889120 6.529730
0.658715 1.886888 7.254577
0.651506 1.866236 7.333496
0.647271 1.854226 7.766560
0.656004 1.879366 8.065402
0.635208 1.819937 8.756859
0.614986 1.762024 9.031596
0.627813 1.798905 9.327337
0.613660 1.758378 9.536371
0.547039 1.567468 10.057809
0.481567 1.379682 10.033490
0.327783 0.938727 10.379534
0.480447 1.745442 1.220336
0.469817 1.706831 1.540185
0.484157 1.759223 1.900901
0.468974 1.704140 2.523230
0.439895 1.598379 3.038780
0.480145 1.745105 3.194392
0.471816 1.714992 3.810079
0.506279 1.840658 4.027303
0.477526 1.736106 4.601828
0.451175 1.640196 4.878671
0.457669 1.664068 5.419727
0.514468 1.871154 5.724595
0.514077 1.869987 6.388797
0.543713 1.977968 6.364930
0.516582 1.879373 7.061361
0.536198 1.950893 7.166502
0.518464 1.886517 7.795284
0.538740 1.960438 7.898218
0.541765 1.971602 8.262300
0.504233 1.835075 8.865248
0.521618 1.898485 9.030635
0.491651 1.789499 9.569051
0.454692 1.654899 9.760208
0.414788 1.509593 10.019516
0.317182 1.154069 10.381296
0.434575 2.079449 1.029497
0.363845 1.740127 1.524186
0.362735 1.735047 2.016156
0.363203 1.737537 2.505681
0.376547 1.801781 2.860692
0.377406 1.806027 3.109386
0.386720 1.850955 3.526535
0.381681 1.827071 4.138362
0.389645 1.865394 4.317683
0.359033 1.718632 4.725675
0.354294 1.696218 5.399053
0.398009 1.906242 5.704067
0.427195 2.046465 5.909562
0.424589 2.034142 6.279057
0.418917 2.007128 6.713025
0.418311 2.004404 7.080546
0.418615 2.006048 7.446985
0.399449 1.914413 8.205628
0.415349 1.990802 8.307319
0.405096 1.941681 8.516258
0.394258 1.889995 9.207143
0.388065 1.860337 9.350976
0.356603 1.709415 9.607226
0.320502 1.536297 9.998731
0.263007 1.260492 10.444198
0.226358 1.700181 1.900136
0.230126 1.728980 2.326294
0.242071 1.819461 2.618029
0.250718 1.885072 2.973582
0.252868 1.901694 3.458190
0.250545 1.884389 3.772141
0.244629 1.840214 4.449852
0.253073 1.904106 4.564134
0.227650 1.712446 5.105671
0.231294 1.740398 5.646622
0.254143 1.913374 6.082326
0.275871 2.077647 6.221851
0.256895 1.934645 6.694292
0.261361 1.968577 6.933160
0.251846 1.897178 7.564942
0.257207 1.937868 7.801440
0.262809 1.980372 8.036967
0.264461 1.993144 8.402527
0.248058 1.869630 8.941841
0.256679 1.934899 9.108599
0.238578 1.798655 9.779196
0.217205 1.637425 10.103921
0.129774 2.014503 1.248219
0.123377 1.914474 1.459486
0.117074 1.816300 1.910949
0.117020 1.816232 2.402541
0.119236 1.851689 2.825683
0.123544 1.919855 3.180527
0.117178 1.820790 3.693289
0.117310 1.823754 4.241333
0.116667 1.814161 4.554402
0.116330 1.808891 4.568833
0.120400 1.873420 4.980402
0.125215 1.950106 5.683543
0.128920 2.008994 6.151694
0.131825 2.055441 6.681835
0.133984 2.089692 6.919312
0.132754 2.071095 7.351904
0.130236 2.031815 7.495835
0.129533 2.021475 7.927388
0.126140 1.968571 8.137161
0.127011 1.982823 8.501908
0.125367 1.957932 9.062174
0.122478 1.912934 9.272364
0.117981 1.842932 9.614610
0.102036 1.593121 9.854349
0.083188 1.298194 10.366343
-0.005686 1.795223 2.210671
-0.006169 1.913629 2.437994
-0.006049 1.866409 3.057915
-0.006167 1.884111 3.543502
-0.006321 1.918777 3.726928
-0.006022 1.828484 4.238757
-0.006298 1.888536 4.652520
-0.005738 1.741442 4.765448
-0.006250 1.857940 5.341419
-0.007480 2.165812 5.680542
-0.007235 2.087545 6.248407
-0.007377 2.117908 6.488777
-0.007190 2.054870 7.054977
-0.007294 2.073500 7.358547
-0.006970 1.981163 7.700933
-0.006816 1.924900 8.331378
-0.007239 2.034404 8.304249
-0.006702 1.878500 8.975781
-0.006927 1.930228 9.209197
-0.006776 1.885795 9.421404
-0.006160 1.718820 9.746764
-0.005600 1.567541 10.008604
-0.003510 1.024497 10.203862
-0.144209 1.977983 1.322492
-0.123191 1.690870 2.438229
-0.132648 1.818713 2.901385
-0.139736 1.914598 3.190542
-0.141241 1.934373 3.674556
-0.136438 1.868495 4.120098
-0.140776 1.926856 4.533837
-0.131676 1.802744 4.877763
-0.131471 1.799534 5.189477
-0.152392 2.083196 5.595577
-0.145093 1.983136 6.230322
-0.155828 2.128707 6.434962
-0.149820 2.046193 7.066227
-0.149516 2.042049 7.080802
-0.147046 2.007788 7.580543
-0.148836 2.031693 7.882613
-0.150848 2.058598 8.183557
-0.143674 1.960569 8.591365
-0.145136 1.979924 8.956302
-0.137742 1.878809 9.430917
-0.132738 1.810346 9.775073
-0.114502 1.562260 10.014579
-0.094719 1.292964 10.392291
-0.288192 2.043785 0.925313
-0.294713 2.089538 1.288593
-0.246346 1.747503 2.279556
-0.275941 1.956154 2.546234
-0.262112 1.858021 3.295909
-0.255760 1.812915 3.677318
-0.253620 1.797586 3.992162
-0.275513 1.951962 4.144188
-0.253919 1.799072 4.851475
-0.250275 1.773081 5.229186
-0.270902 1.918267 5.734604
-0.292664 2.071465 6.234107
-0.302629 2.141708 6.342448
-0.298881 2.114944 6.776176
-0.298590 2.112623 7.143632
-0.285383 2.019176 7.483812
-0.277522 1.963552 7.693757
-0.276502 1.956037 8.125625
-0.276346 1.954623 8.556241
-0.273037 1.930865 9.116809
-0.261103 1.846351 9.524793
-0.253457 1.792197 9.801876
-0.229012 1.619408 10.194109
-0.351211 1.666854 0.526230
-0.402803 1.910364 1.155251
-0.380383 1.803818 2.348969
-0.383961 1.820371 3.072323
-0.404406 1.916850 3.358097
-0.400733 1.899339 3.670450
-0.371828 1.762415 4.311429
-0.389632 1.846387 4.656633
-0.383777 1.818678 4.734825
-0.393088 1.862444 5.208734
-0.410276 1.943328 5.907406
-0.447250 2.117856 6.337354
-0.462084 2.187905 6.444254
-0.425281 2.013681 7.043729
-0.429290 2.032479 7.344751
-0.406751 1.925758 7.750150
-0.426116 2.017261 7.787747
-0.415027 1.964545 8.413793
-0.428140 2.026433 8.580148
-0.409053 1.936027 8.985518
-0.393925 1.864364 9.326309
-0.364731 1.726302 9.516336
-0.338231 1.600733 10.190998
-0.253786 1.201646 10.200465
-0.573629 2.031539 1.520078
-0.545696 1.932685 1.980263
-0.515210 1.824700 2.730525
-0.541183 1.916352 3.018428
-0.506451 1.793431 3.594942
-0.541568 1.917411 3.812831
-0.531119 1.880355 4.189835
-0.554079 1.961339 4.535137
-0.495181 1.753034 5.139480
-0.509071 1.801928 5.612040
-0.576859 2.041213 6.141718
-0.627699 2.220797 6.214812
-0.583213 2.063433 6.748133
-0.603074 2.133559 6.854371
-0.561706 1.987211 7.389211
-0.546283 1.932648 7.598465
-0.548450 1.940165 7.964244
-0.551820 1.951934 8.328811
-0.556387 1.967930 8.692113
-0.535536 1.894139 9.032686
-0.512048 1.811007 9.439916
-0.453169 1.602775 10.028283
-0.429076 1.517684 9.956650
-0.262436 0.928743 10.555375
-0.602947 1.651677 0.640705
-0.721764 1.976196 1.071597
-0.727800 1.992562 1.498137
-0.705240 1.930735 2.118440
-0.714427 1.955783 2.303661
-0.675372 1.848918 2.815725
-0.689603 1.887679 3.234581
-0.673840 1.844495 3.613757
-0.700481 1.917184 3.962889
-0.687815 1.882464 4.339745
-0.636496 1.742031 5.044719
-0.651609 1.783274 5.222867
-0.680067 1.860821 5.922781
-0.762425 2.085782 6.158452
-0.752234 2.057807 6.592259
-0.730778 1.999120 6.801420
-0.717517 1.962738 7.299798
-0.704037 1.925863 7.442382
-0.706199 1.931661 7.807174
-0.704312 1.926379 8.236217
-0.694190 1.898554 8.794961
-0.688188 1.882131 8.872278
-0.653135 1.786214 9.343781
-0.616298 1.685404 9.882828
-0.581756 1.591024 9.876078
-0.408756 1.118166 10.418641
-0.760782 1.716564 1.080024
-0.854225 1.926865 1.526968
-0.863823 1.948430 1.712467
-0.827360 1.866153 2.395931
-0.839058 1.892446 2.579473
-0.783918 1.768138 3.155624
-0.808352 1.823130 3.271973
-0.737897 1.664303 3.978763
-0.799365 1.802602 4.426093
-0.835591 1.884162 4.473001
-0.842703 1.900042 5.011176
-0.747280 1.685076 5.384404
-0.825546 1.861220 5.754300
-0.880542 1.984917 6.315196
-0.861779 1.942541 6.812897
-0.876258 1.975086 7.048566
-0.852386 1.921279 7.256396
-0.786814 1.773474 7.858143
-0.778397 1.754396 8.354489
-0.810304 1.826216 8.455537
-0.805851 1.816065 8.949127
-0.764915 1.723767 9.421147
-0.769416 1.733916 9.367423
-0.676139 1.523713 10.020773
-0.620685 1.398796 10.214499
-0.396451 0.893805 10.478292
-0.833080 1.602878 0.100769
-0.873126 1.679612 0.819794
-0.965347 1.856628 1.094828
-0.988117 1.900269 1.454786
-0.998879 1.920840 1.877800
-0.916758 1.763016 2.519581
-0.930468 1.789299 2.702746
-0.961728 1.849244 3.055063
-0.927470 1.783366 3.498194
-0.927571 1.783440 4.042731
-0.911217 1.751955 4.418403
-0.951385 1.829007 4.761786
-0.982717 1.889077 5.167902
-0.844810 1.624151 5.738676
-0.891754 1.714215 6.075651
-1.056653 2.030799 6.273643
-0.999619 1.921197 6.676279
-1.006818 1.934953 6.977514
-0.962514 1.849809 7.316142
-0.948762 1.823294 7.812287
-0.931445 1.789917 8.372831
-0.908496 1.745807 8.581878
-0.917678 1.763357 8.944515
-0.896566 1.722773 9.153757
-0.863646 1.659487 9.494952
-0.769898 1.479363 10.016889
-0.570306 1.096090 10.158438
-0.865371 1.399086 0.196947
-1.027590 1.660724 0.698337
-1.193284 1.927971 1.192773
-1.155738 1.867317 1.574148
-1.120725 1.810749 1.955280
-1.012825 1.636520 2.663991
-1.077243 1.740411 2.886863
-1.079437 1.743903 3.135049
-1.089725 1.760409 3.616333
-1.081527 1.747122 3.927856
-1.098327 1.774135 4.404784
-1.156324 1.867601 4.977614
-1.181633 1.908345 5.447024
-1.044654 1.687305 5.592013
-1.064075 1.718537 6.125840
-1.180560 1.906423 6.424181
-1.116460 1.802922 6.828202
-1.125357 1.817218 7.130119
-1.020762 1.648314 7.863532
-1.078919 1.742154 7.836065
-1.051029 1.697033 8.462966
-1.084577 1.751129 8.628705
-1.006654 1.625273 9.296508
-0.983918 1.588548 9.505756
-0.917093 1.480705 9.629957
-0.837199 1.351748 9.888096
-0.624053 1.007734 10.449681
-1.044062 1.459237 0.124489
-1.079662 1.508811 0.670116
-1.246885 1.742060 0.992779
-1.237372 1.728660 1.724198
-1.216513 1.699501 2.042044
-1.231463 1.720327 2.228608
-1.180569 1.649242 2.676129
-1.187335 1.658595 3.161902
-1.168259 1.631873 3.775949
-1.134939 1.585360 3.922045
-1.167425 1.630612 4.336416
-1.354036 1.890867 4.913867
-1.365754 1.907174 5.155372
-1.246761 1.741050 5.754184
-1.096062 1.530771 5.902354
-1.144163 1.597811 6.304912
-1.217626 1.700196 6.928759
-1.206802 1.685018 7.361868
-1.204630 1.681985 7.375411
-1.158473 1.617466 8.069501
-1.194056 1.667080 8.238263
-1.146311 1.600408 8.579571
-1.149250 1.604433 9.009100
-1.083072 1.512007 9.548722
-1.089220 1.520594 9.496495
-0.963765 1.345457 10.086044
-1.252114 1.521792 0.888472
-1.376367 1.672501 1.403824
-1.351617 1.642414 1.721648
-1.368147 1.662406 2.145485
-1.293903 1.572222 2.657708
-1.259926 1.530926 3.038927
-1.363737 1.656847 3.429524
-1.184716 1.439519 3.865735
-1.512966 1.837688 5.057702
-1.509762 1.833797 5.071865
-1.494743 1.815511 5.442886
-1.321180 1.604796 5.946340
-1.239443 1.505534 6.353901
-1.320332 1.603657 6.623061
-1.378621 1.674333 7.020292
-1.329070 1.614154 7.295712
-1.258973 1.529019 7.702983
-1.223350 1.485686 8.332919
-1.282956 1.558016 8.370783
-1.247016 1.514289 9.063457
-1.209429 1.468629 9.340698
-1.156986 1.404919 9.750336
-1.060889 1.288255 10.010674
-0.896178 1.088313 10.322869
-0.503807 0.612128 10.371787
-1.268581 1.342794 0.240579
-1.401571 1.483294 0.522617
-1.444776 1.528837 1.302629
-1.542600 1.632192 1.468892
-1.474731 1.560401 1.917038
-1.451398 1.535696 2.234476
-1.371970 1.451680 2.747813
-1.362133 1.441203 3.299388
-1.384880 1.465215 3.483345
-1.512311 1.599790 4.102729
-1.745286 1.845919 4.618865
-1.693264 1.790868 5.119243
-1.642881 1.737593 5.328042
-1.533789 1.622235 5.797218
-1.392529 1.472907 6.107926
-1.281279 1.355312 6.290237
-1.248641 1.320745 6.795631
-1.351499 1.429414 6.998010
-1.393270 1.473479 7.525770
-1.421038 1.502789 7.762957
-1.383237 1.462747 8.391774
-1.394859 1.474975 8.757343
-1.332612 1.409132 9.166075
-1.292852 1.367072 9.441973
-1.272738 1.345795 9.586552
-1.100588 1.163832 9.825800
-0.862086 0.911752 10.051314
-1.401133 1.297383 0.786132
-1.607946 1.488482 1.584582
-1.558709 1.442906 1.967267
-1.470699 1.361464 2.480644
-1.470868 1.361585 2.731678
-1.480114 1.370067 3.217172
-1.523831 1.410469 3.335278
-1.589488 1.471092 3.918583
-1.800693 1.666272 4.566004
-1.882984 1.742276 5.134362
-1.810053 1.674850 5.115208
-1.675125 1.550026 5.647652
-1.562587 1.445913 6.117233
-1.489387 1.378237 6.100761
-1.212477 1.122142 6.649352
-1.251470 1.158169 6.823960
-1.396893 1.292512 7.605019
-1.439797 1.332155 7.775792
-1.446963 1.338729 8.142544
-1.492060 1.380401 8.311413
-1.460284 1.350935 8.937853
-1.385777 1.281982 9.411635
-1.272752 1.177448 9.669744
-1.161346 1.074411 9.930160
-1.025958 0.949172 10.393394
-1.565251 1.262180 -0.076228
-1.384215 1.116393 0.155701
-1.483272 1.196092 0.569316
-1.628183 1.312664 1.327903
-1.691530 1.363627 1.623786
-1.617409 1.303892 2.069628
-1.526188 1.230381 2.581105
-1.593514 1.284580 2.633154
-2.031023 1.636555 4.723042
-2.027693 1.633834 5.026371
-1.866837 1.504247 5.618758
-1.772854 1.428572 5.663892
-1.612387 1.299336 5.970867
-1.391754 1.121622 6.545009
-1.165014 0.939078 6.471282
-1.281013 1.032398 7.033146
-1.528471 1.231536 7.770663
-1.523648 1.227597 8.201524
-1.622247 1.306994 8.106908
-1.562275 1.258609 8.862547
-1.504161 1.211776 9.203036
-1.372694 1.105886 9.524597
-1.370752 1.104321 9.536988
-1.117818 0.900592 10.176684
-0.895390 0.721523 10.069313
-1.468791 1.029428 0.125779
-1.592592 1.115968 0.715013
-1.773309 1.242315 1.405607
-1.667489 1.168217 1.919351
-1.664101 1.165815 2.171125
-1.592114 1.115396 2.619071
-1.654598 1.159037 3.209238
-1.725570 1.208684 3.261483
-2.225478 1.558283 4.434489
-2.219000 1.553713 4.739512
-2.063010 1.444514 5.267157
-2.022282 1.416001 5.409994
-1.850873 1.296042 5.715675
-1.682036 1.177882 6.024797
-1.371816 0.960777 6.572691
-1.147187 0.803594 6.797054
-1.224497 0.857631 7.199536
-1.515549 1.061182 7.806903
-1.510560 1.057637 8.240886
-1.574256 1.102187 8.344474
-1.507982 1.055777 8.687754
-1.490260 1.043308 9.250957
-1.432441 1.002814 9.595345
-1.328418 0.930021 9.722805
-1.074760 0.752485 10.301620
-0.721709 0.505465 10.449990
-1.541664 0.916960 0.125521
-1.594628 0.948337 0.670116
-1.760054 1.046481 1.187840
-1.906955 1.133649 1.526584
-1.823273 1.083918 1.973644
-1.770117 1.052316 2.355276
-1.696968 1.008838 2.802137
-2.248938 1.336255 4.993249
-2.205132 1.310233 5.135367
-2.142564 1.273064 5.342199
-1.906537 1.132887 5.842212
-1.802622 1.071192 5.890157
-1.627041 0.966920 6.201518
-1.221717 0.726236 6.725762
-0.888514 0.528441 6.625771
-1.619841 0.962471 7.676473
-1.655412 0.983510 8.328810
-1.670061 0.992163 8.691663
-1.604433 0.953162 9.031854
-1.553903 0.923132 9.306881
-1.505527 0.894381 9.582433
-1.290353 0.766614 9.821144
-0.951294 0.565272 10.316000
-1.587395 0.816126 0.813116
-1.921763 0.987626 1.415032
-1.887749 0.970136 1.731595
-1.883076 0.967710 1.982318
-1.751816 0.900292 2.559821
-1.761201 0.905052 3.045077
-1.612359 0.828632 3.452696
-2.437955 1.252152 4.372011
-2.283996 1.173100 4.833532
-2.217696 1.139057 5.039345
-2.079978 1.068304 5.795850
-1.916315 0.984298 6.037699
-1.736309 0.891899 6.347744
-1.562724 0.802835 6.301733
-1.333225 0.685017 6.817184
-0.972338 0.499801 7.151749
-0.904485 0.464952 7.435476
-1.398104 0.718160 8.091675
-1.611589 0.827670 8.374318
-1.600462 0.821903 8.871722
-1.608788 0.826126 9.301726
-1.558416 0.800247 9.578817
-1.445624 0.742358 9.704911
-1.212614 0.622761 10.014195
-0.796713 0.409315 10.362874
-1.763319 0.760452 0.764300
-2.024995 0.873009 1.321861
-1.961549 0.845661 1.702267
-1.902488 0.820200 2.082403
-1.821484 0.785288 2.527781
-1.805975 0.778553 3.077378
-1.776401 0.765816 3.154854
-2.507013 1.080114 4.400495
-2.219499 0.956313 4.956106
-2.280868 0.982713 5.066053
-2.280330 0.982447 5.368907
-2.029222 0.874321 5.867134
-1.812024 0.780836 5.947901
-1.519062 0.654713 6.295628
-1.406054 0.606032 6.706314
-1.084862 0.467784 6.836102
-0.823675 0.355302 7.498607
-1.233444 0.531626 7.770785
-1.466705 0.631944 8.412261
-1.614473 0.695519 8.602354
-1.593613 0.686479 9.164935
-1.643081 0.707742 9.395580
-1.466602 0.631740 9.851754
-1.340118 0.577283 10.045223
-1.023012 0.440782 10.273280
-1.691308 0.582875 -0.083308
-1.619728 0.558259 0.063376
-1.939628 0.668055 1.411968
-1.874890 0.645790 1.557364
-1.869387 0.643846 2.048921
-1.871231 0.644427 2.538032
-1.906427 0.656477 2.959015
-1.848772 0.636646 3.104562
-2.439541 0.839528 4.513297
-2.388994 0.822141 4.656098
-2.050756 0.705853 5.055766
-1.986472 0.683705 5.559577
-2.120297 0.729675 5.767488
-1.816032 0.625069 6.112623
-1.515468 0.521734 6.464685
-1.436943 0.494716 6.745340
-1.178769 0.405963 6.972653
-0.904816 0.311779 7.272067
-1.108007 0.381572 7.633807
-1.407063 0.484264 8.438692
-1.665953 0.573222 8.585573
-1.592484 0.547936 8.928587
-1.589403 0.546823 9.425360
-1.524921 0.524625 9.769235
-1.371057 0.471710 10.096074
-1.055895 0.363378 10.257460
-1.711665 0.472002 -0.057510
-2.109434 0.581148 1.591199
-2.014654 0.555077 1.802291
-1.751982 0.482821 2.408726
-1.751395 0.482633 2.661822
-1.825358 0.502898 3.254515
-2.189235 0.602861 3.654147
-2.370705 0.652670 4.269014
-2.451430 0.674820 4.612828
-2.056394 0.566160 5.464669
-1.753315 0.482795 6.103640
-1.577955 0.434574 6.352640
-1.274268 0.351072 6.709903
-0.936391 0.258197 6.843823
-0.842051 0.232232 7.197747
-0.998319 0.275120 7.763027
-1.398330 0.385014 8.166743
-1.570911 0.432387 8.715560
-1.647493 0.453424 8.817858
-1.682689 0.463065 9.117918
-1.550140 0.426564 9.794661
-1.404852 0.386606 10.056696
-1.083000 0.298132 10.219498
-1.748304 0.354300 -0.073506
-2.157270 0.436669 1.330510
-1.852596 0.375126 1.998519
-1.792640 0.362989 2.381932
-1.848549 0.374257 2.501210
-1.830993 0.370657 3.053799
-2.147553 0.434473 3.584264
-2.472046 0.499890 4.105753
-2.390021 0.483288 4.606123
-1.874673 0.379216 5.491745
-1.649604 0.333765 5.869980
-1.542957 0.312211 6.215357
-1.291494 0.261459 6.370908
-1.040713 0.210843 6.529588
-0.904332 0.183275 7.017727
-1.077392 0.218141 7.515854
-1.369492 0.277030 7.964749
-1.508266 0.305002 8.226311
-1.574557 0.318316 8.817237
-1.665319 0.336574 9.337120
-1.662589 0.336022 9.350573
-1.473290 0.297780 9.809688
-1.229343 0.248534 10.054464
-1.808606 0.238768 0.960553
-2.065136 0.272392 1.345525
-1.875645 0.247483 1.753707
-1.872930 0.247076 2.245549
-1.899771 0.250579 2.432086
-1.880219 0.247956 2.985917
-1.739352 0.229435 3.330348
-2.393113 0.315088 4.672529
-2.247623 0.295984 4.782173
-1.939929 0.255578 5.055986
-1.656946 0.218421 5.269161
-1.563615 0.206144 5.549495
-1.578600 0.208048 6.157190
-1.283559 0.169300 6.447685
-0.876658 0.115869 6.784216
-0.911352 0.120396 7.030197
-1.051511 0.138724 7.664731
-1.381576 0.182005 7.979642
-1.537800 0.202485 8.175870
-1.552166 0.204332 8.546523
-1.611061 0.211993 9.202683
-1.651166 0.217225 9.501479
-1.512180 0.198966 9.694651
-1.240245 0.163242 10.072576
-0.702407 0.092642 10.270775
-1.870621 0.120088 0.857590
-1.972947 0.126506 1.570178
-1.905509 0.122213 1.715675
-1.873234 0.120109 2.272804
-1.872041 0.120007 2.524610
-1.909201 0.122321 2.946349
-1.832884 0.117434 3.393701
-2.471955 0.157859 4.502964
-2.206915 0.141002 4.936149
-1.944442 0.124338 5.079586
-1.799583 0.115138 5.192571
-1.661420 0.106331 5.602902
-1.507955 0.096548 6.081680
-1.306193 0.083717 6.400250
-1.031350 0.066259 6.626829
-0.931383 0.059882 6.979530
-1.142740 0.073252 7.342929
-1.337895 0.085543 8.194872
-1.481131 0.094602 8.455365
-1.514147 0.096666 8.757930
-1.550127 0.098917 9.059283
-1.589051 0.101355 9.359397
-1.520004 0.096940 9.705579
-1.817910 -0.007903 0.973693
-1.983931 -0.008814 1.555313
-1.977698 -0.008783 1.568640
-1.881354 -0.008335 2.018058
-1.826392 -0.008117 2.639150
-1.920666 -0.008630 2.928371
-1.778458 -0.007936 3.271240
-2.484459 -0.011679 4.483054
-2.242311 -0.010476 4.850233
-1.887508 -0.008698 5.254997
-1.698805 -0.007756 5.500403
-1.585806 -0.007212 5.845624
-1.476734 -0.006689 6.192106
-1.281424 -0.005683 6.146770
-0.944209 -0.003998 6.575629
-0.862514 -0.003609 6.861277
-1.115341 -0.004966 7.454669
-1.412426 -0.006534 7.904152
-1.553472 -0.007284 8.165992
-1.507408 -0.007113 8.801657
-1.501840 -0.007136 9.302785
-1.556450 -0.007440 9.536028
-1.489269 -0.007131 9.882605
-1.315805 -0.006282 10.279614
-0.809057 -0.003684 10.275904
-1.708809 -0.133683 0.061824
-1.754704 -0.137396 0.863954
-1.949753 -0.152881 1.380435
-1.880811 -0.147466 1.765275
-1.758364 -0.137831 2.281880
-1.729006 -0.135541 2.600188
-1.859418 -0.145907 3.061002
-1.599890 -0.125412 3.434033
-2.427698 -0.191027 4.614705
-2.187876 -0.172060 4.688903
-1.786216 -0.140337 5.226091
-1.687158 -0.132498 5.207558
-1.593005 -0.125078 5.486922
-1.385107 -0.108662 5.803300
-1.119113 -0.087671 6.325359
-0.900445 -0.070411 6.717828
-0.897627 -0.070227 7.098940
-1.242082 -0.097506 7.353064
-1.439982 -0.113207 7.778352
-1.482992 -0.116677 8.440776
-1.561273 -0.122881 8.544184
-1.523051 -0.119923 9.178902
-1.492396 -0.117512 9.326221
