-1.073514 2.113102 7.408655
-1.013713 2.002459 7.808008
-1.065621 2.098245 7.793904
-1.085536 2.134830 8.000494
-1.039554 2.049453 8.703089
-1.042385 2.054394 9.072739
-1.087095 2.136857 9.109495
-0.997267 1.970516 9.896487
-0.949488 1.882368 9.886625
-0.942339 1.869125 9.954415
-0.819322 1.641959 10.204994
-0.568066 1.178311 10.287669
-1.220612 2.044036 1.215943
-1.162800 1.952584 1.822718
-1.190504 1.996132 1.937534
-1.218690 2.040294 2.264491
-1.203814 2.016536 2.754181
-1.141320 1.917965 2.986984
-1.063719 1.795243 3.752842
-1.152737 1.935178 4.111520
-1.198888 2.007819 4.163920
-1.241474 2.074667 4.477344
-1.087781 1.832181 5.153712
-1.097522 1.847551 5.109313
-1.149089 1.928368 5.676878
-1.257405 2.098532 6.272286
-1.345033 2.236430 6.407393
-1.290058 2.149666 6.692540
-1.267304 2.113752 6.813626
-1.226614 2.049309 7.352600
-1.177400 1.971614 7.640199
-1.208327 2.020213 7.791746
-1.178743 1.973261 8.329278
-1.124329 1.887057 9.087997
-1.145831 1.921023 8.932636
-1.180781 1.975958 9.079875
-1.072641 1.805093 9.924984
-0.992956 1.679463 10.139009
-0.926588 1.574881 10.242441
-1.392710 2.004648 1.312444
-1.242402 1.799783 1.981904
-1.290964 1.865671 2.254667
-1.341048 1.933628 2.525598
-1.290359 1.864441 2.915472
-1.211572 1.756964 3.416595
-1.314990 1.897575 3.515224
-1.223366 1.772442 4.332965
-1.271388 1.837569 4.647866
-1.280738 1.850152 4.866125
-1.250072 1.808364 4.989769
-1.168998 1.697711 5.597206
-1.268811 1.833233 5.995860
-1.444599 2.072304 6.059316
-1.355332 1.950445 6.766491
-1.363911 1.961951 7.032262
-1.395679 2.005068 7.186827
-1.350441 1.943391 7.419871
-1.276049 1.841955 7.819930
-1.291084 1.862243 8.083172
-1.289138 1.859367 8.456112
-1.308015 1.884882 8.716933
-1.254486 1.811605 9.475536
-1.156446 1.678083 9.744144
-1.147241 1.665520 9.812776
-1.065669 1.554466 9.972204
-0.999111 1.463904 10.018651
-0.696849 1.052453 10.520922
-1.440987 1.802805 1.344834
-1.430955 1.790708 1.786575
-1.483265 1.852450 1.847088
-1.440151 1.801344 2.183477
-1.399861 1.753573 2.519595
-1.366891 1.714327 3.066632
-1.368477 1.716075 3.290051
-1.312855 1.650017 3.944784
-1.437244 1.796745 4.247770
-1.460909 1.824600 4.411777
-1.363508 1.709231 5.018439
-1.303664 1.638277 5.514519
-1.346444 1.688738 5.619655
-1.381430 1.729820 6.037730
-1.533447 1.909219 6.265836
-1.488927 1.856367 6.753338
-1.449100 1.809231 6.931854
-1.390226 1.739366 7.528903
-1.361574 1.705254 8.014389
-1.379465 1.726235 8.276346
-1.387663 1.735942 8.232297
-1.397014 1.746806 8.548645
-1.318212 1.653486 9.005277
-1.333719 1.671622 9.319969
-1.314410 1.648748 9.443014
-1.207371 1.522187 9.711576
-1.056181 1.343293 10.322590
-1.520528 1.663626 1.648344
-1.597951 1.743561 1.653499
-1.427632 1.567358 2.323476
-1.428349 1.567868 2.761427
-1.371438 1.508903 3.153225
-1.467600 1.608219 3.097917
-1.305483 1.440454 3.823887
-1.464029 1.604160 3.807019
-1.430510 1.569239 4.401743
-1.535448 1.677373 4.809809
-1.611945 1.756221 5.064488
-1.659033 1.804649 5.427076
-1.485171 1.624949 5.788814
-1.503067 1.643314 6.002366
-1.568282 1.710164 6.924938
-1.552521 1.693856 6.991527
-1.498417 1.637872 7.224618
-1.433505 1.570699 7.514139
-1.469227 1.607311 8.029600
-1.489980 1.628791 7.929692
-1.453586 1.590931 8.469506
-1.486550 1.624859 8.674266
-1.443184 1.579961 8.908161
-1.478567 1.616387 9.111453
-1.409943 1.545323 9.512767
-1.277781 1.408667 9.893976
-1.097764 1.222671 10.145940
-0.744373 0.857532 10.653522
-1.629069 1.550728 1.450033
-1.554118 1.483224 1.842449
-1.505314 1.439229 2.179126
-1.545354 1.475133 2.292121
-1.484053 1.419785 2.895988
-1.405333 1.348869 3.342783
-1.390207 1.335149 3.620970
-1.453898 1.392322 3.674079
-1.539523 1.468988 4.144768
-1.577290 1.502467 5.037994
-1.763349 1.669472 5.218591
-1.812186 1.713280 5.322252
-1.726804 1.636460 5.608353
-1.536693 1.465677 5.712798
-1.458653 1.395169 6.575167
-1.623459 1.543040 6.851807
-1.581038 1.504704 7.338821
-1.565093 1.490352 7.405336
-1.620183 1.539779 7.502228
-1.528059 1.456849 7.902606
-1.631446 1.549583 8.137330
-1.501672 1.432731 8.760556
-1.466714 1.401249 8.939199
-1.515342 1.444847 9.086788
-1.412439 1.352154 9.657417
-1.372842 1.316477 9.893097
-1.180383 1.143513 10.144609
-1.643743 1.371509 1.439266
-1.683612 1.402710 1.554388
-1.628966 1.359715 1.891645
-1.647534 1.374093 2.274928
-1.600148 1.336790 2.610650
-1.583672 1.323647 3.101902
-1.636581 1.364975 3.423126
-1.549696 1.296754 3.657678
-1.990713 1.642042 4.603897
-1.858203 1.537860 5.258197
-1.945233 1.606088 5.252110
-1.702709 1.415603 6.036211
-1.765751 1.465121 5.825396
-1.606092 1.339842 6.079073
-1.473431 1.235487 6.851871
-1.664577 1.385375 6.760130
-1.589841 1.326508 7.360578
-1.592860 1.328726 7.681109
-1.612080 1.343671 7.944668
-1.646128 1.370267 8.151384
-1.593623 1.328998 8.384329
-1.504259 1.258563 9.203603
-1.513331 1.265696 9.157371
-1.436546 1.205315 9.560563
-1.374447 1.156472 9.908756
-1.143610 0.975316 10.331839
-0.978665 0.845998 10.360053
-0.659227 0.595584 10.350865
-1.702735 1.236117 1.299584
-1.815796 1.312878 1.465205
-1.585006 1.155715 2.194895
-1.750312 1.268032 2.244257
-1.555584 1.135496 2.704348
-1.606810 1.170164 3.030242
-2.064077 1.480067 4.951065
-2.135913 1.528862 5.002448
-2.095462 1.501205 5.381419
-1.895947 1.365348 5.995736
-1.815747 1.310857 5.969406
-1.550111 1.130076 6.558676
-1.547438 1.128256 6.567897
-1.652917 1.199830 6.810804
-1.684350 1.220962 7.330250
-1.673420 1.213369 7.704678
-1.656921 1.202128 7.769745
-1.664753 1.207310 8.087134
-1.612202 1.171334 8.683080
-1.561167 1.136549 8.916703
-1.592137 1.157482 9.175116
-1.511786 1.102699 9.577716
-1.477957 1.079631 9.756002
-1.214064 0.900058 10.290800
-1.757305 1.103283 1.351920
-1.642642 1.036039 1.803914
-1.687372 1.062148 1.919181
-1.609148 1.016147 2.527391
-1.681455 1.058407 2.583347
-1.633137 1.030010 2.919331
-1.666413 1.049309 3.298069
-1.760202 1.103955 3.772256
-1.872643 1.169311 4.710346
-2.186307 1.352666 4.878058
-2.127354 1.317900 5.568226
-2.067629 1.282899 5.743754
-2.008961 1.248517 5.919760
-1.817120 1.136201 6.228095
-1.732688 1.086837 6.204348
-1.445235 0.918597 6.541781
-1.473089 0.934795 6.755063
-1.669109 1.049176 7.342222
-1.702433 1.068575 7.551320
-1.594942 1.005391 8.320415
-1.730760 1.084893 8.134310
-1.593086 1.004142 8.706092
-1.586301 0.999993 9.135923
-1.608575 1.012885 9.451769
-1.510846 0.955716 9.495849
-1.401820 0.891916 9.597222
-1.167688 0.754667 10.386023
-0.952209 0.628776 10.106984
-0.531904 0.382819 10.508048
-1.939629 1.032728 1.337526
-1.874134 1.000178 1.676834
-1.786101 0.956452 2.071881
-1.652330 0.890046 2.579477
-1.551966 0.840195 3.031497
-1.611151 0.869351 3.356582
-1.627348 0.877189 3.791965
-2.153145 1.136817 5.202670
-2.292582 1.205866 5.088760
-2.289708 1.204335 5.358321
-2.147877 1.133985 5.755157
-2.040765 1.080965 5.786685
-1.747959 0.935824 6.377132
-1.521233 0.823577 6.492008
-1.330180 0.729028 6.495754
-1.747458 0.935196 7.309586
-1.714949 0.918782 8.110302
-1.682641 0.902743 8.235389
-1.654612 0.888673 8.724779
-1.724891 0.923414 8.819329
-1.595176 0.858987 9.394842
-1.580392 0.851643 9.464081
-1.420420 0.772342 9.794500
-1.297351 0.711374 9.954144
-0.988917 0.558666 10.132543
-0.573042 0.352746 10.415264
-1.707293 0.777195 1.298632
-1.971867 0.886640 1.400978
-1.795891 0.813680 1.748895
-1.734369 0.788002 2.304157
-1.652445 0.753944 2.700114
-1.869060 0.843503 2.902539
-2.334777 1.035529 4.664458
-2.370900 1.050414 4.826088
-2.367159 1.048657 5.353617
-2.181390 0.971583 5.860679
-2.157405 0.961631 5.928389
-1.827079 0.824783 6.316282
-1.773647 0.802725 6.182655
-1.534067 0.703412 6.613290
-1.214103 0.570971 6.698874
-1.368969 0.634880 7.148060
-1.667608 0.758343 7.451172
-1.610084 0.734322 7.999646
-1.784398 0.806429 8.067111
-1.580372 0.721684 8.867349
-1.614084 0.735531 9.129508
-1.585698 0.723735 9.253871
-1.570452 0.717399 9.321747
-1.413511 0.652158 10.071558
-1.208318 0.567212 10.156492
-1.003326 0.482349 10.243430
-0.585692 0.309435 10.470513
-1.700233 0.639539 1.406283
-1.889158 0.702931 1.458959
-1.764763 0.661004 1.911944
-1.620536 0.612398 2.422117
-1.645007 0.620546 2.592932
-2.451090 0.890357 4.541905
-2.443529 0.887716 4.810698
-2.310167 0.842723 5.407945
-2.243666 0.820334 5.583348
-1.969495 0.728126 6.057054
-1.896870 0.703781 5.976394
-1.706164 0.639672 6.233075
-1.372214 0.527428 6.631431
-1.170794 0.459820 6.634882
-1.311486 0.506848 7.141957
-1.519173 0.576311 7.784907
-1.681896 0.630881 7.909166
-1.722944 0.644579 8.116926
-1.663120 0.624267 8.718459
-1.511380 0.573092 9.352418
-1.653520 0.620875 9.159757
-1.431555 0.546159 9.715038
-1.453840 0.553679 9.611472
-1.093430 0.432388 10.441728
-0.801581 0.334424 10.453645
-1.530244 0.465262 0.973426
-1.855832 0.549710 1.397318
-1.819963 0.540364 1.464717
-1.837223 0.544703 1.852190
-1.745608 0.520746 2.247736
-1.719170 0.513689 2.744433
-1.666868 0.499970 3.082314
-2.416597 0.694166 4.756384
-2.366541 0.681113 4.877242
-2.206618 0.639405 5.274588
-2.031864 0.593821 5.730223
-1.965821 0.576591 5.908869
-1.790126 0.530859 6.109567
-1.564354 0.472168 6.165408
-1.313547 0.406829 6.600404
-1.032575 0.333725 6.836753
-1.010484 0.327958 6.906360
-1.485845 0.450925 8.397113
-1.699826 0.506549 8.348433
-1.607253 0.482361 8.699434
-1.599453 0.480170 9.132761
-1.517156 0.458651 9.485094
-1.540586 0.464779 9.382628
-1.271635 0.394590 10.172881
-1.103011 0.350826 10.028306
-0.758720 0.261266 10.271160
-1.659755 0.378954 0.993994
-1.842625 0.413189 1.483175
-1.861988 0.416769 1.656202
-1.650119 0.376663 2.280192
-1.535134 0.354852 2.735723
-1.543291 0.356223 3.177445
-1.529127 0.353633 2.976258
-2.289039 0.496032 4.650681
-2.122544 0.464547 5.051469
-2.208262 0.480661 5.102245
-2.205406 0.480023 5.374380
-2.029140 0.446678 5.832248
-1.849586 0.412810 6.033940
-1.631669 0.371678 6.351553
-1.461953 0.339778 6.240362
-1.050780 0.262047 7.168721
-1.172612 0.284747 7.789039
-1.544361 0.354529 8.282743
-1.500423 0.346055 8.832932
-1.621779 0.368924 8.755731
-1.478528 0.341748 9.336246
-1.456254 0.337352 9.883834
-1.370123 0.321167 9.816606
-1.153706 0.280225 10.383242
-0.969913 0.245666 10.297995
-0.429522 0.143882 10.509077
-1.940927 0.294626 1.347325
-1.839379 0.282505 1.743690
-1.802349 0.278035 2.027265
-1.710989 0.267116 2.423444
-2.452595 0.353862 4.341454
-2.188539 0.322592 4.699928
-2.045140 0.305652 4.783989
-1.926738 0.291486 5.337823
-1.976505 0.297200 5.758954
-1.691890 0.263460 6.243042
-1.513896 0.242395 6.448949
-1.282581 0.215096 6.510017
-0.985678 0.179871 7.093935
-0.882406 0.167442 7.776932
-1.339001 0.221207 7.986613
-1.526295 0.243132 8.423389
-1.442163 0.232946 9.145935
-1.563710 0.247307 9.067931
-1.548474 0.245330 9.558946
-1.372547 0.224462 9.892079
-1.260561 0.211239 9.940593
-1.775544 0.153475 1.469138
-1.647707 0.147043 1.706304
-1.551525 0.142122 2.104758
-1.723525 0.150624 2.207165
-1.578335 0.143230 2.717040
-1.669231 0.147644 2.986089
-2.216493 0.174286 4.422782
-2.207403 0.173735 4.695154
-1.993541 0.163027 4.945711
-1.897416 0.158169 5.180739
-1.963244 0.161399 5.284781
-1.963247 0.161300 5.556456
-1.632243 0.144651 6.152757
-1.399413 0.133072 6.209835
-1.146274 0.120462 6.326773
-0.893500 0.107870 6.446785
-0.525406 0.089423 6.924485
-0.770224 0.101496 7.144083
-1.215580 0.123387 7.737843
-1.496484 0.137162 8.204427
-1.495661 0.136982 8.584319
-1.389036 0.131539 8.995631
-1.496790 0.136741 9.397128
-1.370235 0.130421 9.499529
-1.231064 0.123454 9.660670
-1.007887 0.112167 10.230032
-0.688587 0.096291 10.299542
-1.781626 0.029041 1.262074
-1.708604 0.030404 1.604392
-1.492666 0.034575 2.231353
-1.578640 0.032724 2.504352
-1.474391 0.034603 3.174201
-1.414989 0.035768 3.300292
-2.307593 0.017150 4.479411
-2.138678 0.020542 4.617473
-1.735840 0.028389 5.606498
-1.561217 0.031777 6.072348
-1.348276 0.036115 6.072893
-1.087451 0.041269 6.513273
-0.852889 0.045906 6.901406
-0.716152 0.048657 7.000059
-0.656735 0.049798 7.188682
-0.894509 0.044736 7.785605
-1.113591 0.040016 8.487129
-1.462480 0.032958 8.347303
-1.478768 0.032508 8.670019
-1.361114 0.034579 9.564102
-1.412205 0.033618 9.345419
-1.330206 0.035159 9.700543
-1.143087 0.038828 10.094094
-1.683105 -0.083051 1.438296
-1.672375 -0.082189 1.668616
-1.429347 -0.060987 2.354459
-1.398256 -0.058348 2.641048
-1.660077 -0.081512 2.786354
-1.372142 -0.056231 3.155117
-1.964886 -0.109238 5.023883
-1.721690 -0.087895 5.362314
-1.366608 -0.056792 6.020405
-1.240665 -0.045805 6.375087
-1.123280 -0.035456 6.409556
-0.908007 -0.016573 6.736060
-0.696715 0.001957 7.066720
-0.712261 0.000603 7.017523
-0.816027 -0.008808 7.702183
-1.145404 -0.037991 7.997958
-1.365726 -0.057557 8.319299
-1.279207 -0.050185 9.044132
-1.387792 -0.059761 9.020273
-1.346066 -0.056300 9.626917
-1.331042 -0.054999 9.693807
-1.132861 -0.037670 10.143854
-1.585555 -0.182725 0.979427
-1.714155 -0.203059 1.363261
-1.583777 -0.182756 1.819321
-1.577054 -0.181785 2.047804
-1.402462 -0.154581 2.617762
-1.491635 -0.168683 2.888097
-1.494096 -0.169152 3.113494
-2.157524 -0.273846 4.533955
-2.014827 -0.251471 4.616430
-1.521064 -0.174197 5.306761
-1.322447 -0.143205 5.832894
-1.255979 -0.132836 6.016358
-1.037244 -0.098611 6.340980
-0.748065 -0.053293 6.579516
-0.648919 -0.037838 6.884863
-0.665675 -0.040572 7.161974
-0.866721 -0.072403 7.875124
-1.020843 -0.096809 8.433099
-1.255265 -0.133576 8.322797
-1.183443 -0.122547 8.993846
-1.263582 -0.135322 9.512943
-1.293710 -0.140171 9.833545
-1.232775 -0.130535 9.649855
-1.096003 -0.109120 9.812584
-1.107934 -0.186067 0.596818
-1.486159 -0.272750 1.132381
-1.584644 -0.295434 1.573613
-1.458900 -0.266854 2.032065
-1.396915 -0.252810 2.376385
-1.449802 -0.264945 2.491211
-1.285898 -0.227683 3.064013
-1.315183 -0.234442 3.234532
-1.998705 -0.391243 4.602006
-1.923940 -0.374216 4.782556
-1.417319 -0.258659 5.539355
-1.286527 -0.228887 5.896469
-1.200470 -0.209301 6.139827
-0.927700 -0.147119 6.642346
-0.681646 -0.090906 6.768384
-0.622698 -0.077376 6.632326
-0.692322 -0.093456 7.060741
-0.821936 -0.123448 8.010708
-1.115809 -0.190657 8.047265
-1.237082 -0.218498 8.345087
-1.237784 -0.218802 8.729610
-1.258284 -0.223771 9.481665
-1.204425 -0.211547 9.725135
-1.226828 -0.216631 9.622595
-1.019300 -0.169371 10.135534
-0.555832 -0.063527 10.479599
-1.154716 -0.280989 0.482219
-1.471121 -0.376932 0.913141
-1.594557 -0.414444 1.298750
-1.495746 -0.384686 1.699953
-1.374622 -0.348196 2.158577
-1.398151 -0.355384 2.330754
-1.267808 -0.316207 3.062440
-1.107414 -0.267791 3.421153
-1.968060 -0.528766 4.599165
-1.986134 -0.534220 4.555261
-1.314659 -0.331419 5.763993
-1.351519 -0.342538 5.661550
-1.126306 -0.274610 6.307560
-0.864363 -0.195386 6.487418
-0.659947 -0.133510 6.494576
-0.507894 -0.087668 6.980029
-0.686649 -0.141806 7.052693
-0.862013 -0.195185 7.826243
-1.025163 -0.244763 8.327533
-1.237046 -0.308883 8.276883
-1.138500 -0.279353 9.064527
-1.255427 -0.314880 9.411715
-1.278794 -0.321914 9.308556
-1.118662 -0.273546 9.586300
-0.937621 -0.218895 9.983555
-0.657452 -0.134254 10.425161
-1.151361 -0.365429 0.650290
-1.315166 -0.427670 1.366663
-1.415265 -0.465621 1.589797
-1.351448 -0.441531 1.718072
-1.232707 -0.396796 2.179979
-1.201331 -0.385041 2.469238
-1.077018 -0.338305 3.205643
-1.385109 -0.454938 3.445841
-1.836034 -0.625945 4.574217
-1.745564 -0.591713 4.546072
-1.456198 -0.482446 5.029285
-1.237519 -0.399852 5.347612
-1.191785 -0.382602 5.474291
-1.213841 -0.391031 5.694109
-1.022379 -0.318712 5.960175
-0.739264 -0.211840 6.522620
-0.698808 -0.196588 6.651841
-0.445110 -0.100696 6.837883
-0.571148 -0.148596 7.413032
-0.982988 -0.304485 7.685424
-0.975441 -0.301928 8.449228
-1.077461 -0.340511 8.428738
-1.142855 -0.365451 8.953446
-1.152034 -0.369072 9.335186
-1.039389 -0.326671 9.867635
-1.048797 -0.330212 9.821191
-0.772587 -0.225903 10.258563
-0.495184 -0.120954 10.211907
-1.214498 -0.484595 0.676982
-1.318653 -0.532669 1.504576
-1.257113 -0.504511 1.631388
-1.222127 -0.488591 1.919866
-1.216557 -0.486130 2.150308
-1.241961 -0.497931 2.539777
-1.065705 -0.417393 3.172165
-1.724049 -0.719690 4.487535
-1.589293 -0.658061 4.838275
-1.223761 -0.490809 5.579446
-1.017100 -0.396210 5.903281
-0.955926 -0.368245 6.089768
-0.810114 -0.301470 6.243782
-0.701816 -0.251844 6.281967
-0.657915 -0.231904 6.738026
-0.381137 -0.105291 7.371694
-0.741998 -0.270728 7.440855
-1.008350 -0.392985 7.858836
-0.931293 -0.357936 8.537186
-0.988581 -0.384257 8.691084
-0.955642 -0.369383 9.250511
-0.980222 -0.380781 9.575996
-1.102545 -0.436795 9.436740
-0.928496 -0.357174 9.833149
-0.692308 -0.249018 10.096864
-0.338452 -0.086991 10.525641
-1.118601 -0.533493 0.798498
-1.302615 -0.633791 1.455373
-1.239759 -0.599768 1.802726
-1.155126 -0.553932 2.207417
-1.174616 -0.564508 2.163792
-1.252411 -0.607001 2.656727
-1.075576 -0.511051 3.073659
-1.637094 -0.816902 4.577785
-1.275413 -0.620610 5.320247
-1.091425 -0.520709 5.585862
-0.854211 -0.391950 6.029730
-0.706762 -0.312001 6.512071
-0.483989 -0.190960 6.639975
-0.445750 -0.170230 6.772944
-0.578102 -0.242389 7.291909
-0.759028 -0.341033 8.007276
-0.939095 -0.438916 8.017635
-0.977867 -0.460080 8.230241
-0.950853 -0.445604 8.731924
-0.994556 -0.469448 8.942016
-1.015178 -0.480792 9.266889
-0.994042 -0.469534 9.822097
-0.841425 -0.386716 10.161952
-1.055755 -0.593108 1.264700
-1.143402 -0.648963 1.706823
-1.136516 -0.644689 1.938292
-1.205979 -0.688830 1.996830
-1.127666 -0.639268 2.399493
-1.177675 -0.671171 2.730705
-0.972700 -0.541318 3.478403
-1.541679 -0.903079 4.424160
-1.395761 -0.810584 4.833292
-1.411290 -0.820428 4.788883
-1.250243 -0.718236 4.990688
-1.033444 -0.580712 5.368263
-0.936799 -0.519465 5.669655
-0.843048 -0.460056 5.972327
-0.570982 -0.287539 6.596599
-0.567614 -0.285406 6.608583
-0.274244 -0.099274 7.034327
-0.421147 -0.192768 7.491442
-0.874565 -0.480858 7.790867
-0.991374 -0.555146 8.032334
-0.936320 -0.520449 8.650260
-1.010837 -0.567975 9.116721
-0.938772 -0.522363 9.476193
-0.903169 -0.499833 9.662258
-0.994283 -0.557687 9.637855
-0.773425 -0.417536 9.897878
-0.423002 -0.195220 10.439945
-1.010932 -0.662130 0.649388
-1.228443 -0.822347 1.191737
-1.047124 -0.689280 1.823566
-1.042208 -0.685768 2.053041
-1.085864 -0.717927 2.166715
-1.086281 -0.718435 2.612108
-0.837240 -0.535568 3.259463
-1.441595 -0.980622 4.524861
-1.378838 -0.934668 4.970481
-1.133481 -0.754317 5.191782
-0.964730 -0.630327 5.454339
-0.943685 -0.614880 5.522870
-0.768520 -0.486321 6.115232
-0.706292 -0.440518 6.034008
-0.463870 -0.262483 6.601329
-0.368006 -0.192144 6.968377
-0.565844 -0.337746 7.187531
-0.716772 -0.449097 7.958784
-0.896125 -0.580981 7.908034
-0.841521 -0.541103 8.526727
-0.892560 -0.578709 8.679062
-0.909016 -0.590959 9.004551
-0.785660 -0.500530 9.655330
-0.841788 -0.541878 9.804044
-0.780696 -0.497110 10.164460
-0.602023 -0.365743 10.253097
-0.211364 -0.078615 10.664807
-0.974301 -0.739421 0.623453
-1.017651 -0.776489 1.346953
-1.033167 -0.789716 1.520410
-0.935360 -0.707188 2.200565
-1.021463 -0.780126 2.199094
-0.889088 -0.668264 2.774481
-0.737972 -0.540452 3.192855
-1.359815 -1.067878 4.558907
-1.319741 -1.033990 4.683095
-1.068357 -0.821299 5.227228
-0.854302 -0.640050 5.396846
-0.905430 -0.683412 5.501603
-0.747792 -0.550002 5.768393
-0.483083 -0.326090 6.451316
-0.454140 -0.301477 6.252887
-0.329904 -0.196467 6.739294
-0.574225 -0.403584 7.050394
-0.780063 -0.578183 7.531231
-0.795128 -0.591255 8.180570
-0.841877 -0.630931 8.334567
-0.854166 -0.641497 8.661825
-0.858526 -0.645374 9.045808
-0.728968 -0.535757 9.324049
-0.740709 -0.545886 9.707085
-0.720638 -0.529178 10.322100
-0.750957 -0.637883 0.435390
-0.914665 -0.797306 1.260188
-1.036257 -0.915458 1.367111
-0.877377 -0.761466 2.001558
-0.811293 -0.697487 2.406072
-0.769640 -0.657207 2.752368
-0.711627 -0.601068 3.156599
-1.311643 -1.184507 4.469189
-1.154975 -1.032608 4.991642
-1.069740 -0.949973 5.288923
-0.965590 -0.848727 5.112260
-0.782554 -0.671145 5.492843
-0.799557 -0.687771 5.714113
-0.540544 -0.436411 6.124762
-0.368272 -0.269290 6.517186
-0.391646 -0.292104 6.737480
-0.484620 -0.382533 6.987202
-0.596136 -0.491105 7.498851
-0.771525 -0.661753 8.088956
-0.747659 -0.638829 8.591545
-0.895343 -0.782271 8.595127
-0.850221 -0.738569 8.837193
-0.756741 -0.648046 9.370511
-0.679912 -0.573668 9.847869
-0.660447 -0.554827 9.975557
-0.529066 -0.427427 10.377523
-0.332977 -0.236889 10.212448
-0.739334 -0.724709 0.960813
-0.948244 -0.957292 1.222702
-0.878723 -0.880161 1.627305
-0.833493 -0.830146 2.193111
-0.773719 -0.763860 2.597141
-0.718214 -0.702324 3.000440
-0.877816 -0.880009 3.197451
-1.081328 -1.106867 3.974109
-1.191234 -1.229492 4.599169
-1.156185 -1.190564 4.723659
-1.044109 -1.066089 5.133419
-0.994410 -1.010747 5.050190
-0.775917 -0.767799 5.334054
-0.728468 -0.715107 5.519646
-0.561913 -0.530005 5.905455
-0.385540 -0.334013 6.355862
-0.356123 -0.301353 6.486101
-0.301239 -0.240603 7.063701
-0.417865 -0.370614 7.519063
-0.724353 -0.711737 7.731313
-0.772678 -0.765762 8.204404
-0.813655 -0.811439 8.358173
-0.814477 -0.812563 8.742423
-0.680848 -0.664334 9.567147
-0.631746 -0.609633 9.439564
-0.560875 -0.531041 9.919717
-0.567580 -0.538475 9.872489
-0.347894 -0.294386 10.494227
-0.569030 -0.629483 0.474636
-0.718616 -0.823410 0.856250
-0.813480 -0.946578 1.406382
-0.715114 -0.819515 1.927143
-0.711673 -0.815197 2.158174
-0.727080 -0.835250 2.330612
-0.711784 -0.815745 2.836097
-0.764753 -0.884789 3.595994
-1.066986 -1.276664 4.456987
-1.076132 -1.288639 4.677555
-1.044253 -1.247433 4.802425
-0.857971 -1.006508 5.290987
-0.633118 -0.715587 5.694567
-0.657056 -0.746522 5.589654
-0.531170 -0.583673 5.858920
-0.369358 -0.374411 6.309102
-0.400186 -0.414428 6.471409
-0.257390 -0.229954 7.195933
-0.445282 -0.473473 7.560741
-0.656508 -0.747134 7.802692
-0.701411 -0.805560 8.275813
-0.683023 -0.782050 8.777775
-0.740420 -0.856396 8.814115
-0.635613 -0.721104 9.522966
-0.607551 -0.684620 9.278651
-0.533171 -0.588627 9.817029
-0.494059 -0.538163 10.122354
-0.284013 -0.266288 10.312427
-0.573772 -0.737734 0.322594
-0.600956 -0.778752 1.055363
-0.723376 -0.961599 1.490245
-0.684083 -0.903230 1.839065
-0.713109 -0.946593 1.955930
-0.581371 -0.750592 2.652447
-0.581210 -0.750504 2.883880
-0.678294 -0.895347 2.982914
-0.984081 -1.352311 4.436816
-0.978673 -1.344428 4.715677
-0.910414 -1.242831 5.013022
-0.740357 -0.989378 5.238788
-0.534633 -0.682854 5.645420
-0.431700 -0.529494 5.859138
-0.505136 -0.638961 5.789058
-0.345360 -0.401025 6.299383
-0.320341 -0.363801 6.431384
-0.326710 -0.373699 7.040706
-0.473467 -0.592660 7.202796
-0.596452 -0.776491 7.855921
-0.673875 -0.892108 8.096597
-0.638344 -0.839526 8.714225
-0.674092 -0.892935 8.866388
-0.648258 -0.854532 9.051703
-0.553571 -0.713511 9.330894
-0.500488 -0.634625 9.751976
-0.451092 -0.561239 10.174498
-0.314612 -0.357848 10.383828
-0.432485 -0.620300 0.640242
-0.587173 -0.889379 0.905441
-0.620707 -0.948038 1.409499
-0.629311 -0.963283 1.805142
-0.552541 -0.830221 2.327762
-0.610051 -0.930347 2.545496
-0.536653 -0.802985 2.849038
-0.828985 -1.312311 4.463912
-0.884262 -1.408392 4.458982
-0.833982 -1.321167 4.697113
-0.545507 -0.820611 5.903138
-0.460454 -0.672683 5.787226
-0.322272 -0.432620 5.966168
-0.278878 -0.357372 6.214523
-0.197220 -0.216030 7.031525
-0.358527 -0.496645 7.338955
-0.518360 -0.774972 8.019439
-0.540405 -0.813446 8.232213
-0.596010 -0.910361 8.585882
-0.598279 -0.914585 8.969654
-0.596924 -0.912239 8.980530
-0.567253 -0.860840 9.223710
-0.490095 -0.726883 9.445046
-0.395497 -0.563102 10.336342
-0.381148 -0.537894 9.974115
-0.197562 -0.219002 10.282208
-0.407800 -0.685123 0.160586
-0.393629 -0.656497 0.623495
-0.460029 -0.792901 1.179280
-0.518744 -0.913428 1.565613
-0.527469 -0.931620 1.960466
-0.512119 -0.900435 2.250279
-0.498118 -0.872010 2.539576
-0.500740 -0.877751 2.987711
-0.614750 -1.111686 3.615405
-0.734485 -1.357332 4.231740
-0.708293 -1.304038 4.625546
-0.757054 -1.403861 4.619264
-0.491515 -0.861275 5.885851
-0.319513 -0.509304 6.090484
-0.249010 -0.365094 6.247944
-0.194380 -0.253558 6.617895
-0.208787 -0.283238 6.840320
-0.391485 -0.657559 7.181233
-0.510604 -0.901831 7.660899
-0.548794 -0.980363 8.077133
-0.554273 -0.991855 8.405663
-0.529250 -0.941137 9.022684
-0.540637 -0.964364 8.918914
-0.489840 -0.860764 9.395982
-0.394396 -0.665790 9.912838
-0.393245 -0.663444 9.925221
-0.327768 -0.529582 10.152930
-0.144091 -0.153583 10.206477
-0.344477 -0.673515 0.232118
-0.447392 -0.927213 0.560122
-0.482217 -1.013391 1.009868
-0.425429 -0.874471 1.933059
-0.445554 -0.924345 2.269810
-0.401405 -0.816100 2.735427
-0.384298 -0.774532 3.301757
-0.543019 -1.165581 3.581207
-0.598822 -1.303847 4.484839
-0.630074 -1.381100 4.804035
-0.610347 -1.332654 4.931686
-0.415837 -0.854516 5.708460
-0.303034 -0.577021 5.947077
-0.242078 -0.427099 6.105075
-0.164664 -0.237092 6.714496
-0.241810 -0.427045 6.730760
-0.329917 -0.644870 7.660658
-0.428904 -0.889098 8.193990
-0.445752 -0.930787 8.408571
-0.469009 -0.988197 8.564130
-0.450759 -0.943444 8.749400
-0.427528 -0.886484 8.993225
-0.379527 -0.768824 9.529819
-0.378570 -0.766479 9.541020
-0.316896 -0.615387 10.315411
-0.330608 -0.790508 0.257451
-0.276129 -0.626121 0.564291
-0.323139 -0.768927 1.122239
-0.384187 -0.953852 1.393919
-0.389489 -0.970347 1.790777
-0.350998 -0.854747 2.476451
-0.386128 -0.960977 2.475508
-0.370156 -0.913337 3.040918
-0.431546 -1.099594 3.570020
-0.519766 -1.366777 3.919611
-0.482648 -1.255439 4.699467
-0.509956 -1.338077 4.750681
-0.435822 -1.114581 5.338918
-0.397914 -0.999987 5.373944
-0.360141 -0.885803 5.408404
-0.274518 -0.627400 5.854537
-0.230270 -0.493706 5.951134
-0.158535 -0.277557 6.617429
-0.150962 -0.255122 7.018687
-0.265523 -0.602148 7.533333
-0.373858 -0.930033 7.776089
-0.427678 -1.092933 7.902135
-0.425854 -1.087865 8.288336
-0.421039 -1.073818 8.731120
-0.379227 -0.948003 9.265276
-0.378326 -0.945291 9.277318
-0.313302 -0.749191 9.734344
-0.289018 -0.676180 10.098701
-0.253704 -0.569449 10.149933
-0.114963 -0.150100 10.323134
-0.233322 -0.644252 0.155856
-0.314876 -0.962442 0.590111
-0.352128 -1.108306 1.143809
-0.303140 -0.918411 1.725170
-0.330928 -1.026934 1.944142
-0.322306 -0.993784 2.232572
-0.286223 -0.854048 2.753681
-0.309074 -0.943424 3.025451
-0.367470 -1.171811 3.709104
-0.413084 -1.350266 4.283565
-0.450370 -1.496053 4.697113
-0.443342 -1.468790 4.764809
-0.344145 -1.083200 5.218143
-0.303068 -0.923472 5.367196
-0.227953 -0.631334 5.600673
-0.179266 -0.442555 6.144013
-0.152976 -0.340637 6.452489
-0.170676 -0.409708 6.554781
-0.226336 -0.627329 7.161974
-0.311426 -0.959012 7.408407
-0.319559 -0.991546 7.999473
-0.310715 -0.957847 8.502176
-0.345718 -1.093940 8.364955
-0.324120 -1.010917 9.096608
-0.306472 -0.942010 8.967293
-0.260472 -0.763392 9.305355
-0.254571 -0.741236 9.866071
-0.247797 -0.715047 9.994493
-0.203975 -0.737963 0.216060
-0.166285 -0.535876 0.581462
-0.211300 -0.778869 0.962433
-0.262760 -1.056418 1.281167
-0.238066 -0.924910 1.967210
-0.264104 -1.065345 2.127583
-0.247525 -0.976938 2.532302
-0.237134 -0.921714 2.878641
-0.249068 -0.986591 3.208317
-0.292631 -1.222371 3.889768
-0.305428 -1.292413 4.480866
-0.299490 -1.261134 4.818295
-0.277352 -1.142605 5.118237
-0.259536 -1.046684 5.093025
-0.225027 -0.861403 5.301280
-0.166981 -0.550179 5.866079
-0.154623 -0.484057 6.055502
-0.116841 -0.281960 6.662448
-0.140294 -0.408664 6.914483
-0.209803 -0.783615 7.370531
-0.256814 -1.037653 7.904632
-0.261640 -1.064166 8.175628
-0.264104 -1.078080 8.503430
-0.264593 -1.081478 8.887894
-0.261377 -1.064311 8.957420
-0.242770 -0.965017 9.375741
-0.209870 -0.788658 9.715799
-0.200186 -0.737035 9.960999
-0.143501 -0.664111 0.165979
-0.169988 -0.893507 0.775229
-0.180414 -0.985161 1.444366
-0.182747 -1.005749 1.619425
-0.178175 -0.968095 2.130359
-0.167614 -0.878672 2.536907
-0.177309 -0.962116 2.592797
-0.170750 -0.906881 2.939718
-0.179509 -0.983829 3.485986
-0.207752 -1.228524 4.164104
-0.156172 -0.788959 5.247076
-0.171680 -0.921930 5.178335
-0.142903 -0.676861 5.835215
-0.115690 -0.443347 5.898146
-0.109227 -0.389298 6.359450
-0.114705 -0.437889 6.849485
-0.147503 -0.720911 7.276244
-0.175032 -0.959211 7.870030
-0.183810 -1.034901 7.966790
-0.190710 -1.094647 8.121047
-0.181481 -1.017518 8.796394
-0.192354 -1.111010 8.831989
-0.174020 -0.954247 9.051025
-0.152688 -0.772108 9.389663
-0.157453 -0.813877 9.657206
-0.149765 -0.748812 9.961458
-0.092117 -0.557980 0.573373
-0.096458 -0.652992 1.024780
-0.108006 -0.901101 1.623380
-0.108872 -0.922396 2.018934
-0.115583 -1.065148 2.179484
-0.105784 -0.863459 2.818302
-0.108435 -0.920217 2.931738
-0.107211 -0.896627 3.218178
-0.106044 -0.877990 3.994104
-0.116048 -1.092915 4.510400
-0.115597 -1.085565 4.790888
-0.112009 -1.011320 4.975584
-0.113979 -1.054134 5.139060
-0.096560 -0.692045 5.815898
-0.092971 -0.615730 5.733373
-0.084219 -0.432850 5.947114
-0.078651 -0.320358 6.585720
-0.089117 -0.545727 7.193637
-0.110661 -1.001659 7.410225
-0.117834 -1.154324 7.594935
-0.116444 -1.128431 8.038668
-0.114650 -1.094455 8.539211
-0.113300 -1.069848 9.038553
-0.111790 -1.038991 9.165134
-0.108317 -0.968080 9.466512
-0.101649 -0.828729 9.630208
-0.094893 -0.691327 10.286665
-0.051014 -0.543075 0.609898
-0.045884 -0.727418 1.107381
-0.038946 -0.980817 1.482120
-0.039828 -0.941015 1.993180
-0.038335 -0.995079 2.107615
-0.038171 -0.995086 2.556856
-0.042697 -0.821533 2.918234
-0.044929 -0.729099 3.599582
-0.036983 -1.024150 3.674337
-0.033019 -1.166070 4.096153
-0.037602 -0.985996 4.784161
-0.041910 -0.819765 5.204031
-0.038329 -0.954146 5.134366
-0.046706 -0.634401 5.696488
-0.048782 -0.558181 5.614016
-0.052198 -0.425920 5.981016
-0.049855 -0.508133 6.354473
-0.044687 -0.690788 7.080978
-0.036000 -1.005114 7.764495
-0.033038 -1.110644 8.121047
-0.032698 -1.123936 8.073964
-0.031827 -1.152748 8.343252
-0.035761 -0.998111 8.934547
-0.038667 -0.883378 9.412159
-0.039069 -0.867446 9.481598
-0.039466 -0.851694 9.551079
-0.040829 -0.797585 9.796410
-0.008831 -0.602077 0.100432
0.033697 -1.045524 1.149708
0.020940 -0.908641 1.838206
0.026107 -0.961704 2.174740
0.028537 -0.986606 2.348458
0.010029 -0.789385 2.989002
0.010402 -0.792422 3.219731
-0.001324 -0.667019 3.743753
0.030491 -1.000888 3.975160
0.024368 -0.933872 4.648302
0.032659 -1.020911 4.698686
0.023590 -0.923503 5.214352
0.010635 -0.785780 5.578066
-0.005499 -0.616457 5.461864
-0.020121 -0.460949 5.889099
-0.034104 -0.312155 6.318739
-0.004159 -0.626029 6.636707
0.028156 -0.963837 7.213377
0.040192 -1.088076 7.836172
0.047407 -1.162186 8.306864
0.050458 -1.193250 8.574812
0.031312 -0.990284 8.966611
0.036289 -1.041841 9.175575
0.036049 -1.039281 9.186245
0.014157 -0.806716 9.758388
0.012764 -0.791791 9.827798
-0.003521 -0.619109 10.171378
0.034923 -0.621407 0.064907
0.091798 -0.966634 1.289266
0.084854 -0.922481 2.023722
0.098236 -1.004231 2.081470
0.084565 -0.919168 2.707145
0.071540 -0.838558 3.113280
0.074980 -0.859706 3.067326
0.077542 -0.874375 3.514270
0.092015 -0.961697 4.056606
0.100539 -1.012375 4.708682
0.099765 -1.007615 4.720499
0.091574 -0.956597 5.118881
0.062188 -0.775711 5.598696
0.031210 -0.586300 5.541018
-0.013416 -0.311478 6.325504
0.016507 -0.494394 6.401723
0.079865 -0.881134 6.807273
0.115731 -1.098378 7.782709
0.127959 -1.172970 7.880453
0.119430 -1.120370 8.065818
0.116611 -1.102117 8.509770
0.117309 -1.105514 8.894459
0.112207 -1.074009 9.022231
0.087800 -0.923200 9.674251
0.073701 -0.837089 9.605961
0.067120 -0.796398 9.793661
0.072459 -0.599221 0.097893
0.070781 -0.592019 0.110817
0.151225 -0.934409 1.335037
0.162076 -0.980313 1.674203
0.173827 -1.030078 2.011285
0.146493 -0.912322 2.476451
0.160427 -0.971433 2.809667
0.103340 -0.726197 3.349107
0.137475 -0.872072 3.503079
0.157729 -0.957903 4.045680
0.164132 -0.984171 4.756870
0.157621 -0.956186 4.827851
0.131045 -0.841499 5.402719
0.103626 -0.724072 5.438811
0.056432 -0.521609 5.712078
0.036083 -0.434103 5.962438
0.053840 -0.508984 6.665903
0.113834 -0.765014 7.155089
0.193593 -1.105528 7.722036
0.213779 -1.191269 8.137311
0.220384 -1.219707 8.034508
0.204888 -1.152986 8.278170
0.211896 -1.182549 8.548182
0.177851 -1.035863 9.140169
0.164673 -0.979060 9.385520
0.132765 -0.842208 9.551079
0.098521 -0.694470 10.268271
0.129954 -0.645920 0.405206
0.128897 -0.641701 1.035144
0.238004 -0.996048 1.401869
0.216917 -0.926766 1.973587
0.189717 -0.837808 2.382338
0.190882 -0.841035 2.834069
0.215563 -0.921224 2.890487
0.192375 -0.845315 3.296730
0.197870 -0.862631 3.743236
0.254503 -1.046411 4.051818
0.243499 -1.010201 4.394890
0.192781 -0.844412 5.087394
0.197963 -0.861320 5.042393
0.122623 -0.615839 5.431195
0.095467 -0.527222 5.681304
0.096703 -0.530889 5.965705
0.136773 -0.660541 6.490893
0.246691 -1.017405 6.954008
0.271565 -1.097372 7.694655
0.311929 -1.228331 7.937672
0.277523 -1.115926 8.355233
0.249431 -1.024127 8.716494
0.218821 -0.924069 9.134821
0.234818 -0.976362 8.912721
0.193289 -0.840577 9.507192
0.166331 -0.752391 9.928431
0.158513 -0.726807 10.056916
0.108500 -0.563744 10.402191
0.170534 -0.628808 0.418334
0.192108 -0.684616 0.930229
0.269245 -0.885358 1.589168
0.308624 -0.987953 1.811209
0.243592 -0.817552 2.394453
0.255036 -0.847034 2.787466
0.285066 -0.925388 2.843802
0.209096 -0.726308 3.542651
0.268199 -0.880257 3.911496
0.304855 -0.975697 4.178905
0.316533 -1.005741 4.618313
0.231499 -0.783097 5.215019
0.229826 -0.778719 5.227153
0.170707 -0.624196 5.380032
0.129920 -0.517384 5.687782
0.080292 -0.387085 6.386420
0.138843 -0.539498 6.848864
0.262068 -0.860666 7.422403
0.332569 -1.044354 7.811476
0.359650 -1.114967 7.909363
0.341062 -1.065858 8.469246
0.307529 -0.977933 8.829552
0.290888 -0.934291 9.016205
0.329678 -1.035598 8.994126
0.263856 -0.863387 9.332035
0.207817 -0.716333 10.047275
0.215621 -0.736817 9.941962
0.131652 -0.517413 10.090625
0.095308 -0.361595 0.100823
0.216041 -0.621148 0.819771
0.332129 -0.870844 1.362383
0.314746 -0.832942 1.874265
0.337922 -0.882595 2.208676
0.373375 -0.958948 2.263904
0.348634 -0.905331 2.609638
0.314180 -0.830733 3.013418
0.271117 -0.737534 3.475689
0.326285 -0.855813 4.173730
0.370937 -0.951810 4.436905
0.337953 -0.880335 4.892985
0.287851 -0.772104 5.195791
0.199761 -0.582039 5.464862
0.130974 -0.433672 5.618442
0.141804 -0.456817 5.841327
0.144673 -0.462754 6.122687
0.419782 -1.054556 7.336359
0.451124 -1.122012 7.434176
0.479645 -1.183065 7.905716
0.423789 -1.062288 8.378070
0.416027 -1.045501 8.446387
0.411201 -1.034720 8.887667
0.380095 -0.967426 9.188288
0.303796 -0.802710 9.525933
0.286398 -0.765056 9.712136
0.244144 -0.673584 10.192420
0.114450 -0.394088 10.203616
0.186163 -0.474860 0.061178
0.413064 -0.886402 1.276293
0.465098 -0.980823 1.499165
0.417338 -0.893529 2.126720
0.401495 -0.864510 2.416972
0.360182 -0.789101 2.823557
0.361045 -0.790495 3.054301
0.424892 -0.906233 3.484167
0.407347 -0.873710 4.316041
0.461049 -0.971335 4.309358
0.410580 -0.878996 5.095432
0.397231 -0.854676 5.166258
0.283130 -0.647218 5.223776
0.150458 -0.405704 5.674618
0.162709 -0.427805 5.899538
0.156069 -0.415474 6.242373
0.472984 -0.990647 7.457241
0.467357 -0.980124 7.846370
0.566280 -1.159939 7.857129
0.563413 -1.154436 8.242462
0.502068 -1.042563 8.716654
0.491701 -1.023339 9.216433
0.456918 -0.960206 9.089349
0.368926 -0.799998 9.426317
0.336231 -0.740335 9.729536
0.178312 -0.399306 0.190330
0.256653 -0.520923 0.752847
0.421922 -0.777962 1.238387
0.478586 -0.865903 1.682391
0.474718 -0.859574 2.135137
0.441637 -0.807822 2.483291
0.381034 -0.713134 2.948225
0.441727 -0.807651 2.944507
0.406107 -0.751762 3.566370
0.454776 -0.827186 4.108077
0.551307 -0.977448 4.199042
0.493511 -0.887097 4.714136
0.427725 -0.784447 5.017735
0.337732 -0.644202 5.169318
0.227652 -0.472411 5.712772
0.219005 -0.458716 6.055039
0.194560 -0.420559 6.185059
0.539231 -0.956443 7.456561
0.603309 -1.056027 7.756784
0.573501 -1.009230 8.315451
0.598716 -1.048354 8.526071
0.641099 -1.114293 8.620461
0.607292 -1.061483 8.862095
0.463059 -0.836412 9.545965
0.433833 -0.790734 9.790578
0.446295 -0.810213 9.684967
0.319762 -0.612739 10.320701
0.159457 -0.363134 10.274519
0.173821 -0.344071 0.283525
0.605482 -0.924426 1.250585
0.472019 -0.744413 1.891847
0.504317 -0.787675 2.228274
0.485342 -0.761960 2.518649
0.402309 -0.649890 3.042880
0.459150 -0.726224 3.313641
0.517456 -0.804530 3.582467
0.512460 -0.797334 4.354529
0.619715 -0.941628 4.442934
0.503544 -0.784989 4.918965
0.417861 -0.669617 5.010094
0.278390 -0.481711 5.338664
0.253447 -0.447896 5.739855
0.219754 -0.402269 6.199673
0.190664 -0.362838 6.658839
0.641429 -0.969134 7.249539
0.632893 -0.957410 7.636980
0.646448 -0.975258 8.281784
0.704505 -1.053143 8.690888
0.676291 -1.015059 8.874721
0.657370 -0.989517 9.001070
0.597738 -0.909006 9.417259
0.538130 -0.828790 9.405535
0.409094 -0.654813 9.921093
0.151286 -0.278227 0.204033
0.537755 -0.729745 1.625433
0.610082 -0.814273 1.845280
0.588576 -0.788817 2.354145
0.606019 -0.809135 2.525938
0.569699 -0.766433 2.871808
0.449624 -0.625540 3.510078
0.481023 -0.662072 3.895504
0.623975 -0.829242 4.142568
0.585166 -0.783597 4.541720
0.565323 -0.760182 4.882049
0.456855 -0.633148 5.031868
0.305050 -0.455293 5.360859
0.297868 -0.446542 5.973801
0.342986 -0.499290 6.077562
0.259220 -0.400861 6.772248
0.590541 -0.788606 6.821156
0.682971 -0.896288 7.706873
0.805401 -1.039540 7.774860
0.800944 -1.034108 8.158824
0.810114 -1.044658 8.484026
0.841242 -1.080972 8.693094
0.728596 -0.948979 8.967212
0.626831 -0.829752 9.186245
0.500337 -0.681481 9.583090
0.402782 -0.566903 10.298853
0.251624 -0.389905 10.449686
0.259011 -0.358121 0.592181
0.405002 -0.506810 1.258047
0.687736 -0.795281 1.563797
0.701532 -0.809158 1.959786
0.656565 -0.763071 2.308892
0.614739 -0.720191 2.657687
0.595299 -0.700194 2.947700
0.466477 -0.568351 3.588788
0.582341 -0.686440 3.957579
0.633256 -0.738105 4.554920
0.677345 -0.783056 4.664617
0.623934 -0.728433 4.852667
0.411003 -0.510798 5.357459
0.361016 -0.459669 5.548176
0.443548 -0.543786 5.807620
0.300622 -0.397736 6.083064
0.424907 -0.524401 6.489743
0.596206 -0.698819 7.360577
0.873311 -0.981665 7.433986
0.806390 -0.912996 8.109570
0.872148 -0.979911 8.521768
0.959409 -1.069033 8.443642
0.833014 -0.939636 9.143616
0.802136 -0.908018 9.327292
0.676406 -0.779491 9.663167
0.579644 -0.680625 9.827323
0.450132 -0.548203 10.228271
0.202567 -0.295344 10.478362
0.261565 -0.321007 0.436684
0.551578 -0.579193 0.975717
0.738552 -0.745633 1.354189
0.751053 -0.756579 1.751298
0.767713 -0.771233 2.146162
0.657929 -0.673141 2.669306
0.596319 -0.618038 3.076240
0.627047 -0.645232 3.465639
0.623740 -0.642038 3.969219
0.613285 -0.632581 4.255893
0.759151 -0.762291 4.830099
0.772439 -0.774022 5.054725
0.612704 -0.631674 5.051984
0.410186 -0.450846 5.769815
0.492912 -0.524575 5.757746
0.304477 -0.356296 6.479607
0.401822 -0.443082 6.405836
0.637803 -0.653067 7.044855
0.838837 -0.831987 7.525131
0.914951 -0.899642 7.883219
1.006588 -0.981160 8.180602
1.017007 -0.990286 8.506058
0.980397 -0.957571 8.690404
0.860262 -0.850195 9.336089
0.697415 -0.704821 9.848386
0.641334 -0.654905 9.723049
0.484095 -0.514525 10.242753
0.318439 -0.366853 10.335149
0.386202 -0.382202 0.407973
0.692818 -0.619472 0.946390
0.817308 -0.715654 1.497579
0.669624 -0.600880 2.299887
0.735622 -0.651979 2.356648
0.760500 -0.671070 2.747823
0.820572 -0.717017 4.022353
0.822923 -0.718484 4.789076
0.965898 -0.829075 5.144207
0.870564 -0.755209 5.177439
0.630506 -0.569143 5.408664
0.609315 -0.552694 5.479581
0.436529 -0.418569 6.080330
0.320904 -0.328803 6.507442
0.376229 -0.371462 6.937905
0.691996 -0.615887 7.335266
0.991201 -0.847604 7.465448
1.031396 -0.878497 7.994688
1.129414 -0.954290 8.290573
1.017628 -0.867451 8.818504
1.068704 -0.906947 8.970099
0.869803 -0.752582 9.592631
0.847174 -0.734993 9.720661
0.747760 -0.657933 9.827691
0.495080 -0.406820 0.234139
0.807851 -0.613705 0.998747
0.990507 -0.734528 1.434321
0.831594 -0.628989 2.015144
0.875666 -0.658137 2.131888
1.174921 -0.855278 4.699256
1.111888 -0.813319 5.151201
1.011036 -0.746487 5.185176
0.702614 -0.541971 5.591286
0.548254 -0.439610 5.804861
0.456618 -0.378764 6.113334
0.463590 -0.383260 6.395912
0.635160 -0.496496 7.387019
0.930582 -0.691974 7.950486
1.087615 -0.795982 8.019144
1.151706 -0.838239 8.487709
1.166263 -0.847742 8.812793
1.115036 -0.813696 9.055229
1.077175 -0.788531 9.240735
1.007236 -0.742037 9.599395
0.778564 -0.590397 9.915952
0.553030 -0.440834 10.238845
0.349226 -0.305716 10.449222
0.288447 -0.242355 0.299347
1.094301 -0.707138 1.304677
0.952783 -0.625223 1.826397
0.845179 -0.562908 2.291165
1.594980 -0.995153 3.723768
1.615736 -1.006953 4.156452
1.575197 -0.983610 4.015888
1.106673 -0.712594 5.307161
1.063672 -0.687716 5.435340
0.816777 -0.545228 5.340799
0.624456 -0.433951 5.938941
0.548355 -0.389915 6.187570
0.440268 -0.327364 6.553914
0.649805 -0.448232 6.777932
0.961899 -0.628182 7.292034
1.130604 -0.725409 7.680099
1.235060 -0.785584 7.977747
1.217764 -0.775414 8.417033
1.290682 -0.817314 8.879944
1.142024 -0.731381 9.153438
1.103609 -0.709127 9.337538
0.970447 -0.632162 9.557367
0.795809 -0.531154 10.012474
0.572497 -0.402129 10.277467
1.027996 -0.569626 1.543070
1.019212 -0.565195 1.994327
1.067370 -0.588439 2.109384
1.826049 -0.954672 3.809576
1.880168 -0.980801 3.918423
1.770675 -0.927836 3.944220
1.201466 -0.652157 4.909240
1.343298 -0.720694 5.053130
1.241690 -0.671325 5.615869
1.010739 -0.559583 5.729928
0.704425 -0.411297 6.081154
0.738181 -0.427666 5.975916
0.574784 -0.348555 6.189412
0.443810 -0.284907 6.942070
0.886030 -0.498736 7.047570
1.106828 -0.605152 7.957932
1.232686 -0.665924 8.196948
1.287726 -0.692481 8.349984
1.315911 -0.706004 8.616448
1.181942 -0.640975 9.201005
1.154554 -0.627678 9.327652
0.992531 -0.549183 9.663189
0.879194 -0.494326 9.769491
0.561209 -0.340241 10.502981
1.236092 -0.566513 1.409708
1.252399 -0.572905 1.802726
1.245828 -0.570176 2.033139
1.937711 -0.847250 3.692246
1.992847 -0.869339 3.801803
1.777718 -0.782782 4.316655
1.438453 -0.646360 4.923539
1.648818 -0.730812 4.898173
1.495632 -0.669162 5.306538
1.134707 -0.524105 5.762096
1.023622 -0.479501 5.797318
0.873249 -0.419080 5.949560
0.522594 -0.278139 6.424071
0.588179 -0.304424 6.527495
0.901087 -0.429800 7.105304
1.130381 -0.521483 8.015584
1.262684 -0.574642 7.883039
1.332025 -0.602292 8.350877
1.291790 -0.585924 8.903836
1.312962 -0.594296 9.226400
1.194450 -0.546684 9.329899
1.106021 -0.511024 9.745428
0.852968 -0.409322 10.063951
0.782386 -0.381039 9.938996
0.451280 -0.248034 10.185512
1.318032 -0.496679 1.530091
1.223744 -0.465816 2.151656
1.584429 -0.582913 2.288608
1.933706 -0.696039 3.120023
2.070061 -0.740085 3.749664
2.030244 -0.727025 4.081223
1.773675 -0.643553 4.444439
1.699984 -0.619549 4.625385
1.649945 -0.603248 4.750292
1.493676 -0.552234 5.423813
1.515368 -0.559196 5.642483
1.202955 -0.457717 5.662614
1.088983 -0.420686 5.697386
0.784654 -0.321728 5.990092
0.701807 -0.294725 6.236991
0.600409 -0.261548 6.869660
0.944805 -0.373210 7.383863
1.271551 -0.479243 7.628495
1.338357 -0.500761 8.098466
1.396428 -0.519564 8.249945
1.284694 -0.482952 9.087059
1.309581 -0.491075 8.982193
1.253371 -0.472726 9.221653
1.279256 -0.481011 9.541677
1.041985 -0.403685 10.222603
0.760386 -0.312241 10.173163
1.516532 -0.452291 1.417804
1.447400 -0.434613 1.762577
2.286208 -0.646924 3.374880
2.116438 -0.603602 3.983433
1.973854 -0.567378 4.065852
1.521937 -0.452353 4.897296
1.719549 -0.502402 5.192663
1.761820 -0.513072 5.353177
1.386258 -0.417572 5.803238
1.221634 -0.375828 5.686459
0.932324 -0.302304 5.917699
0.749507 -0.255697 6.454765
0.650904 -0.230553 6.759644
0.943301 -0.304635 7.127589
1.315629 -0.398976 7.576024
1.448004 -0.432487 7.816148
1.350101 -0.407363 8.540526
1.440925 -0.430404 8.577181
1.390154 -0.417288 9.184372
1.428802 -0.426999 9.447107
1.445315 -0.431049 9.822710
1.373073 -0.412759 9.697334
0.955946 -0.306658 10.280944
1.556937 -0.344761 1.605834
1.461050 -0.327379 2.223097
1.749693 -0.378901 2.529133
2.170750 -0.453960 3.242946
2.339757 -0.483982 3.813303
2.274943 -0.472245 4.197402
2.065898 -0.434855 4.182232
1.940069 -0.412237 4.472965
2.066862 -0.434747 4.936951
2.085356 -0.437976 5.153494
1.700423 -0.368950 5.596329
1.448152 -0.323780 5.706957
1.133741 -0.267428 5.994007
0.935273 -0.231825 6.262376
0.891490 -0.223945 6.390663
0.733610 -0.195524 6.870795
0.978401 -0.239114 7.412043
1.428320 -0.319521 7.627311
1.292746 -0.294955 8.469202
1.434809 -0.320282 8.704186
1.483455 -0.328908 8.912041
1.588206 -0.347498 9.313335
1.519699 -0.335133 9.609246
1.491716 -0.330080 9.734647
1.211503 -0.279815 10.105394
0.896443 -0.223429 10.172668
1.618568 -0.243018 1.527651
1.638386 -0.245126 1.701869
2.465763 -0.335193 3.371991
2.562186 -0.345492 4.104008
2.269872 -0.313303 4.516611
2.204382 -0.306252 4.171356
1.889222 -0.271536 4.647303
1.927564 -0.275582 5.074517
1.969068 -0.280071 5.237475
1.782494 -0.259548 5.438686
1.512076 -0.229752 5.870303
1.195710 -0.194972 6.159673
0.983101 -0.171669 6.164312
0.991633 -0.172501 6.443655
0.776601 -0.148693 7.100075
1.133411 -0.187729 7.292034
1.288796 -0.204436 8.169836
1.476417 -0.224975 8.237447
1.617209 -0.240318 8.475164
1.658488 -0.244611 9.106831
1.765706 -0.256369 9.087793
1.693491 -0.248345 9.383912
1.514160 -0.228394 10.193164
1.305622 -0.205528 10.220491
0.856430 -0.156215 10.443135
1.786250 -0.140882 1.451486
1.717779 -0.137940 1.577620
1.618318 -0.133586 1.978034
1.671768 -0.135726 2.310097
1.859022 -0.143375 3.054890
2.402525 -0.166190 3.538624
2.553970 -0.172370 4.160064
2.449569 -0.167869 4.392375
2.139932 -0.154694 4.601805
2.016229 -0.149354 4.893870
1.943527 -0.146117 5.336946
2.053515 -0.150772 5.330966
1.844972 -0.141856 5.587831
1.669558 -0.134265 6.053187
1.414930 -0.123451 6.169096
1.160653 -0.112651 6.288126
0.961599 -0.104132 6.559212
0.844120 -0.098911 7.244914
1.108583 -0.110041 7.404249
1.496237 -0.126277 7.848712
1.507644 -0.126506 8.543281
1.728081 -0.135849 8.494028
1.857175 -0.141205 8.783723
1.767293 -0.137274 9.134144
1.604453 -0.130133 9.826487
1.564698 -0.128384 10.009242
1.366717 -0.120020 9.979482
0.936635 -0.101788 10.083090
1.760652 -0.020773 1.508437
1.898607 -0.017227 1.673555
1.859393 -0.018035 2.174632
1.768464 -0.020187 2.572172
2.730495 0.004653 4.027956
2.624609 0.002061 4.259124
2.503759 -0.000983 4.283929
2.234843 -0.007552 4.902541
2.137934 -0.010011 4.875105
2.040708 -0.012382 5.109751
1.813670 -0.017909 5.682985
1.838624 -0.017200 5.899113
1.501178 -0.025602 6.239024
1.308741 -0.030485 6.183375
1.049791 -0.036867 6.624845
0.854586 -0.041700 6.896834
1.007886 -0.037640 7.407497
1.430142 -0.026850 7.737520
1.518486 -0.024468 8.148230
1.694365 -0.019845 8.637855
1.869451 -0.015378 8.757326
1.767328 -0.017657 9.582816
1.688315 -0.019525 9.934011
1.762008 -0.017783 9.605783
1.392738 -0.026833 10.372582
1.119505 -0.033797 10.209927
1.874904 0.108674 1.502080
1.835084 0.105078 1.786393
1.945349 0.115403 2.004183
2.803413 0.195804 3.857507
2.738070 0.189872 4.236575
2.683976 0.184890 4.356547
2.225112 0.142558 5.175938
2.086981 0.129851 5.521278
1.963372 0.118589 6.127855
1.793060 0.102723 6.013716
1.418536 0.068093 6.469606
1.147588 0.042985 6.646831
0.934609 0.023318 6.975995
1.047080 0.033879 7.281217
1.388315 0.065673 7.526722
1.664222 0.091479 7.995440
1.756016 0.100157 8.401652
1.753649 0.100229 9.199071
1.986056 0.121782 9.090140
1.848134 0.109178 9.663522
1.637188 0.089762 10.162804
1.537314 0.080479 10.153952
1.218829 0.050913 10.219889
1.858260 0.236507 1.510876
2.024576 0.263631 1.619598
1.984841 0.257345 2.118686
1.754954 0.220159 2.796076
2.840100 0.397302 3.970140
2.890395 0.405628 4.336808
2.627610 0.362965 4.688792
2.438435 0.332230 4.881110
2.433040 0.331452 5.152566
2.386874 0.324075 5.533368
2.317469 0.312839 5.711709
2.023031 0.264973 5.930933
1.905060 0.245775 5.964760
1.592336 0.194955 6.248243
1.189206 0.129403 6.506099
1.088488 0.113114 6.808881
1.121913 0.118637 7.027182
1.369272 0.159117 7.563920
1.627101 0.201433 8.458519
1.829252 0.234355 8.468026
1.898668 0.245849 8.980794
1.963382 0.256442 9.128677
1.892618 0.245026 9.420360
1.654736 0.206515 10.030619
1.604910 0.198313 9.793167
2.115057 0.425929 1.204441
2.042288 0.409094 1.544284
