-1.173346 -1.035470 8.000417
-1.334502 -1.187499 8.389197
-1.444297 -1.291053 8.861238
-1.462744 -1.308418 9.249325
-1.538934 -1.380281 9.547555
-1.420386 -1.268400 9.685389
-1.243444 -1.101377 10.182054
-1.089522 -1.102528 0.323746
-1.090490 -1.103553 0.513025
-1.363867 -1.399230 0.695040
-1.371229 -1.407144 1.109972
-1.391469 -1.428962 1.752982
-1.385561 -1.422590 1.596705
-1.397475 -1.435441 1.896949
-1.427437 -1.467781 2.481833
-1.333550 -1.366153 3.117271
-1.875271 -1.952022 3.848298
-1.934766 -2.016308 4.416940
-1.968620 -2.052892 4.707715
-1.877399 -1.954245 4.517845
-1.813738 -1.885315 5.123972
-1.689450 -1.750866 5.230526
-1.580759 -1.633274 5.451053
-1.540650 -1.589811 6.127621
-1.380251 -1.416278 6.435837
-0.817309 -0.807230 7.631284
-0.972719 -0.975322 7.708487
-1.281094 -1.308779 8.533313
-1.271594 -1.298509 8.488892
-1.336777 -1.368979 8.788605
-1.366526 -1.401105 9.233701
-1.332385 -1.364158 9.393826
-1.363252 -1.397462 10.104365
-1.275062 -1.503359 1.284008
-1.346390 -1.592031 1.579234
-1.297042 -1.530612 1.941734
-1.297662 -1.531381 1.956661
-1.311250 -1.548242 2.256636
-1.281605 -1.511298 2.850860
-1.428263 -1.693654 3.158402
-1.731575 -2.070797 3.795385
-1.789901 -2.143343 3.738908
-1.816251 -2.175997 4.651634
-1.811608 -2.170229 4.609128
-1.740497 -2.081727 5.100776
-1.680504 -2.007111 5.132458
-1.559001 -1.855994 5.183179
-1.571211 -1.871103 5.777207
-1.396988 -1.654409 5.910368
-1.324326 -1.563937 6.730520
-0.923377 -1.065146 7.822725
-1.067142 -1.243933 7.897127
-1.112262 -1.300018 8.141477
-1.262463 -1.486722 8.901214
-1.253351 -1.475395 8.857217
-1.378264 -1.630673 9.440094
-1.314564 -1.551412 9.748345
-1.053174 -1.421907 1.240648
-1.180257 -1.604321 1.703942
-1.173806 -1.595088 1.489890
-1.198581 -1.630566 2.188735
-1.209670 -1.646454 2.430889
-1.171382 -1.591425 2.795548
-1.327298 -1.815217 3.438249
-1.598247 -2.204202 3.957544
-1.675074 -2.314488 4.176818
-1.609970 -2.221016 4.094437
-1.674275 -2.313258 4.771103
-1.597057 -2.202407 4.580053
-1.550380 -2.135290 5.240553
-1.489514 -2.047896 5.217079
-1.417857 -1.944949 5.605990
-1.286585 -1.756405 5.964387
-0.818438 -1.084009 7.255500
-0.948168 -1.270226 7.708510
-1.047535 -1.412825 8.299731
-1.111753 -1.504987 8.657923
-1.082921 -1.463610 8.499214
-1.181322 -1.604830 9.027931
-1.140826 -1.546668 9.130506
-1.146076 -1.554160 9.462677
-1.070562 -1.445657 9.979508
-1.002482 -1.569784 1.043252
-1.005807 -1.575295 1.228048
-1.073966 -1.688746 1.864862
-1.069074 -1.680621 1.706394
-1.076708 -1.693301 1.947304
-1.083302 -1.704258 2.131065
-1.054603 -1.656365 2.665699
-1.452589 -2.319174 4.050695
-1.445036 -2.306608 3.952126
-1.491161 -2.383361 4.518247
-1.492238 -2.385153 4.530555
-1.494458 -2.388762 5.113455
-1.411577 -2.250653 5.330744
-1.416938 -2.259501 5.864233
-1.324304 -2.105160 5.975955
-1.168589 -1.845743 5.997584
-1.059959 -1.664581 7.235486
-0.987067 -1.543052 7.844189
-0.971948 -1.517879 7.742082
-1.043603 -1.637181 8.213493
-1.014566 -1.588783 8.370120
-0.985996 -1.541161 8.527481
-1.084748 -1.705586 9.112369
-1.099647 -1.730348 9.499750
-1.010083 -1.581077 9.900234
-0.867661 -1.343791 10.016846
-0.749170 -1.359365 0.569919
-0.887731 -1.631776 0.865809
-0.887251 -1.630840 0.821443
-0.891154 -1.638463 1.121208
-0.938583 -1.731704 1.244965
-0.943387 -1.741109 1.486322
-0.962963 -1.779481 2.183837
-0.973903 -1.800941 2.481610
-0.931544 -1.717633 2.560348
-0.970239 -1.793579 3.372140
-0.902593 -1.660636 2.939200
-0.891432 -1.638575 3.594217
-1.352474 -2.545033 4.333657
-1.312790 -2.466983 4.417589
-1.362877 -2.565364 5.037275
-1.344113 -2.528414 5.344670
-1.282726 -2.407645 5.674613
-1.228883 -2.301783 5.596816
-1.141387 -2.129722 5.650736
-1.078982 -2.006876 6.404888
-1.006989 -1.865138 7.392341
-0.935649 -1.724824 7.572762
-0.915864 -1.685882 7.784627
-0.881568 -1.618426 7.882758
-0.902573 -1.659642 8.383325
-0.927896 -1.709347 8.884690
-0.991320 -1.833992 9.296738
-0.880839 -1.616761 9.203489
-0.818570 -1.494225 9.718540
-0.780672 -1.419590 10.355985
-0.651820 -1.406123 0.249392
-0.735583 -1.603625 1.096526
-0.823739 -1.811553 1.674515
-0.821627 -1.806588 1.573961
-0.831270 -1.829261 1.986959
-0.834767 -1.837487 2.114585
-0.817165 -1.795816 2.764319
-0.836688 -1.841792 3.234360
-0.803826 -1.764211 3.373850
-0.738276 -1.609463 3.641797
-1.146619 -2.572948 4.550418
-1.116572 -2.502009 4.691399
-1.082920 -2.422575 4.777623
-1.049378 -2.343400 4.864346
-1.024105 -2.283715 5.063517
-1.017003 -2.266869 5.488001
-0.955464 -2.121595 5.710782
-0.951134 -2.111203 6.557789
-0.774033 -1.693287 6.380337
-0.792536 -1.736830 6.990914
-0.810320 -1.778685 7.545308
-0.749537 -1.635279 7.356224
-0.827606 -1.819375 8.057383
-0.785171 -1.719235 8.042686
-0.753240 -1.643793 8.459265
-0.805340 -1.766663 8.874417
-0.777521 -1.700989 8.977023
-0.788183 -1.726071 9.366984
-0.719612 -1.564166 9.768556
-0.625296 -1.341481 10.268595
-0.596767 -1.542453 0.685574
-0.696313 -1.825703 0.695933
-0.733077 -1.930213 1.108132
-0.707735 -1.857976 1.641074
-0.711334 -1.868173 1.827869
-0.719468 -1.891232 2.185618
-0.689767 -1.806687 2.323172
-0.678637 -1.774845 3.034963
-0.720666 -1.894380 3.267978
-0.681843 -1.783945 3.123532
-0.634904 -1.650264 3.622238
-0.917161 -2.453329 3.940758
-0.899183 -2.402102 4.249786
-0.888816 -2.372502 4.672367
-0.906481 -2.422569 5.487939
-0.878917 -2.344118 5.579392
-0.839798 -2.232826 5.502838
-0.771589 -2.038628 5.975896
-0.729413 -1.918535 6.317806
-0.670748 -1.751480 6.859338
-0.659425 -1.719196 7.127389
-0.686189 -1.795278 7.427588
-0.660736 -1.722832 7.525174
-0.668300 -1.744247 7.967909
-0.634864 -1.649023 8.326490
-0.678427 -1.772878 8.742085
-0.679893 -1.776970 9.073489
-0.682738 -1.784984 9.405902
-0.669717 -1.747820 9.888142
-0.478541 -1.579430 0.390429
-0.561813 -1.888526 1.260583
-0.560307 -1.882979 1.104170
-0.564108 -1.896990 1.461789
-0.566591 -1.906157 1.647985
-0.572322 -1.927340 2.005226
-0.554656 -1.861582 2.427489
-0.545018 -1.825573 3.081488
-0.536217 -1.792978 2.752718
-0.552709 -1.854067 3.340341
-0.570526 -1.920096 3.869366
-0.569004 -1.914454 3.827248
-0.706506 -2.425045 4.628045
-0.735292 -2.531973 4.681336
-0.718063 -2.467902 4.878734
-0.715417 -2.457926 5.356725
-0.702594 -2.410210 5.613046
-0.700205 -2.401205 6.038704
-0.628289 -2.133987 6.174470
-0.570608 -1.919585 6.540171
-0.547055 -1.831942 7.001648
-0.555708 -1.864047 7.129020
-0.527542 -1.759413 7.110124
-0.535798 -1.789935 7.608304
-0.551001 -1.846244 8.164789
-0.536286 -1.791527 8.321535
-0.536015 -1.790421 8.651205
-0.541909 -1.812295 8.721500
-0.513290 -1.705881 9.026615
-0.495969 -1.641402 9.449911
-0.356951 -1.508208 0.262540
-0.378080 -1.612688 0.812920
-0.437476 -1.907018 0.821167
-0.439205 -1.915467 1.121799
-0.442712 -1.932681 1.536499
-0.449071 -1.963977 2.064921
-0.430373 -1.871289 2.144170
-0.436084 -1.899445 2.502299
-0.416639 -1.803076 2.525993
-0.424550 -1.842110 2.942333
-0.435119 -1.894295 3.414500
-0.421607 -1.827237 3.670362
-0.433084 -1.883942 4.085498
-0.477745 -2.105194 4.240711
-0.503053 -2.230538 4.408907
-0.509070 -2.260284 4.592180
-0.531882 -2.373073 5.224828
-0.548208 -2.453810 5.630961
-0.519740 -2.312624 5.911532
-0.455046 -1.992077 5.819681
-0.437331 -1.904082 6.334084
-0.443664 -1.935246 6.886137
-0.431067 -1.872757 7.039653
-0.434022 -1.887225 7.480323
-0.422109 -1.828127 7.636073
-0.420303 -1.819043 7.964774
-0.412378 -1.779685 8.179877
-0.433851 -1.885821 8.854760
-0.449929 -1.965398 9.097448
-0.433097 -1.881842 9.462677
-0.404902 -1.742046 9.658683
-0.267014 -1.632582 0.707928
-0.294584 -1.841706 1.120760
-0.310737 -1.964056 1.646202
-0.313627 -1.985785 2.003444
-0.315936 -2.003168 2.244170
-0.300834 -1.888607 2.035741
-0.293335 -1.831330 2.572159
-0.296328 -1.853915 2.814296
-0.303877 -1.910925 3.342352
-0.302315 -1.899119 3.240679
-0.298047 -1.866381 3.781169
-0.304702 -1.916703 4.137324
-0.331157 -2.117226 4.760587
-0.357162 -2.314734 4.738727
-0.365508 -2.377902 5.088655
-0.377486 -2.468587 5.549665
-0.363523 -2.362557 5.526329
-0.338319 -2.170834 6.053332
-0.308250 -1.942544 5.938648
-0.314920 -1.992801 6.601654
-0.306345 -1.927584 6.752489
-0.309623 -1.952178 7.247308
-0.305664 -1.921945 7.514942
-0.304226 -1.910828 7.840942
-0.307885 -1.938344 8.282480
-0.298245 -1.865080 8.381982
-0.298212 -1.864628 8.711430
-0.301187 -1.887176 8.781450
-0.307667 -1.935925 9.545080
-0.275696 -1.693184 9.452164
-0.258389 -1.561432 9.970900
-0.157890 -1.745412 0.604634
-0.164356 -1.851280 0.903003
-0.159659 -1.773313 1.494189
-0.165127 -1.863473 1.273064
-0.174520 -2.016628 2.194969
-0.168525 -1.918078 2.215469
-0.163984 -1.843051 2.523079
-0.166421 -1.882549 2.937410
-0.168430 -1.915176 3.236656
-0.161301 -1.798210 3.088734
-0.166099 -1.876213 3.733048
-0.165277 -1.862843 3.631398
-0.171426 -1.962982 4.331087
-0.171551 -1.965013 4.344027
-0.176339 -2.043090 4.813154
-0.183075 -2.153709 4.865382
-0.185987 -2.200567 5.633682
-0.174997 -2.019807 5.744460
-0.174596 -2.012657 6.177827
-0.171287 -1.958002 6.384526
-0.174826 -2.015846 6.625703
-0.174409 -2.008488 7.005136
-0.169650 -1.930158 7.100431
-0.167732 -1.898286 7.368114
-0.175172 -2.019525 8.151379
-0.169602 -1.927945 8.193389
-0.172811 -1.980024 8.693374
-0.168429 -1.907872 8.794418
-0.168745 -1.912641 9.125142
-0.163588 -1.827400 9.490092
-0.153027 -1.653326 9.892438
-0.041438 -1.449581 0.341428
-0.039346 -1.751798 0.583488
-0.038610 -1.862515 1.054005
-0.038590 -1.866875 1.181685
-0.037827 -1.979429 1.476509
-0.037808 -1.982884 1.546534
-0.038370 -1.907268 1.965525
-0.039016 -1.816311 2.100098
-0.038878 -1.839457 2.400233
-0.038539 -1.894637 2.986638
-0.038849 -1.856420 3.527007
-0.038973 -1.836894 3.367857
-0.038686 -1.882077 3.724990
-0.038254 -1.949204 4.195833
-0.037764 -2.024770 4.665396
-0.037813 -2.017307 4.621307
-0.038361 -1.940466 4.765280
-0.037429 -2.082506 5.519562
-0.038223 -1.973955 5.972783
-0.038804 -1.891833 6.064532
-0.037489 -2.084485 6.454499
-0.038240 -1.976709 6.433607
-0.037566 -2.077915 6.845452
-0.038805 -1.902034 6.964970
-0.037992 -2.027944 7.804124
-0.038301 -1.986141 8.016367
-0.039287 -1.843445 7.885896
-0.038883 -1.907642 8.443728
-0.039403 -1.834399 8.544078
-0.039290 -1.854971 8.932219
-0.039255 -1.867470 9.583774
-0.039980 -1.767156 9.894572
-0.041778 -1.511762 10.069172
0.064981 -1.549412 0.443208
0.073218 -1.659355 0.990142
0.088829 -1.866873 1.227376
0.089799 -1.880062 1.527644
0.081752 -1.773060 1.373725
0.084419 -1.809166 2.019974
0.085093 -1.818244 2.148568
0.085813 -1.827947 2.277116
0.090144 -1.886122 2.921744
0.094591 -1.945734 3.450453
0.086223 -1.834532 3.361578
0.093800 -1.935936 4.120124
0.090300 -1.889117 3.790344
0.098805 -2.002845 4.547131
0.096895 -1.977321 4.389530
0.100946 -2.032036 5.276087
0.089739 -1.882975 5.022509
0.078385 -1.732532 5.302946
0.084628 -1.815851 5.719434
0.097735 -1.990239 6.055512
0.100674 -2.029893 6.662211
0.100924 -2.033236 6.675788
0.099298 -2.011980 6.998899
0.089561 -1.883020 7.292265
0.097189 -1.985063 8.019488
0.089018 -1.876566 8.004410
0.084693 -1.819313 8.161480
0.092721 -1.926608 8.835768
0.091652 -1.912367 8.792182
0.092300 -1.921664 9.442341
0.076971 -1.718167 9.464778
0.062250 -1.523080 9.810426
0.157496 -1.441348 0.259286
0.186959 -1.644222 0.736604
0.232021 -1.954364 1.202797
0.233868 -1.967236 1.503271
0.206996 -1.782580 1.758169
0.206648 -1.780162 1.715717
0.213028 -1.824398 2.362787
0.214586 -1.835178 2.492597
0.221057 -1.879940 2.966277
0.221282 -1.881496 2.981268
0.226068 -1.914575 3.282471
0.213992 -1.831612 3.423909
0.231368 -1.951589 4.297842
0.229178 -1.936472 4.198512
0.238688 -2.002097 4.613067
0.234988 -1.976896 5.044656
0.218170 -1.861191 4.960943
0.209468 -1.801759 5.700582
0.225662 -1.913148 5.750178
0.234950 -1.977187 6.048602
0.228799 -1.935033 6.311980
0.241019 -2.019263 6.667108
0.229538 -1.940362 6.760972
0.223654 -1.900253 7.396290
0.217137 -1.855557 7.607632
0.227072 -1.924010 7.849431
0.207288 -1.788094 8.090773
0.211848 -1.819698 8.535107
0.242226 -2.028953 9.176915
0.227099 -1.925097 9.483677
0.191905 -1.683024 9.390188
0.175613 -1.571306 9.966598
0.257368 -1.427030 0.310937
0.301062 -1.628256 0.787407
0.343343 -1.822787 0.740326
0.348236 -1.845565 1.443020
0.329663 -1.760197 1.692355
0.335278 -1.786194 2.109299
0.336391 -1.791341 2.181326
0.338497 -1.801077 2.310759
0.353609 -1.870901 3.070752
0.355281 -1.878618 3.142539
0.354281 -1.874004 3.099827
0.346630 -1.839000 3.640803
0.362355 -1.911555 4.169484
0.364628 -1.922042 4.240037
0.366942 -1.932714 4.310560
0.364615 -1.922210 4.854596
0.329910 -1.762602 5.075539
0.328484 -1.756227 5.568096
0.365176 -1.925187 5.904950
0.368442 -1.940241 5.975459
0.402987 -2.099455 6.671964
0.386091 -2.021745 6.766325
0.375460 -1.972909 6.975288
0.358789 -1.896234 7.070941
0.386211 -2.022728 7.910023
0.356062 -1.883954 7.780156
0.372978 -1.962017 8.393768
0.349806 -1.855393 8.379744
0.382004 -2.003842 9.166903
0.338633 -1.804284 9.187793
0.320672 -1.721776 9.554370
0.302066 -1.636404 10.189955
0.354649 -1.408115 0.562360
0.411901 -1.605623 0.864397
0.440263 -1.703443 0.935061
0.444313 -1.717527 1.353495
0.446737 -1.725939 1.541603
0.455640 -1.756791 2.074514
0.453704 -1.750088 1.972610
0.460984 -1.775292 2.330271
0.468139 -1.800049 2.630192
0.479599 -1.839686 3.044358
0.454039 -1.751572 3.125551
0.473873 -1.820130 3.712454
0.470172 -1.807340 3.610792
0.488263 -1.869857 4.081923
0.500979 -1.913790 4.380608
0.534424 -2.029317 5.077147
0.495653 -1.895721 5.412770
0.429279 -1.666795 5.234268
0.479656 -1.840759 6.109277
0.486855 -1.865483 5.757552
0.519337 -1.977640 6.284218
0.500517 -1.912784 6.434053
0.489726 -1.875651 6.699116
0.492119 -1.884026 7.137059
0.514689 -1.962045 7.804569
0.503030 -1.921903 8.016813
0.486999 -1.866668 8.172834
0.471219 -1.812299 8.329597
0.470905 -1.811310 8.659267
0.482455 -1.851266 9.104574
0.452964 -1.749661 9.412009
0.430222 -1.671345 9.779816
0.332694 -1.335103 9.987576
0.517240 -1.567095 0.376879
0.588696 -1.762937 0.905692
0.665624 -1.973792 1.539916
0.454830 -1.397078 4.360680
0.498929 -1.517905 4.533037
0.502953 -1.528943 4.604752
0.583776 -1.750493 5.350197
0.574958 -1.726428 5.728185
0.588514 -1.763602 5.914064
0.635989 -1.893673 6.077802
0.607996 -1.817021 6.170550
0.655774 -1.948022 6.754984
0.633586 -1.887284 6.907094
0.611695 -1.827360 7.059991
0.638891 -1.902007 7.728405
0.647827 -1.926585 8.169409
0.604574 -1.808096 8.097721
0.634493 -1.890188 8.712769
0.616243 -1.840239 8.871737
0.599394 -1.794200 9.350203
0.582442 -1.747805 9.511618
0.543429 -1.344339 0.301381
0.628311 -1.534672 0.892392
0.667185 -1.621745 0.673020
0.633224 -1.545755 1.266176
0.681953 -1.655035 1.678428
0.639054 -1.558881 1.582019
0.689784 -1.672645 1.992813
0.700575 -1.696898 2.350902
0.686999 -1.666614 3.063139
0.680216 -1.651383 2.904119
0.713180 -1.725391 3.606761
0.716930 -1.733809 3.677527
0.711590 -1.721822 3.576297
0.715223 -1.730114 4.349287
0.668547 -1.625498 4.263177
0.663730 -1.614811 4.811155
0.677185 -1.645000 4.997353
0.651129 -1.586648 5.201832
0.714167 -1.728065 5.962897
0.765462 -1.843036 6.069109
0.809963 -1.942852 6.537987
0.760492 -1.831974 6.460815
0.744870 -1.797018 6.726364
0.788013 -1.893781 7.139119
0.735908 -1.777072 7.432952
0.724306 -1.751126 7.702325
0.795002 -1.909667 8.286625
0.757757 -1.826209 8.329556
0.818805 -1.963110 8.798401
0.844808 -2.021478 9.297485
0.723174 -1.748910 9.352664
0.635005 -1.303475 0.257238
0.732385 -1.486632 0.849044
0.739673 -1.500413 1.325297
0.739948 -1.500932 1.339286
0.741413 -1.503698 1.411034
0.748601 -1.517261 1.713715
0.763188 -1.544762 2.189205
0.772260 -1.561858 2.433697
0.795703 -1.606017 2.965672
0.746870 -1.514215 2.932288
0.842562 -1.694244 3.797057
0.804413 -1.622555 3.939439
0.751283 -1.522666 3.852006
0.750445 -1.521203 4.515652
0.747130 -1.514963 4.471911
0.766125 -1.550712 4.716618
0.708667 -1.442780 5.170144
0.752449 -1.525162 5.646594
0.828283 -1.667763 5.927506
0.829700 -1.670429 5.941395
0.879975 -1.765017 6.413085
0.868442 -1.743392 6.736189
0.813276 -1.639750 7.085454
0.858247 -1.724347 7.442786
0.844927 -1.699354 7.712169
0.840876 -1.691795 8.040000
0.830424 -1.672192 8.311680
0.847242 -1.703883 8.756402
0.831264 -1.673883 8.972991
0.790212 -1.596775 9.337890
0.757437 -1.535181 9.441800
0.685066 -1.399215 9.903172
0.662123 -1.176638 0.317215
0.772183 -1.355945 0.969935
0.829875 -1.449929 1.271141
0.880196 -1.531849 1.167129
0.833103 -1.455207 1.416900
0.850554 -1.483711 2.009216
0.855333 -1.491512 2.139655
0.862818 -1.503729 2.327683
0.900457 -1.565131 3.090979
0.836607 -1.461135 2.886054
0.878830 -1.529994 3.593008
0.835820 -1.459984 3.736329
0.885162 -1.540423 4.385488
0.849375 -1.482184 4.589354
0.860817 -1.500835 4.719771
0.899828 -1.564418 5.137744
0.792780 -1.390115 5.131685
0.811227 -1.420181 5.318677
0.918916 -1.595604 5.830688
0.933358 -1.619139 5.958642
0.975423 -1.687687 6.315330
0.940183 -1.630330 6.465883
0.989645 -1.710985 7.247308
0.982092 -1.698737 7.572539
0.916906 -1.592585 7.498045
0.919676 -1.597154 7.882982
0.962654 -1.667227 8.498277
0.973093 -1.684283 8.885360
0.915785 -1.590969 8.872590
0.970890 -1.680789 9.491048
0.874668 -1.524126 9.571016
0.829064 -1.449967 10.206430
0.627926 -0.963602 0.211174
0.862048 -1.289950 0.515971
0.921362 -1.372636 0.644929
0.926150 -1.379358 1.006170
0.932390 -1.388098 1.309502
0.944337 -1.404806 1.728146
0.953135 -1.417101 1.973389
0.958329 -1.424358 2.103164
0.989866 -1.468401 2.751295
0.993942 -1.474092 2.823223
0.954365 -1.418974 3.136063
0.974825 -1.447532 3.438699
0.926262 -1.379866 3.579279
0.926298 -1.380015 4.299540
0.927454 -1.381628 4.312406
0.990443 -1.469506 4.959592
0.940512 -1.399927 5.047882
0.890746 -1.330579 5.136662
0.987060 -1.464928 5.957941
1.060357 -1.567100 6.064084
1.020205 -1.511159 6.213537
1.077135 -1.590562 6.627612
1.129229 -1.663214 6.983085
1.127894 -1.661406 7.363670
1.054703 -1.559438 7.658684
1.019888 -1.510935 7.813681
0.995478 -1.476943 8.026977
0.992602 -1.472980 8.356388
1.035757 -1.533203 8.916755
1.027915 -1.522311 9.190933
0.986785 -1.465001 9.293609
0.914352 -1.364082 9.545249
0.795765 -1.198886 10.158732
0.634368 -0.838977 0.511369
0.955209 -1.222639 0.520958
1.021860 -1.302370 0.765957
1.022880 -1.303599 0.838659
1.028530 -1.310393 1.142504
1.060138 -1.348307 2.081087
1.053310 -1.340122 1.922909
1.061428 -1.349853 2.109471
1.107184 -1.404670 2.929281
1.100622 -1.396810 2.827718
0.989223 -1.263632 3.092738
0.947661 -1.213971 3.407572
0.977027 -1.249132 3.769194
1.004118 -1.281565 4.072307
1.033428 -1.316651 4.374917
1.052646 -1.339655 4.561635
1.015876 -1.295719 4.822864
0.917659 -1.178305 5.103540
1.101909 -1.398745 6.022903
1.142502 -1.447264 5.842795
1.105722 -1.403309 6.049867
1.229945 -1.551955 6.865621
1.169955 -1.480224 6.903663
1.128954 -1.431214 7.056740
1.190331 -1.504699 7.784627
1.099621 -1.396212 7.653348
1.082794 -1.376124 7.924672
1.078945 -1.371563 8.254738
1.161637 -1.470536 8.988220
1.166330 -1.476190 9.320435
1.086994 -1.381351 9.572365
1.069422 -1.360365 9.792426
0.900379 -1.158279 10.234039
1.029675 -1.160998 0.544986
1.107937 -1.243611 1.134604
1.114491 -1.250552 1.378545
1.108555 -1.244266 1.160334
1.132237 -1.269326 1.866112
1.130345 -1.267326 1.821255
1.101116 -1.236586 2.592460
1.113031 -1.249174 2.778672
1.186253 -1.326411 2.839404
1.162620 -1.301554 3.438924
1.137103 -1.274696 3.925932
1.053803 -1.186821 3.778928
1.131984 -1.269369 4.543604
1.139980 -1.277810 4.614139
1.148104 -1.286388 4.684643
1.131082 -1.268485 5.118679
1.067767 -1.201770 5.690218
1.179041 -1.319166 5.970981
1.189655 -1.330370 6.041329
1.142169 -1.280302 6.191139
1.285590 -1.431625 6.640575
1.220915 -1.363414 6.677140
1.206058 -1.347782 7.001532
1.282020 -1.427992 7.786191
1.241451 -1.385220 7.941476
1.166421 -1.306083 7.924897
1.248665 -1.392912 8.656580
1.211607 -1.353844 8.814937
1.162089 -1.301628 8.916428
1.114859 -1.251862 9.339217
1.194733 -1.336179 9.961989
0.984819 -1.114815 10.288365
1.036572 -1.024880 0.865391
1.182894 -1.159642 0.816984
1.189177 -1.165462 1.120159
1.204212 -1.179360 1.596453
1.214411 -1.188781 1.841543
1.172596 -1.150332 2.440694
1.184641 -1.161447 2.628358
1.189524 -1.165952 2.700365
1.220773 -1.194779 3.118713
1.217295 -1.191571 3.075219
1.190624 -1.167065 3.620809
1.153675 -1.133074 3.995443
1.186717 -1.163540 4.298862
1.156846 -1.136069 4.675983
1.144454 -1.124644 4.574441
1.132842 -1.114002 5.069224
1.154172 -1.133721 5.739745
1.327216 -1.293116 5.885382
1.323829 -1.290044 6.322971
1.235084 -1.208298 6.244517
1.328388 -1.294292 6.776234
1.313665 -1.280767 7.102051
1.338695 -1.303834 7.230917
1.339931 -1.305015 7.615471
1.262289 -1.233542 7.972129
1.271483 -1.242052 8.360434
1.368535 -1.331485 8.776306
1.427648 -1.385957 9.019014
1.349187 -1.313724 9.325584
1.258202 -1.229951 9.577313
1.100997 -0.945784 0.507982
1.183013 -1.011350 0.810624
1.272686 -1.083053 1.284229
1.281235 -1.089909 1.528789
1.291549 -1.098175 1.773237
1.316654 -1.118284 2.248205
1.161684 -0.994457 2.277123
1.124976 -0.965186 2.880873
1.254090 -1.068415 3.463446
1.361789 -1.154503 3.752595
1.279762 -1.088955 3.721667
1.222195 -1.042976 3.922168
1.291902 -1.098736 4.513848
1.301006 -1.106019 4.585073
1.248584 -1.064151 4.788529
1.085797 -0.934129 5.320245
1.209206 -1.032769 5.605141
1.325361 -1.125606 5.829489
1.362919 -1.155686 6.498227
1.387065 -1.174993 6.626661
1.457021 -1.230928 6.984205
1.431230 -1.210347 7.252192
1.358583 -1.152302 7.291528
1.373184 -1.164014 7.734223
1.340133 -1.137626 7.948067
1.391390 -1.178640 8.508189
1.392408 -1.179487 8.839394
1.292289 -1.099479 8.768677
1.311007 -1.114476 9.159712
1.228848 -1.048858 9.469308
1.158872 -0.993008 10.106392
1.257176 -0.936742 1.197636
1.347570 -0.999598 1.439460
1.350377 -1.001556 1.511646
1.276449 -0.950188 1.704866
1.298439 -0.965513 2.124740
1.334406 -0.990566 2.659736
1.267437 -0.944035 2.857360
1.283330 -0.955100 3.045680
1.316973 -0.978521 3.407427
1.248599 -0.931008 3.549938
1.315166 -0.977336 4.143715
1.331236 -0.988519 4.273804
1.313711 -0.976385 4.766840
1.332293 -0.989314 4.896930
1.245155 -0.928742 4.870803
1.165467 -0.873407 5.444963
1.396691 -1.034167 5.824988
1.399204 -1.035915 5.839392
1.427725 -1.055799 6.450812
1.464400 -1.081310 6.636983
1.538092 -1.132568 6.994716
1.394295 -1.032627 7.116097
1.407280 -1.041695 7.559131
1.344582 -0.998124 7.657466
1.466373 -1.082863 8.506170
1.376732 -1.020552 8.492271
1.425251 -1.054296 8.678829
1.540866 -1.134731 9.413057
1.389832 -1.029755 9.492928
1.402206 -0.894488 1.063956
1.316764 -0.843646 1.083453
1.329059 -0.850996 1.447684
1.339897 -0.857468 1.695812
1.362901 -0.871197 2.117505
1.293458 -0.829896 2.373300
1.230711 -0.792586 2.688995
1.256664 -0.808059 2.996298
1.268815 -0.815302 3.128927
1.305202 -0.836988 3.493728
1.359733 -0.869483 3.973735
1.291035 -0.828617 4.120253
1.315605 -0.843255 4.310682
1.399721 -0.893365 4.903025
1.317130 -0.844220 4.933801
1.349116 -0.863322 5.661488
1.445887 -0.920912 5.712395
1.469117 -0.934748 5.840968
1.430768 -0.911952 6.106180
1.573779 -0.997120 6.809842
1.543834 -0.979325 7.077379
1.516216 -0.962915 7.346118
1.436351 -0.915393 7.385519
1.425397 -0.908905 7.714080
1.447485 -0.922090 8.159275
1.539742 -0.977052 8.835580
1.494488 -0.950138 8.995148
1.517896 -0.964104 9.385739
1.447555 -0.922279 9.753690
1.453539 -0.792707 0.777472
1.462525 -0.797282 1.139344
1.394794 -0.763087 1.679742
1.395541 -0.763466 1.694907
1.435001 -0.783474 2.346933
1.369466 -0.750369 2.660297
1.267970 -0.699041 2.509960
1.325338 -0.728103 3.165251
1.338474 -0.734756 3.295519
1.345996 -0.738566 3.367657
1.444691 -0.788538 4.192962
1.366163 -0.748843 4.279865
1.400700 -0.766326 4.525796
1.411197 -0.771640 4.597740
1.272527 -0.701555 4.877562
1.371317 -0.751556 5.472889
1.524647 -0.829107 5.813733
1.429090 -0.780793 5.790610
1.558098 -0.846075 6.439349
1.623099 -0.878966 6.740598
1.539566 -0.836736 6.778607
1.576181 -0.855298 7.335562
1.593645 -0.864167 7.778674
1.541258 -0.837695 7.935470
1.599710 -0.867298 8.496073
1.551109 -0.842740 8.655223
1.486662 -0.810165 8.757404
1.473501 -0.803536 9.033481
1.396291 -0.764533 9.400987
1.330729 -0.616981 1.170385
1.337585 -0.619887 1.360462
1.440442 -0.663266 1.603457
1.379116 -0.637462 2.144836
1.273382 -0.592873 1.931700
1.305621 -0.606504 2.411184
1.320418 -0.612758 2.598922
1.363679 -0.631035 3.077383
1.382790 -0.639108 3.264661
1.423124 -0.656141 3.625843
1.431579 -0.659711 3.696739
1.462122 -0.672607 3.941394
1.498657 -0.688085 4.837771
1.519572 -0.696913 4.966220
1.379790 -0.638014 5.247040
1.281393 -0.596534 5.220253
1.480426 -0.680483 5.794678
1.482924 -0.681537 5.807560
1.603798 -0.732541 6.397531
1.670223 -0.760568 6.697774
1.636961 -0.746569 6.964711
1.606180 -0.733617 7.232860
1.683195 -0.766140 7.904726
1.522004 -0.698171 7.657240
1.528904 -0.701113 8.044313
1.557574 -0.713237 8.490243
1.541115 -0.706322 8.764168
1.654176 -0.754040 9.442310
1.410542 -0.651327 9.289552
1.489117 -0.684521 10.122886
1.295587 -0.602966 10.415979
1.466226 -0.557207 1.217571
1.478652 -0.561492 1.521500
1.474119 -0.559930 1.419604
1.415119 -0.539760 2.077880
1.321687 -0.507733 2.098963
1.378148 -0.527148 2.812230
1.384883 -0.529463 2.884509
1.391804 -0.531841 2.956768
1.410740 -0.538348 3.145273
1.377832 -0.527114 3.694708
1.495421 -0.567438 3.869681
1.528441 -0.578778 4.115246
1.533100 -0.580431 4.781300
1.423453 -0.542837 4.696177
1.297307 -0.499628 5.094196
1.406625 -0.537152 5.690876
1.664218 -0.625482 6.010318
1.667115 -0.626476 6.024251
1.744339 -0.653015 6.807826
1.669619 -0.627409 6.903612
1.553775 -0.587691 6.826649
1.535359 -0.581405 7.154459
1.581678 -0.597331 7.714757
1.525765 -0.578177 7.871819
1.693733 -0.635806 8.462408
1.590551 -0.600434 8.448553
1.518987 -0.575937 8.869985
1.487759 -0.565251 9.089064
1.651740 -0.621531 9.886927
1.471392 -0.559737 10.235149
0.710545 -0.243180 0.338066
1.012695 -0.323953 1.059975
1.407438 -0.429420 1.294078
1.405742 -0.428963 1.249514
1.418771 -0.432469 1.554118
1.438674 -0.437815 1.916685
1.350580 -0.414294 2.053395
1.396547 -0.426622 2.649875
1.408293 -0.429771 2.779949
1.450524 -0.441086 3.200662
1.471478 -0.446700 3.388522
1.538347 -0.464606 3.923977
1.444501 -0.439540 3.951419
1.559278 -0.470263 4.718932
1.590580 -0.478640 4.905960
1.402644 -0.428441 4.954442
1.351024 -0.414673 5.219114
1.571630 -0.473656 5.852072
1.574415 -0.474401 5.865625
1.650957 -0.494878 6.225601
1.773006 -0.527524 6.756736
1.668695 -0.499658 6.736755
1.663199 -0.498221 7.120599
1.647794 -0.494133 7.448154
1.652288 -0.495366 7.834639
1.612184 -0.484670 8.049275
1.677660 -0.502207 8.611141
1.589750 -0.478727 8.654978
1.667643 -0.499582 9.219150
1.697225 -0.507516 9.611041
1.580302 -0.476303 9.865344
1.221991 -0.380600 10.015894
0.922150 -0.238565 0.560654
1.426089 -0.340228 1.150828
1.528812 -0.360951 1.277372
1.431415 -0.341314 1.295442
1.371070 -0.329204 2.014201
1.411845 -0.337470 2.552965
1.393982 -0.333850 2.334009
1.452663 -0.345736 2.988574
1.454101 -0.346027 3.002658
1.493661 -0.354033 3.365388
1.516118 -0.358577 3.553564
1.595623 -0.374657 4.146878
1.500698 -0.355518 4.175589
1.528773 -0.361194 4.363694
1.480245 -0.351435 4.683923
1.328806 -0.320921 4.965064
1.394574 -0.334213 5.329352
1.657245 -0.387205 5.652454
1.835177 -0.423150 6.471479
1.742909 -0.404547 6.507887
1.719831 -0.399920 6.832584
1.730587 -0.402125 7.273774
1.624274 -0.380686 7.255163
1.610202 -0.377876 7.583657
1.633262 -0.382561 8.028974
1.757227 -0.407592 8.445571
1.591975 -0.374281 8.576382
1.631391 -0.382265 9.025134
1.561719 -0.368225 9.127984
1.610255 -0.378048 9.578900
1.440466 -0.343844 9.983766
0.839881 -0.156634 0.677057
1.142850 -0.194402 0.922555
1.446005 -0.232188 1.104210
1.351476 -0.220421 1.239219
1.362002 -0.221752 1.487712
1.400879 -0.226649 2.144527
1.434414 -0.230861 2.567299
1.430658 -0.230390 2.523840
1.447551 -0.232510 2.713328
1.516260 -0.241123 3.367657
1.524902 -0.242206 3.440451
1.540933 -0.244213 3.571240
1.515250 -0.241058 4.121841
1.579822 -0.249137 4.542541
1.630398 -0.255462 4.844772
1.447313 -0.232659 4.950349
1.472898 -0.235901 5.622058
1.527040 -0.242628 5.383138
1.685788 -0.262468 6.148329
1.768061 -0.272748 6.506764
1.730744 -0.268085 6.346924
1.806118 -0.277535 7.073790
1.713405 -0.265986 7.111819
1.666291 -0.260133 7.323294
1.652761 -0.258474 7.651373
1.711454 -0.265832 8.211522
1.620340 -0.254483 8.253354
1.729136 -0.268092 8.931279
1.601461 -0.252179 8.859812
1.645952 -0.257758 9.309205
1.522749 -0.242428 9.561429
1.321166 -0.217362 10.176469
1.450470 -0.132431 0.814208
1.555153 -0.138273 1.000752
1.366303 -0.127785 1.313618
1.390292 -0.129159 1.795606
1.414237 -0.130521 2.160473
1.458781 -0.133044 2.699683
1.471275 -0.133750 2.830870
1.529213 -0.137018 3.367883
1.537800 -0.137502 3.439771
1.539475 -0.137596 3.453602
1.570460 -0.139341 3.699456
1.513043 -0.136170 4.017019
1.613968 -0.141840 4.668748
1.527638 -0.137041 4.757205
1.417124 -0.130930 5.271966
1.442071 -0.132329 5.402417
1.710453 -0.147296 5.724560
1.800525 -0.152343 6.141272
1.828055 -0.153920 6.694858
1.859935 -0.155705 6.823282
1.810504 -0.152970 7.033853
1.778104 -0.151188 7.302988
1.701042 -0.146935 7.773365
1.676152 -0.145571 8.045892
1.732012 -0.148696 8.232682
1.598511 -0.141284 8.478485
1.599475 -0.141364 8.812095
1.738240 -0.149122 9.230178
1.675013 -0.145636 9.655858
1.439682 -0.132554 9.887110
1.452728 -0.031929 0.632436
1.464508 -0.031808 1.113988
1.397998 -0.032765 1.830944
1.382653 -0.032950 1.551815
1.406941 -0.032655 1.973180
1.433181 -0.032329 2.335831
1.448695 -0.032134 2.523385
1.513051 -0.031315 3.176147
1.508052 -0.031379 3.130743
1.595086 -0.030257 3.839812
1.588956 -0.030337 3.794547
1.532429 -0.031127 4.111180
1.596999 -0.030286 4.529869
1.710412 -0.028803 5.178401
1.354479 -0.033598 4.896118
1.512381 -0.031527 5.724932
1.784783 -0.027865 6.042677
1.774898 -0.027995 5.997732
1.799187 -0.027710 6.550337
1.802210 -0.027671 6.562912
1.764703 -0.028199 6.829436
1.837967 -0.027261 7.499839
1.632767 -0.030039 7.507984
1.588365 -0.030657 7.721187
1.720274 -0.028935 8.513896
1.574858 -0.030893 8.382740
1.687723 -0.029419 9.062351
1.653565 -0.029873 8.959452
1.565579 -0.031093 9.325355
1.462615 0.066623 1.092157
1.485571 0.068439 1.630471
1.477615 0.067807 1.470482
1.397588 0.061299 1.840064
1.430968 0.063963 2.321259
1.436778 0.064427 2.394112
1.485926 0.068363 2.932684
1.505765 0.069955 3.121661
1.554829 0.073893 3.542686
1.602449 0.077720 3.904975
1.612563 0.078533 3.977353
1.567595 0.074862 4.354180
1.697762 0.085339 5.120708
1.472705 0.067128 4.997187
1.476463 0.067388 5.554112
1.577094 0.075536 5.548995
1.812640 0.094556 6.177410
1.799134 0.093432 6.559319
1.844595 0.097097 6.745978
1.869616 0.099083 7.244130
1.716715 0.086719 7.053947
1.604043 0.077569 7.408502
1.675266 0.083286 8.028522
1.566918 0.074515 8.013330
1.689088 0.084347 8.751542
1.731148 0.087742 8.881317
1.641165 0.080453 8.926930
1.687539 0.084172 9.377786
1.564285 0.074173 9.629878
1.204820 0.045032 10.103896
1.449614 0.166796 0.924305
1.565234 0.184224 1.400807
1.587029 0.187483 1.821640
1.516821 0.176842 2.249671
1.433233 0.164198 2.447375
1.449574 0.166652 2.637365
1.490752 0.172839 3.059896
1.504929 0.174970 3.191356
1.592939 0.188208 3.902713
1.611226 0.190960 4.033653
1.558537 0.182975 4.353274
1.597672 0.188867 4.600228
1.600149 0.189240 4.615382
1.520593 0.177166 5.303537
1.426355 0.162927 5.337548
1.642922 0.195597 5.913277
1.742800 0.210686 5.907341
1.822057 0.222630 6.267370
1.769060 0.214607 6.477556
1.760130 0.213227 6.861585
1.818355 0.221974 7.476965
1.745512 0.210931 7.949191
1.723067 0.207518 8.223228
1.709550 0.205480 8.177971
1.558797 0.182691 8.364167
1.594730 0.188083 8.812321
1.712333 0.205821 9.171423
1.608115 0.190052 9.479935
1.548122 0.282414 1.346227
1.553807 0.283635 1.475989
1.576432 0.288500 1.895400
1.527018 0.277745 2.554461
1.421048 0.254804 2.460576
1.458884 0.262964 2.882009
1.530505 0.278420 3.534981
1.504790 0.272870 3.316618
1.548390 0.282282 3.678621
1.525150 0.277204 4.228415
1.609387 0.295403 4.763676
1.564652 0.285738 4.488001
1.517706 0.275545 4.808232
1.388989 0.247638 5.206582
1.504363 0.272575 5.802544
1.710396 0.317190 5.832865
1.813159 0.339405 6.306608
1.815498 0.339876 6.745529
1.824998 0.341897 7.185889
1.675369 0.309510 6.994916
1.751479 0.325937 7.668630
1.693476 0.313363 7.825180
1.669706 0.308194 8.097981
1.631347 0.299869 8.314105
1.647662 0.303344 9.024457
1.674935 0.309218 9.417013
1.548219 0.281783 9.348007
1.549821 0.282081 9.950747
1.145927 0.194612 9.984855
1.520442 0.389049 1.241129
1.528038 0.391246 1.429568
1.560391 0.400620 2.023431
1.561339 0.400895 2.037905
1.496467 0.381965 2.465821
1.443908 0.366617 2.954496
1.434070 0.363760 2.852691
1.477257 0.376303 3.274191
1.572700 0.404037 4.042469
1.591024 0.409363 4.172632
1.601468 0.412399 4.244904
1.525896 0.390377 4.390420
1.568191 0.402625 5.232108
1.425011 0.360945 4.973542
1.439175 0.365020 5.587748
1.617517 0.416929 5.986639
1.721083 0.447053 6.461375
1.698187 0.440393 6.359746
1.740415 0.452677 6.545846
1.804085 0.471165 7.215462
1.712900 0.444573 7.626375
1.639777 0.423268 7.724678
1.599075 0.411396 7.939140
1.702231 0.441410 8.298831
1.681194 0.435234 8.891222
1.557977 0.399353 8.820238
1.581719 0.406235 9.212546
1.552574 0.397728 9.432214
1.528214 0.390566 10.243302
1.570047 0.523595 0.748571
1.585152 0.529117 1.283778
1.507417 0.500439 1.650769
1.508188 0.500722 1.665935
1.529054 0.508380 2.028633
1.588583 0.530253 2.795595
1.471444 0.487108 2.530433
1.464306 0.484401 3.426620
1.440498 0.475646 3.208606
1.494997 0.495689 3.687227
1.526209 0.507170 3.933251
1.619193 0.541381 4.583270
1.556344 0.518203 4.787399
1.540125 0.512235 4.685930
1.487635 0.492869 4.948980
1.490190 0.493764 5.503699
1.583421 0.528080 5.980997
1.763345 0.594351 6.376081
1.700695 0.571251 6.528104
1.756590 0.591828 6.771976
1.682411 0.564484 6.867879
1.588385 0.529799 7.278179
1.560368 0.519452 7.549781
1.630464 0.545230 8.169187
1.634473 0.546706 8.183376
1.559674 0.519106 8.603040
1.509196 0.500491 8.763445
1.587246 0.529205 9.329966
1.521935 0.505128 9.434702
1.397300 0.459154 9.956033
1.533312 0.630522 0.875685
1.448708 0.592589 1.124914
1.453065 0.594530 1.255626
1.465415 0.600038 1.558405
1.494908 0.613207 2.092632
1.511684 0.620703 2.336991
1.475486 0.604425 2.995897
1.403206 0.572020 3.193626
1.422890 0.580824 3.380811
1.437165 0.587209 3.509822
1.458877 0.596922 3.696739
1.560498 0.642391 4.461763
1.472282 0.602859 4.490491
1.482765 0.607551 4.561320
1.597025 0.658689 5.267598
1.599266 0.659691 5.280432
1.507385 0.618475 5.794678
1.454584 0.594797 6.002255
1.646984 0.681008 6.030094
1.708359 0.708447 6.755167
1.609678 0.664230 6.734505
1.618108 0.667969 7.175283
1.501554 0.615716 7.470917
1.505928 0.617642 7.858033
1.531487 0.629056 8.304171
1.580933 0.651169 8.809020
1.671812 0.691865 9.109715
1.519068 0.623437 8.923542
1.456513 0.595369 9.347554
1.576437 0.782333 0.952154
1.413270 0.695266 1.377934
1.416136 0.696788 1.450175
1.427204 0.702669 1.696265
1.433872 0.706214 1.826392
1.484630 0.733218 2.592912
1.510132 0.746792 2.895978
1.428878 0.703446 2.978245
1.364762 0.669225 3.235387
1.378085 0.676320 3.365842
1.475705 0.728313 4.191381
1.477590 0.729317 4.205610
1.484016 0.732684 4.871869
1.523048 0.753481 5.117101
1.534883 0.759787 5.188990
1.566522 0.776645 5.376089
1.468723 0.724441 5.834224
1.396009 0.685649 5.927259
1.615859 0.802892 6.129597
1.703691 0.849664 6.970339
1.647815 0.819847 7.124250
1.633984 0.812441 7.451393
1.594844 0.791545 7.664810
1.601946 0.795298 8.051917
1.567073 0.776679 8.267563
1.465542 0.722497 8.571862
1.534817 0.759424 8.817131
1.522442 0.752799 9.093466
1.429201 0.703039 9.403476
1.514635 0.748555 9.971857
1.162773 0.560849 10.333616
1.435592 0.838399 1.040481
1.358328 0.789975 1.289830
1.443493 0.843324 1.300025
1.363596 0.793261 1.434323
1.392243 0.811151 2.027954
1.393070 0.811667 2.042202
1.331753 0.773222 2.411853
1.289525 0.746717 2.958359
1.340947 0.778879 3.495542
1.374204 0.799684 3.799753
1.382536 0.804897 3.871944
1.397976 0.814557 4.002001
1.408096 0.820828 4.726164
1.462231 0.854707 5.087118
1.429196 0.834033 4.870288
1.522911 0.892684 5.461334
1.575221 0.925425 5.762960
1.393273 0.811405 6.186940
1.418327 0.827088 6.316908
1.526413 0.894787 6.423837
1.517919 0.889430 6.806948
1.475943 0.863115 7.018578
1.461533 0.854057 7.346746
1.436831 0.838557 7.618424
1.443061 0.842423 8.006862
1.468865 0.858546 8.452611
1.517124 0.888730 8.956923
1.440223 0.840552 9.000989
1.366154 0.794118 9.367030
1.341217 0.778476 9.586594
1.035026 0.586622 10.060255
1.455279 0.993429 1.025692
1.466149 1.001291 1.384963
1.392559 0.947810 1.576606
1.398189 0.951888 1.706049
1.335853 0.906566 2.073184
1.354416 0.920021 2.376533
1.333380 0.904662 3.152453
1.229398 0.829148 2.886782
1.255495 0.848077 3.191583
1.320961 0.895572 3.843885
1.342244 0.911015 4.031618
1.416525 0.964921 4.623376
1.426261 0.971987 4.695002
1.372742 0.933086 4.899187
1.496953 1.023295 5.183313
1.525896 1.044304 5.369474
1.497320 1.023465 6.171126
1.374346 0.934104 6.402719
1.399076 0.952057 6.532216
1.424184 0.970285 6.660886
1.406671 0.957530 6.986802
1.392402 0.947131 7.314047
1.342547 0.910897 7.469108
1.360048 0.923568 7.914522
1.432491 0.976166 8.216475
1.459169 0.995472 8.981434
1.401566 0.953614 9.083998
1.251778 0.844789 9.160933
1.249499 0.843074 9.762987
1.024932 0.679920 9.877684
1.387580 1.079741 0.888056
1.317793 1.022038 1.193961
1.339710 1.040089 1.785862
1.337761 1.038482 1.742575
1.288768 0.997939 2.283884
1.296829 1.004587 2.414037
1.313399 1.018255 2.659736
1.255035 0.969997 2.915319
1.230140 0.949361 3.520929
1.226002 0.945946 3.477407
1.320773 1.024247 3.653080
1.322657 1.025729 4.374917
1.262538 0.976032 4.520818
1.469328 1.146882 4.905175
1.604666 1.258684 5.301234
1.539631 1.204931 5.390672
1.548699 1.212368 5.938425
1.390654 1.081760 5.936804
1.271787 0.983505 6.166359
1.304382 1.010377 6.781266
1.370772 1.065250 6.712897
1.343161 1.042404 6.981167
1.390342 1.081331 7.596694
1.382569 1.074873 7.925347
1.418921 1.104862 8.427832
1.404809 1.093172 8.701305
1.378186 1.071148 8.918229
1.337965 1.037893 9.078361
1.334449 1.034926 9.676608
1.104347 0.844765 9.732653
0.900053 0.675891 10.175653
1.300123 1.180729 0.806860
1.230443 1.113593 0.939349
1.239305 1.122089 1.300702
1.245320 1.127863 1.488638
1.190312 1.074828 1.913725
1.218859 1.102267 2.449278
1.238531 1.121183 2.752949
1.189098 1.073531 3.066948
1.147371 1.033295 3.440905
1.175233 1.060100 3.745649
1.270776 1.152108 3.976401
1.147839 1.033663 4.191915
1.330641 1.209715 4.520735
1.587230 1.456847 4.825954
1.525296 1.397178 4.913208
1.534826 1.406292 5.513786
1.404018 1.280275 5.623849
1.406663 1.282769 6.115987
1.255963 1.137556 6.541686
1.188177 1.072256 6.578050
1.284245 1.164736 7.111144
1.308584 1.188167 7.239381
1.194356 1.078115 7.419812
1.278501 1.159123 7.837341
1.236277 1.118432 7.993773
1.219811 1.102541 8.266682
1.218475 1.101218 8.598523
1.347005 1.224933 9.450163
1.258689 1.139833 9.702762
1.016092 1.034670 0.340062
1.087128 1.112297 0.760764
1.227414 1.265661 1.059424
1.238637 1.277885 1.477110
1.175646 1.208990 1.612240
1.187614 1.222041 1.915697
1.131689 1.160858 2.167924
1.173232 1.206201 2.875905
1.111045 1.138190 2.958101
1.057511 1.079629 3.157079
1.096102 1.121771 3.635811
1.185091 1.219051 3.868236
1.047328 1.068412 3.851728
1.539597 1.606604 4.649302
1.508582 1.572653 4.963683
1.487635 1.549704 5.336432
1.412430 1.467415 5.788530
1.332120 1.379607 5.709051
1.278943 1.321392 6.281946
1.083882 1.108086 6.363580
1.066949 1.089532 6.691228
1.234285 1.272444 7.258939
1.246704 1.285971 7.702331
1.173471 1.205894 7.686116
1.144792 1.174509 7.901193
1.188592 1.222337 8.464105
1.151748 1.182031 8.623820
1.192742 1.226796 9.131102
1.121734 1.149113 9.441263
1.011348 1.028393 9.579533
0.845604 0.847096 10.080011
0.819810 0.947502 0.614664
1.070963 1.263134 0.795986
1.133399 1.341603 0.807535
1.080443 1.274985 1.285809
1.082300 1.277310 1.357337
1.029316 1.210679 1.665255
1.059273 1.248239 2.373822
1.082530 1.277416 2.792210
1.007913 1.183662 2.583700
0.960279 1.123762 2.839280
1.009775 1.185879 3.550392
1.242273 1.478020 4.069634
1.410869 1.689860 4.507620
1.461482 1.753412 4.973273
1.503270 1.805887 5.324866
1.396955 1.672247 5.490566
1.344893 1.606742 6.056611
1.241463 1.476727 6.228439
1.105718 1.306127 6.171538
0.984756 1.154037 6.658776
0.980559 1.148712 7.045455
1.129592 1.335955 7.554182
1.071988 1.263553 7.594721
1.044989 1.229592 7.809199
1.188374 1.409703 8.572330
1.095474 1.292920 8.762139
1.086300 1.281355 9.037993
1.091295 1.287591 9.372600
1.073281 1.264922 9.592673
0.939292 1.096484 9.881648
0.977978 1.333884 0.692348
0.982034 1.339751 0.995334
0.927816 1.260729 1.128313
0.992751 1.355298 1.485480
1.014855 1.387416 2.134249
0.980425 1.337178 2.618198
0.964542 1.314081 2.285240
0.925521 1.257170 2.655312
0.896514 1.214833 3.143911
0.957286 1.303378 3.204917
1.017053 1.390352 4.027757
0.981721 1.338831 4.287350
1.192847 1.646414 4.712142
1.367008 1.900190 4.731250
1.307051 1.812827 4.705629
1.344193 1.866826 5.585060
1.290404 1.788442 5.619091
1.174541 1.619612 5.616612
1.107010 1.521154 6.015292
0.992452 1.354101 6.897056
0.944762 1.284544 7.366418
0.910164 1.234108 7.522691
1.025928 1.402693 8.230882
1.058376 1.449948 8.417501
0.973077 1.325628 8.605073
0.995967 1.358919 9.052879
0.924311 1.254471 9.302923
0.907324 1.229687 9.522190
0.857123 1.156447 10.160098
0.945307 1.496453 1.255036
0.892501 1.407210 1.157851
0.897524 1.415662 1.403363
0.908767 1.434600 1.821931
0.921163 1.455498 2.182448
0.875481 1.378258 2.320043
0.855186 1.343851 2.980508
0.796312 1.244358 2.830870
0.902492 1.423690 3.761364
1.099405 1.756446 4.334243
1.201131 1.928397 4.317192
1.266979 2.039585 5.063423
1.234836 1.985221 5.265048
1.221273 1.962237 5.637038
1.111087 1.775998 5.578639
1.031182 1.640898 5.804917
1.020056 1.621966 6.607493
0.902731 1.423600 6.924123
0.790780 1.234376 6.869817
0.877786 1.381342 7.521090
0.921039 1.454405 7.822702
0.935028 1.477982 8.267338
0.928096 1.466271 8.222553
0.945506 1.495630 8.668264
0.869704 1.367471 8.858003
0.842862 1.322074 9.017964
0.919266 1.451105 9.757519
0.743405 1.366545 0.777082
0.791077 1.461512 1.020617
0.794933 1.469154 1.266176
0.810067 1.499201 1.915697
0.807243 1.493591 1.814718
0.781547 1.442271 2.414037
0.801213 1.481382 2.890791
0.774118 1.427315 3.262795
0.784105 1.447186 3.450798
0.973870 1.825233 4.312907
1.101634 2.079780 4.803374
1.085191 2.047046 4.592180
1.068916 2.014544 4.962030
1.035321 1.947564 5.106142
1.017109 1.911212 5.421273
0.923872 1.725307 5.893790
0.866233 1.610373 6.236644
0.812941 1.503953 7.408956
0.735130 1.348855 7.532671
0.722763 1.324159 7.805141
0.770098 1.418432 8.166333
0.827787 1.533333 8.583689
0.778697 1.435500 8.569151
0.788093 1.454156 8.959904
0.794005 1.465822 9.615697
0.611500 1.325585 0.948643
0.728907 1.605710 1.069767
0.690455 1.513954 1.087205
0.694983 1.524696 1.390278
0.710768 1.562214 2.097082
0.685036 1.500728 2.523362
0.679861 1.488412 2.364106
0.669720 1.464054 3.140240
0.642255 1.398466 3.397821
0.808470 1.794888 4.319039
0.913734 2.046103 4.116165
0.946125 2.123284 4.637083
0.944605 2.119547 5.175050
0.958364 2.152339 5.356963
0.879204 1.963455 5.352386
0.822262 1.827526 5.632656
0.791110 1.753076 6.202516
0.726793 1.599401 7.198903
0.659398 1.438562 7.321373
0.679657 1.486788 7.882666
0.637548 1.386313 7.865742
0.706105 1.549779 8.458020
0.699152 1.533131 8.732373
0.730968 1.608932 9.296083
0.636702 1.384020 9.200425
0.596179 1.287264 9.511449
0.484229 1.020058 9.892571
0.516861 1.364533 0.922940
0.646392 1.746772 1.041908
0.621429 1.672967 1.577779
0.598671 1.605687 2.059460
0.603095 1.618695 2.247305
0.574391 1.533951 2.384215
0.590148 1.580319 2.917855
0.551354 1.465883 2.709689
0.527194 1.394519 2.965402
0.590540 1.581265 3.778504
0.535275 1.418115 3.993188
0.786842 2.160412 4.486472
0.749940 2.051527 4.402768
0.799210 2.196720 5.263288
0.761511 2.085483 5.182620
0.724873 1.977245 5.631918
0.705977 1.921429 5.836589
0.664541 1.799059 6.178598
0.565394 1.506246 7.027422
0.559780 1.489504 7.730241
0.550551 1.462295 7.627882
0.589165 1.576146 8.046569
0.576405 1.538436 8.262165
0.581742 1.554091 8.652269
0.576634 1.538948 8.927834
0.542044 1.436790 9.236496
0.548508 1.455702 9.896826
0.429499 1.104446 10.047387
0.395652 1.292503 0.525503
0.447580 1.488529 0.710902
0.528864 1.795275 1.292323
0.504057 1.701581 1.367431
0.484907 1.629120 1.847178
0.485122 1.629928 1.860703
0.471993 1.580150 2.517038
0.467375 1.562779 2.299252
0.451166 1.501440 2.726906
0.536310 1.822596 3.852991
0.636962 2.202471 4.446813
0.632835 2.186920 4.347181
0.635592 2.197128 4.998181
0.611049 2.104443 5.029621
0.590118 2.025214 5.648784
0.537665 1.827153 5.645770
0.532209 1.806433 6.023799
0.496130 1.669979 6.737656
0.386616 1.256473 6.671702
0.343097 1.091972 7.228076
0.397480 1.297314 7.250020
0.468288 1.564492 7.876791
0.471108 1.575020 8.265779
0.443167 1.469519 8.250379
0.457857 1.524930 8.437982
0.457981 1.525296 8.771367
0.465390 1.553048 9.485587
0.423521 1.394907 9.623448
0.338940 1.075447 9.888195
0.325995 1.414816 0.546206
0.345344 1.514869 0.675544
0.386084 1.725428 1.204676
0.385041 1.720098 1.046381
0.369757 1.640821 1.526082
0.371044 1.647426 1.655990
0.357084 1.575022 2.081325
0.364293 1.612121 2.558590
0.355448 1.566129 3.103597
0.413692 1.867115 3.942451
0.478400 2.201794 4.197178
0.472275 2.169928 4.623009
0.476446 2.191452 4.750233
0.455490 2.082821 5.253754
0.434107 1.971998 5.705718
0.399850 1.794713 5.818581
0.382845 1.706516 6.336350
0.331157 1.438687 7.311059
0.295222 1.252740 7.377094
0.357018 1.572278 7.804449
0.383774 1.710509 8.280836
0.355113 1.562146 8.469662
0.348275 1.526674 8.688038
0.352569 1.548725 9.079558
0.346557 1.517527 9.298164
0.346604 1.517522 9.899546
0.306291 1.308826 10.190634
0.241314 1.534468 0.651065
0.269052 1.758736 1.467221
0.267617 1.747287 1.192985
0.258088 1.669751 1.672226
0.258585 1.673726 1.743477
0.249235 1.597716 2.110269
0.255935 1.651588 2.759944
0.247547 1.583403 3.072830
0.259503 1.679793 3.865081
0.297100 1.984474 3.894544
0.329922 2.250198 4.332187
0.333806 2.281180 5.096005
0.308344 2.074505 5.590184
0.272709 1.785652 5.664218
0.267865 1.745906 6.411022
0.230981 1.446422 7.267405
0.203656 1.224751 7.591975
0.221877 1.372318 7.753651
0.230526 1.442254 7.999623
0.250388 1.602878 8.534795
0.239194 1.512128 8.577408
0.258549 1.668475 9.374178
0.245062 1.559180 9.361595
0.245286 1.560603 9.962975
0.197247 1.171204 10.054740
0.155000 1.862375 1.222897
0.149258 1.758972 1.126432
0.145083 1.682917 1.664559
0.144952 1.680617 1.621712
0.141338 1.614684 2.163176
0.142973 1.643635 2.525168
0.138420 1.561252 2.722828
0.140832 1.604141 3.143406
0.162869 2.000409 3.897663
0.176755 2.250315 4.223659
0.181018 2.326518 4.689454
0.174871 2.214966 5.191459
0.156762 1.887861 5.595883
0.146888 1.708969 6.189111
0.130853 1.419715 6.268169
0.123549 1.286385 7.396780
0.121057 1.241147 7.611924
0.131576 1.429877 8.268338
0.141049 1.600368 8.484366
0.139044 1.563913 8.701177
0.137136 1.529197 8.918908
0.140822 1.594934 9.427689
0.139242 1.566122 9.647547
0.134552 1.480636 10.286320
0.026488 1.862756 1.054901
0.027708 1.774122 1.359789
0.029078 1.672369 1.320333
0.028872 1.689804 1.680794
0.028738 1.700796 1.867915
0.029605 1.639737 2.409067
0.030398 1.583888 2.895397
0.030380 1.585305 2.909433
0.024982 1.990413 3.778655
0.021316 2.265006 4.274182
0.020814 2.303594 4.513346
0.023073 2.137523 4.729999
0.025501 1.964688 5.929499
0.029911 1.637301 5.833772
0.032655 1.436792 6.318491
0.035528 1.228880 7.156855
0.037278 1.100977 7.457169
0.034644 1.298196 7.797456
0.031025 1.569715 8.365979
0.029029 1.720391 8.842361
0.030255 1.629832 8.887163
0.032511 1.463421 9.021416
0.031363 1.551889 9.590675
0.033298 1.409667 9.787821
-0.067521 1.450578 0.566911
-0.094387 1.778200 1.498683
-0.093620 1.768663 1.283136
-0.088487 1.706938 1.994570
-0.090644 1.733519 2.355146
-0.083762 1.650008 2.551364
-0.082281 1.631793 2.333375
-0.080493 1.610851 3.166475
-0.107559 1.940972 4.158541
-0.129339 2.205601 3.900756
-0.136554 2.293907 4.478761
-0.133397 2.255869 4.847345
