0.620553 -1.786077 1.018268
0.604919 -1.749969 1.590989
0.261640 -1.955742 1.984002
0.157702 -1.988901 2.458541
0.131339 -1.968259 2.933315
0.182361 -1.893666 3.411775
0.071793 -1.938964 3.794300
-0.318317 -2.151081 4.505991
-0.445880 -2.201715 4.967173
-0.323460 -2.084210 5.365273
0.283079 -1.571359 6.491812
0.485762 -1.403221 6.828769
0.416803 -1.411555 7.310315
0.248301 -1.482846 7.865721
-0.087267 -1.672895 8.385354
-0.170973 -1.692062 8.859469
-0.162362 -1.653023 9.262881
-0.210084 -1.631302 9.931464
-0.173501 -1.587097 10.161337
0.143495 -1.296141 11.029765
0.768101 -1.733370 0.945773
0.669858 -1.756649 1.606239
0.352543 -1.999389 1.819766
0.398107 -1.904830 2.473148
0.364189 -1.883459 3.038121
0.349921 -1.876752 3.249631
0.468465 -1.736726 3.735200
-0.092862 -2.104017 4.824590
0.186221 -1.787796 5.813814
0.421244 -1.541152 6.421666
0.496650 -1.427280 7.014708
0.453261 -1.436608 7.317327
0.305007 -1.518062 7.783231
0.077158 -1.666683 8.230785
-0.018869 -1.696607 8.794201
-0.088373 -1.720122 9.180729
-0.119631 -1.695221 9.761036
-0.046820 -1.598057 10.187132
0.208291 -1.329427 10.857315
0.886634 -1.663949 1.094949
0.868754 -1.636320 1.574953
0.557319 -1.888640 2.053044
0.531518 -1.868995 2.528376
0.579772 -1.786759 2.917883
0.539938 -1.772160 3.482694
0.660710 -1.628347 3.791221
0.531831 -1.690725 4.440795
0.463147 -1.630592 5.790348
0.597229 -1.438873 6.477336
0.676082 -1.316842 6.981097
0.666018 -1.272118 7.564742
0.465056 -1.429946 7.926858
0.219459 -1.648582 8.092661
0.112597 -1.689937 8.742661
0.014173 -1.731581 9.303139
0.050327 -1.641465 9.901234
0.115140 -1.540082 10.326897
0.436974 -1.177198 10.930374
1.222819 -1.360182 1.078152
1.011166 -1.567186 1.390194
0.656757 -1.917650 1.874865
0.752486 -1.742818 2.533494
0.738846 -1.736313 2.749052
0.751787 -1.645483 3.499865
0.720116 -1.641260 3.893210
0.693980 -1.639957 4.196321
0.575046 -1.717053 4.757980
0.516807 -1.725176 5.324809
0.584365 -1.589490 5.910789
0.733609 -1.378151 6.334589
0.725649 -1.327835 6.918535
0.749548 -1.268614 7.236332
0.524910 -1.457687 7.869188
0.322108 -1.640832 8.317892
0.288328 -1.657300 8.530885
0.209960 -1.697287 9.007456
0.209141 -1.619322 9.784397
0.281921 -1.502672 10.124895
0.457261 -1.218564 10.975534
1.202640 -1.430214 0.986878
0.999115 -1.642943 1.475023
0.862578 -1.788197 1.779634
0.885477 -1.685081 2.437299
0.920389 -1.595459 2.831712
0.879081 -1.586263 3.402110
0.840431 -1.583469 3.883509
0.822037 -1.583693 4.098646
0.752799 -1.591539 4.845386
0.713112 -1.600057 5.237234
0.781037 -1.455522 5.736118
0.915266 -1.232302 6.160406
0.856583 -1.255411 6.645195
0.853895 -1.203724 7.142083
0.644618 -1.407768 7.776298
0.495403 -1.582897 7.961704
0.383267 -1.647488 8.704170
0.321096 -1.685806 9.093252
0.343825 -1.589127 9.695006
0.408185 -1.466863 10.035548
0.538263 -1.223903 10.686493
1.473606 -1.065896 1.104076
1.297044 -1.303810 1.413871
0.996823 -1.702788 1.985037
0.978626 -1.693650 2.285712
0.988503 -1.595921 2.942445
1.006440 -1.507420 3.424643
0.967723 -1.508069 3.903951
0.917919 -1.515029 4.471607
0.836479 -1.605804 4.765919
0.789368 -1.619876 5.243084
0.931777 -1.309930 5.935837
1.035503 -1.083005 6.449751
0.924628 -1.197755 6.920974
0.916094 -1.149129 7.416024
0.771107 -1.341874 7.691352
0.613074 -1.544420 8.051658
0.506143 -1.619309 8.791796
0.537348 -1.506430 9.302611
0.498770 -1.493829 9.885979
0.500542 -1.450982 10.205928
0.726942 -1.020503 10.810053
1.601038 -0.851089 1.140013
1.496078 -1.018214 1.359754
1.224351 -1.437185 2.023491
1.158607 -1.518243 2.324838
1.107023 -1.508516 3.069400
1.116880 -1.420171 3.552205
1.077619 -1.425339 4.031790
1.035730 -1.435527 4.511073
0.991220 -1.450736 4.989986
0.999069 -1.378438 5.387940
1.077902 -1.142916 5.985154
1.136530 -0.985006 6.309792
0.969760 -1.208935 6.947296
1.024559 -1.057722 7.275769
0.953267 -1.110367 7.846840
0.732987 -1.492734 8.088871
0.689635 -1.478385 8.757393
0.730599 -1.298809 9.464050
0.699060 -1.327913 9.676385
0.670756 -1.309785 10.173564
0.861304 -0.861610 10.777863
1.405786 -1.270310 1.386111
1.291681 -1.435912 1.954904
1.328249 -1.241226 2.613672
1.300432 -1.239087 3.004801
1.250248 -1.243268 3.662683
1.265433 -1.156791 3.969701
1.200453 -1.255699 4.266287
1.102744 -1.370184 4.915615
1.144898 -1.205273 5.321554
1.176262 -1.049458 5.820259
1.204917 -0.899153 6.323090
1.104020 -1.035939 6.883334
1.108823 -0.971789 7.198985
0.975246 -1.201403 7.652512
0.829065 -1.445961 8.188770
0.784154 -1.436332 8.856927
0.809084 -1.308003 9.279932
0.743499 -1.378003 9.756431
0.738717 -1.287190 10.360829
0.921202 -0.797251 10.788007
1.723037 -0.719725 0.398541
1.512119 -1.153085 1.284572
1.553061 -0.951936 1.673517
1.419524 -1.224872 2.241349
1.437421 -1.128033 2.454070
1.390716 -1.127909 3.110824
1.386517 -1.039492 3.593614
1.348433 -1.051084 4.073094
1.276748 -1.162599 4.545691
1.227242 -1.189537 5.112079
1.215119 -1.123625 5.598320
1.249697 -0.955531 5.918228
1.256581 -0.811980 6.509568
1.157322 -0.967876 7.156825
1.125118 -0.999453 7.457914
1.000472 -1.252620 7.995602
0.935530 -1.383915 8.278646
0.889663 -1.379246 8.945404
0.862211 -1.357090 9.437276
0.863156 -1.247360 9.949959
0.861776 -1.143716 10.466119
1.608886 -1.145201 0.727558
1.530854 -1.320919 1.209366
1.555813 -1.116451 1.596093
1.524608 -1.108301 2.074834
1.522641 -1.008759 2.466240
1.488844 -1.010540 2.946051
1.477972 -0.920880 3.429550
1.441330 -0.933659 3.910165
1.357497 -1.061301 4.650826
1.332469 -1.077491 4.951898
1.307726 -1.017202 5.527842
1.320738 -0.853503 5.937749
1.307502 -0.718758 6.619730
1.237966 -0.864328 7.089258
1.176151 -1.004634 7.466906
1.104618 -1.159675 7.930636
1.041237 -1.307578 8.303090
0.981393 -1.389417 8.865652
0.952449 -1.368786 9.357383
0.957506 -1.178820 9.977572
0.959789 -0.997988 10.604366
1.862118 -0.244621 0.194270
1.709579 -0.909111 0.791194
1.629253 -1.189930 1.275639
1.620685 -1.083331 1.663517
1.593310 -0.979559 2.319748
1.578687 -0.980132 2.532386
1.542324 -0.892217 3.281137
1.539703 -0.709116 3.770319
1.475073 -1.012787 3.968739
1.379007 -1.251611 4.787002
1.394394 -1.068128 5.013505
1.356031 -1.102311 5.490922
1.365165 -0.765461 6.186562
1.371010 -0.598669 6.511667
1.298094 -0.768740 7.160308
1.231821 -0.937223 7.715625
1.180888 -1.087887 8.090260
1.137781 -1.228806 8.374341
1.099812 -1.218973 8.954353
1.045311 -1.314456 9.517083
1.043220 -1.110420 10.050040
1.045307 -0.834571 10.698650
1.878795 -0.001431 0.282041
1.787544 -0.682390 0.702516
1.716805 -0.963776 1.364528
1.669991 -1.056970 1.929458
1.655951 -0.858531 2.407511
1.623057 -0.864843 2.885121
1.629016 -0.573036 3.194856
1.579820 -0.691575 3.760435
1.522984 -1.102701 4.040080
1.488536 -1.128135 4.514588
1.451086 -0.980268 5.269730
1.406723 -1.119284 5.735969
1.404126 -0.768303 6.252843
1.392012 -0.522818 6.766560
1.367058 -0.646378 6.966973
1.320923 -0.804830 7.432894
1.259271 -1.079835 7.969287
1.220598 -1.151288 8.443508
1.196691 -1.115334 8.845908
1.142277 -1.228854 9.495453
1.132684 -1.007838 9.938567
1.106795 -0.749093 10.673988
1.872212 0.052499 0.272735
1.820628 -0.526715 0.954834
1.803044 -0.822368 1.173173
1.763970 -0.916419 1.739589
1.732777 -0.817562 2.216871
1.707372 -0.722668 2.607655
1.664481 -0.539827 3.270687
1.643310 -0.651155 3.568874
1.596402 -1.083050 4.202828
1.559145 -0.919935 4.779381
1.532729 -0.949617 5.167209
1.511947 -1.074690 5.457626
1.474930 -0.631230 6.071083
1.442737 -0.385359 6.584412
1.403471 -0.554195 7.142895
1.376594 -0.705583 7.519998
1.331651 -0.999576 8.144682
1.298934 -1.076141 8.619262
1.284252 -1.013308 8.846252
1.232906 -1.049583 9.603168
1.193163 -0.965450 10.205238
1.170605 -0.637025 10.587470
1.858081 0.200550 0.334593
1.818962 0.018431 1.098796
1.805493 -0.177571 1.497220
1.807134 -0.677261 1.980166
1.781133 -0.682132 2.370169
1.736769 -0.596181 2.939915
1.705611 -0.614001 3.419443
1.701975 -0.931586 3.795676
1.682906 -0.948482 4.095215
1.621878 -0.800803 4.849101
1.594036 -0.619191 5.077065
1.566657 -0.770067 5.635676
1.499360 -0.552298 6.411247
1.453403 -0.302790 6.838554
1.425167 -0.366592 7.321481
1.410204 -0.521480 7.700304
1.398411 -0.792437 8.150008
1.371621 -0.871634 8.627144
1.335641 -0.989264 9.279379
1.293916 -0.886130 9.792616
1.253750 -0.654558 10.152370
1.187963 -0.270305 10.736582
1.841117 -0.424681 1.999554
1.804082 -0.436468 2.569501
1.738820 -0.149619 2.880468
1.728889 -0.375590 3.535517
1.808864 -0.979252 3.722770
1.771001 -1.021051 4.372515
1.702357 -0.755364 4.780804
1.696691 -0.887567 5.161916
1.651063 -0.844821 5.735024
1.531889 -0.308971 6.275733
1.451924 -0.098034 6.973521
1.417435 -0.055021 7.382597
1.411452 -0.225211 7.853981
1.442351 -0.580904 8.202361
1.438343 -0.760242 8.665399
1.406573 -0.733987 9.072352
1.342797 -0.704377 9.941329
1.283396 -0.478592 10.303941
1.150237 0.068321 11.024901
1.888835 -0.380882 2.030692
1.852583 -0.623607 3.372152
1.899748 -0.937254 3.746475
1.851410 -0.871861 4.225099
1.781150 -0.715051 4.712801
1.804553 -0.951854 5.171882
1.736670 -0.806386 5.663419
1.539238 -0.227554 6.568525
1.427608 0.093681 7.100613
1.413530 0.036453 7.496860
1.426648 -0.106526 7.788684
1.479152 -0.488074 8.314478
1.465712 -0.572633 8.793524
1.449497 -0.697355 9.447950
1.395841 -0.567673 9.786963
1.312614 -0.423240 10.503814
1.944325 0.078623 0.262463
1.884095 0.178226 0.652197
1.824897 0.274239 1.043957
1.848002 0.079082 1.619226
1.890607 -0.116756 1.922539
1.896533 -0.463155 3.438566
1.962775 -0.784168 3.986468
1.906004 -0.733282 4.552377
1.795475 -0.484000 4.960506
1.808851 -0.625987 5.427487
1.729310 -0.489991 5.921603
1.530179 0.039487 6.285765
1.453156 0.165144 6.792088
1.371950 0.244287 7.572241
1.394494 0.073542 8.042675
1.514106 -0.382631 8.461816
1.508678 -0.469497 8.939537
1.505597 -0.544231 9.328104
1.439756 -0.473638 9.930973
1.344506 -0.299339 10.469822
1.723915 0.585240 1.076975
1.784133 0.397654 1.296501
1.940540 -0.074451 1.782217
1.911387 -0.088416 2.261165
1.728509 0.258470 2.838894
2.018232 -0.636277 3.851630
2.005639 -0.658680 4.149947
1.864249 -0.446096 4.907190
1.811186 -0.402163 5.391603
1.802788 -0.435280 5.692068
1.677002 -0.216477 6.199977
1.475506 0.167362 6.827371
1.392285 0.280911 7.337721
1.386836 0.191350 7.912881
1.499611 -0.132860 8.172659
1.537064 -0.324005 8.725147
1.538381 -0.397070 9.115113
1.465735 -0.310383 9.630063
1.398059 -0.268325 10.325929
1.180348 0.142783 11.024027
1.952642 0.187798 0.910670
2.066347 -0.084172 1.217842
1.985186 -0.007504 1.782396
1.862395 0.151283 2.350968
1.891424 0.048568 2.651483
1.909215 -0.071303 3.215475
1.982878 -0.274694 3.595971
2.100466 -0.577039 4.054366
1.898933 -0.277520 4.727915
1.750977 -0.058451 5.227900
1.882319 -0.347389 5.414452
1.825058 -0.345726 6.162615
1.503201 0.210315 6.719827
1.319901 0.494507 7.253882
1.229590 0.610404 7.677993
1.323983 0.340801 8.225437
1.508772 -0.062336 8.465374
1.519764 -0.182322 9.120291
1.479064 -0.135849 9.349842
1.448625 -0.163041 9.934906
1.328324 -0.004753 10.473790
2.015709 0.270529 0.450490
1.922879 0.349252 1.014026
1.781740 0.506432 1.579833
1.915778 0.237604 1.970477
1.881941 0.208459 2.624841
1.647348 0.516315 3.203588
2.147627 -0.382318 3.848707
2.027160 -0.259285 4.417998
1.912182 -0.134526 4.904442
1.960061 -0.249854 5.193806
1.901765 -0.228133 5.762829
1.584545 0.219758 6.300093
1.428692 0.395985 6.904243
1.329709 0.480314 7.502117
1.334727 0.433013 7.805782
1.452519 0.171375 8.346182
1.466471 0.086927 8.825124
1.480051 0.014632 9.214446
1.499448 -0.078461 9.691593
1.910737 0.496079 0.737961
1.995186 0.323223 1.220756
1.971448 0.311338 1.609790
1.819451 0.446686 2.265979
1.867912 0.355013 2.477785
1.609974 0.646332 3.056534
2.038816 -0.119712 4.538701
1.797645 0.146893 5.129957
1.913853 -0.036753 5.323884
1.796819 0.048593 5.992872
1.506492 0.400588 6.435214
1.396100 0.495652 6.939878
1.235228 0.638052 7.641771
1.250306 0.561329 8.125909
1.385894 0.321171 8.576785
1.466138 0.156473 9.039454
1.544735 0.004623 9.410462
1.508625 0.007850 9.817362
1.370160 0.127885 10.443457
1.866346 0.638977 0.757034
2.028232 0.396359 1.239879
1.931796 0.451963 1.802764
1.779713 0.582476 2.280896
1.895999 0.413389 2.578079
1.615016 0.677232 3.244208
2.242881 -0.144205 3.973486
2.107352 -0.033654 4.454618
1.845997 0.205765 5.131545
1.912864 0.077785 5.596562
1.786866 0.194171 5.913683
1.475999 0.489059 6.622114
1.357410 0.586359 7.037679
1.119136 0.803701 7.663743
1.075607 0.803090 8.163733
1.357981 0.424001 8.584097
1.450505 0.265855 9.046387
1.534337 0.136885 9.328285
1.517706 0.086430 9.999661
1.372264 0.193579 10.625857
1.430303 1.131245 1.157152
1.689896 0.832070 1.551641
1.803620 0.663554 2.116169
1.791527 0.647311 2.413423
1.620198 0.719959 3.458375
2.244210 -0.010825 4.528225
1.963495 0.224439 5.024663
1.824284 0.343311 5.247832
1.696391 0.399882 6.003384
1.631313 0.444513 6.222107
1.378712 0.614984 7.100056
1.110469 0.851424 7.452807
1.065234 0.849571 7.948686
1.305459 0.566084 8.383118
1.408722 0.418060 8.843513
1.452958 0.319601 9.407299
1.478566 0.265404 9.704380
1.336625 1.249022 1.073237
1.610377 0.964266 1.652491
1.741856 0.809518 2.133818
1.734033 0.797194 2.348368
2.312235 0.138673 4.216477
2.089880 0.262033 4.965013
1.870772 0.405068 5.460072
1.729321 0.489992 5.863407
1.594361 0.561244 6.358660
1.303136 0.779058 6.703786
1.039336 0.933150 7.504451
0.906768 1.016854 7.836002
1.182579 0.727002 8.452983
1.366382 0.538648 8.809857
1.418388 0.444248 9.375111
1.476441 0.344818 9.938913
1.369034 0.398629 10.365747
0.963898 0.698521 10.881087
0.880523 1.666897 0.369550
1.407768 1.230745 0.969060
1.624207 1.031480 1.457331
1.764905 0.888249 1.938778
1.676482 0.935039 2.153889
1.820029 0.775390 2.806973
1.488402 0.969707 3.388178
2.137289 0.400405 4.515517
2.150651 0.336650 5.161877
1.920547 0.470714 5.574326
1.625125 0.629185 6.267303
1.489450 0.686565 6.769985
1.272216 0.809679 7.200702
0.904307 1.032849 7.754534
0.855714 1.033913 8.167959
1.308685 0.660755 8.664423
1.446499 0.513692 9.217056
1.409675 0.506634 9.624531
1.455993 0.440241 10.013464
1.062742 0.663069 10.793655
1.696032 1.062234 1.525559
1.592895 1.087043 2.003699
1.580105 1.057069 2.482629
1.741049 0.901485 3.220384
1.654625 0.929871 3.524570
2.263803 0.489327 4.433525
2.190347 0.496327 4.909526
2.032716 0.560329 5.309086
1.797188 0.663572 5.809440
1.572168 0.752988 6.404536
1.264709 0.813946 7.994927
1.151910 0.834901 8.596283
1.270115 0.740750 8.882714
1.326863 0.668608 9.362304
1.303896 0.643309 9.860139
1.201689 0.664298 10.379611
0.664123 1.747578 0.427674
1.443525 1.325287 0.939109
1.698344 1.176675 1.246766
1.593488 1.199141 1.635335
1.489727 1.214269 2.114438
1.480753 1.182673 2.594046
1.837111 0.936402 3.536200
2.205871 0.707733 4.162627
2.123765 0.725535 4.464085
2.057532 0.709278 5.114983
1.990989 0.706079 5.594032
1.750527 0.786832 6.095845
1.439877 0.887522 6.792520
1.102493 0.960612 8.032071
1.177362 0.874269 8.690809
1.303870 0.790561 8.975756
1.291312 0.752830 9.560560
1.272761 0.724606 10.058075
1.024077 0.791544 10.797780
1.060648 1.566869 0.657786
1.325057 1.440867 0.968937
1.484173 1.324534 1.716115
1.380403 1.330526 2.194723
1.377356 1.316298 2.407887
2.138927 0.889502 4.187012
1.973228 0.913147 4.756675
1.991566 0.878229 5.140130
1.937243 0.852206 5.793755
1.593514 0.955890 6.220278
1.201424 1.045017 7.109663
0.583342 1.258241 7.506378
0.472388 1.251238 8.203501
0.971572 1.039329 8.431897
1.103019 0.967114 8.718928
1.274344 0.860220 9.269569
1.297626 0.795993 10.031408
1.103601 0.832995 10.569699
0.464241 1.808660 0.358630
1.110765 1.579662 0.863158
1.389472 1.480899 1.081310
1.463871 1.406507 1.822521
1.268553 1.450113 2.033806
1.263869 1.399273 2.776731
2.073255 1.032929 4.541175
2.006568 1.013422 5.102446
1.935228 1.007379 5.492043
1.785931 1.011583 6.067747
1.421766 1.102863 6.319784
0.926056 1.131738 8.019192
0.894192 1.106424 8.514800
1.165441 0.987687 9.048726
1.145617 0.958821 9.543614
1.210556 0.912096 9.931663
1.012820 0.933488 10.469129
0.917958 1.664520 0.876416
1.189456 1.554564 1.538590
1.282418 1.517908 1.750981
1.178469 1.497130 2.405811
1.178877 1.476220 2.706496
1.281318 1.419184 3.180972
2.009887 1.151535 4.561823
1.956386 1.113259 5.297324
1.797253 1.117184 5.783550
1.620561 1.143130 6.011577
1.302737 1.164135 6.792501
0.881721 1.219987 7.422077
0.543329 1.268906 7.869911
0.800256 1.176948 8.321783
1.062057 1.084223 8.768134
1.122336 1.043122 9.156237
1.232073 0.972058 9.808467
1.110832 0.971161 10.235084
0.612143 1.053351 10.749177
-0.089437 1.891926 0.509134
0.886187 1.717379 0.842994
1.368313 1.615208 1.241398
1.162717 1.620949 1.626360
1.157610 1.583239 2.191127
1.061491 1.559542 2.758048
1.917429 1.300055 4.610900
1.750270 1.293130 5.093913
1.772023 1.269641 5.388807
1.614220 1.260894 5.877204
1.274690 1.272618 6.480037
0.758353 1.303341 7.207666
0.524632 1.304081 7.730158
0.969494 1.212165 8.063186
1.150893 1.146481 8.612667
1.130002 1.116134 9.105458
1.099327 1.093242 9.511241
0.975558 1.083424 9.937675
0.734088 1.064606 10.764715
-0.243057 1.884176 0.412283
0.643187 1.798595 0.747122
1.129346 1.731077 1.235403
1.121947 1.693579 1.798416
1.021660 1.674531 2.185949
0.929403 1.636841 2.841081
1.742076 1.422118 5.165494
1.575024 1.407045 5.564422
1.438475 1.371852 6.229168
1.064169 1.381294 6.483129
0.855240 1.343551 7.261777
0.882926 1.327294 7.473363
1.087562 1.263671 8.200135
1.035608 1.246114 8.514756
1.016066 1.214247 9.007161
1.002516 1.181865 9.500889
0.897099 1.154598 10.015528
0.523969 1.135863 10.685465
0.403744 1.849867 0.639622
0.692411 1.818999 1.128834
0.886888 1.787958 1.610480
0.786602 1.760952 2.000584
0.890067 1.735469 2.389960
0.899456 1.703332 2.867993
0.739905 1.631173 3.921968
1.536837 1.544116 5.299815
1.472557 1.517182 5.692715
1.132970 1.474190 6.294403
0.824846 1.418923 7.081665
0.753719 1.403264 7.306462
0.946300 1.361560 7.946191
1.006824 1.335913 8.333382
0.972492 1.308493 8.736723
1.007641 1.257725 9.494079
0.869316 1.234014 9.831178
0.672754 1.196393 10.368506
0.544998 1.879967 0.971018
0.739941 1.870649 1.364007
0.741181 1.826541 2.017832
0.746912 1.800761 2.406528
0.756366 1.775313 2.795174
0.884256 1.736748 3.532845
0.695880 1.705152 3.753407
1.316645 1.648365 5.405791
1.246689 1.621498 5.711471
1.010813 1.560632 6.302638
0.761083 1.509989 6.724507
0.737597 1.468794 7.302872
0.892468 1.457176 7.677426
0.854044 1.426553 8.079913
0.849945 1.386943 8.660230
0.821339 1.357005 9.065455
0.769179 1.299712 9.844303
0.655048 1.260594 10.273289
0.686515 1.906240 1.890361
0.594632 1.863683 2.282260
0.607871 1.833232 2.761006
0.524330 1.791998 3.154492
0.744598 1.797616 3.625395
0.675148 1.752710 4.107985
0.723850 1.716351 4.762211
1.187676 1.745244 5.504176
0.719119 1.589644 6.604086
0.685203 1.550306 7.094440
0.768039 1.525828 7.660559
0.746838 1.488534 8.152949
0.731591 1.452162 8.646789
0.705713 1.419905 9.053728
0.683895 1.388262 9.461892
0.606728 1.333605 10.067759
0.346407 1.244357 10.719807
-0.717525 1.741201 0.400808
0.248551 1.958222 0.740042
0.537676 1.990308 1.314943
0.542002 1.958155 1.793595
0.452597 1.908725 2.184914
0.473659 1.868392 2.841419
0.500235 1.835581 3.409360
0.614437 1.843314 3.707615
0.646316 1.818066 4.185638
0.683694 1.794210 4.663334
0.646677 1.678115 6.202816
0.622938 1.632078 6.780793
0.677423 1.618551 7.171069
0.639714 1.581130 7.574833
0.620258 1.542129 8.066819
0.638361 1.500130 8.736723
0.677619 1.495131 8.949534
0.651294 1.428419 9.816047
0.544620 1.372044 10.245451
0.064468 1.216583 10.762471
-0.006565 1.954800 0.537780
0.371494 2.035471 1.202348
0.378755 1.997838 1.766045
0.290932 1.946799 2.065817
0.303004 1.923265 2.454163
0.425902 1.918610 3.104394
0.458344 1.889525 3.667710
0.472411 1.879289 3.878568
0.515092 1.853706 4.441371
0.462596 1.801665 4.923331
0.519126 1.780742 5.486509
0.458090 1.738157 5.794871
0.432270 1.688561 6.369371
0.577270 1.710913 6.745016
0.551185 1.667432 7.232285
0.573711 1.621499 7.985320
0.515948 1.585866 8.211500
0.616027 1.579684 8.774617
0.630794 1.543431 9.354634
0.561070 1.477100 9.955543
0.295684 1.347610 10.513525
-0.165996 1.947776 0.537433
0.112402 2.019398 1.201082
0.210549 2.033219 1.590765
0.134093 1.958698 2.155916
0.148868 1.936533 2.544943
0.258768 1.955682 2.931250
0.302852 1.920510 3.670118
0.330857 1.904268 4.056361
0.354800 1.892742 4.354419
0.414035 1.870670 5.004014
0.472992 1.854980 5.565015
0.346243 1.763998 6.058277
0.304375 1.716720 6.455899
0.460128 1.750091 6.918462
0.453084 1.704869 7.493172
0.438903 1.662898 7.981538
0.489525 1.662913 8.279464
0.516977 1.625911 8.945320
0.467206 1.587704 9.172809
0.437332 1.517827 9.949001
0.163506 1.365098 10.417436
-0.842055 1.681955 0.138677
-0.221273 1.961797 0.735880
0.137550 2.119533 1.133893
0.063645 2.031318 1.784641
-0.015012 1.967251 2.085149
0.000772 1.945933 2.474184
0.128521 1.956666 3.213156
0.236205 1.990603 3.508795
0.284904 1.966671 4.158964
0.214498 1.913270 4.376072
0.266855 1.897880 4.939123
0.228490 1.841012 5.422553
0.216894 1.784624 6.084091
0.342797 1.828647 6.372629
0.432530 1.826267 7.022114
0.402975 1.780412 7.421426
0.391380 1.737182 7.909960
0.369766 1.695274 8.312088
0.400511 1.660690 8.978622
0.371105 1.621233 9.294844
0.275442 1.538836 9.719205
0.155047 1.421502 10.432552
-0.307630 1.977485 0.893264
0.033005 2.178921 1.112038
-0.036163 2.089633 1.671799
-0.190235 1.959623 2.058567
-0.154384 1.923319 2.799660
-0.047127 1.961491 3.183901
0.069550 1.998845 3.653969
0.099655 1.987340 4.039263
0.073696 1.918172 4.694595
0.103158 1.913265 4.992341
0.070366 1.853576 5.474475
0.064355 1.796840 6.134683
0.174465 1.851667 6.333861
0.276039 1.858028 7.069704
0.250850 1.809964 7.467700
0.326004 1.820453 7.939946
0.308170 1.776968 8.339800
0.342051 1.745551 9.004050
0.251272 1.653483 9.425055
0.246129 1.617766 9.829765
0.018421 1.426922 10.385133
-0.628265 1.825091 0.875674
-0.297726 2.036941 1.362117
-0.276921 2.004924 1.927208
-0.338299 1.924837 2.317125
-0.232856 1.965218 2.792858
-0.208270 1.951069 3.181492
-0.094921 1.997811 3.653625
-0.033270 1.982592 4.389389
-0.005391 1.978785 4.685870
-0.017233 1.914096 5.341381
-0.219749 1.731459 5.666071
-0.061584 1.798193 6.307057
0.146194 1.926625 6.668678
0.187406 1.933100 6.964299
0.178493 1.885224 7.448098
0.188513 1.844284 8.021025
0.205118 1.808254 8.595504
0.118603 1.706523 9.013635
0.129755 1.673423 9.504380
0.128062 1.637840 9.908448
-0.179422 1.329103 10.771924
-0.672926 1.842147 0.916913
-0.435355 2.015395 1.311500
-0.413031 1.984428 1.875554
-0.398763 1.970098 2.175148
-0.372660 1.950357 2.651012
-0.342342 1.934327 3.126766
-0.286805 1.916773 3.866530
-0.194294 1.979574 4.072191
-0.143070 1.974207 4.633783
-0.085969 1.974050 5.194833
-0.276554 1.777571 5.519580
-0.199048 1.787154 6.171848
-0.012509 1.926169 6.448415
0.088607 1.949088 7.183188
0.058590 1.894871 7.493910
0.072101 1.855215 8.068566
0.091890 1.820933 8.644765
0.102056 1.785927 9.134804
0.083493 1.741415 9.449461
0.062859 1.661736 10.136078
-0.257039 1.319077 10.824691
-0.681786 1.919648 0.988467
-0.598051 1.968866 1.375891
-0.572737 1.940611 1.937539
-0.611328 1.845946 2.500762
-0.592819 1.836232 2.798625
-0.490974 1.896118 3.269599
-0.447371 1.886871 3.830760
-0.345305 1.955915 4.209719
-0.283978 1.956735 4.856492
-0.391122 1.815389 5.168361
-0.397814 1.753104 5.738724
-0.215025 1.907261 6.103037
-0.064247 2.002102 6.736593
-0.067986 1.951478 7.218346
-0.067605 1.904970 7.701681
-0.063087 1.862606 8.186526
-0.068942 1.817846 8.585240
-0.056837 1.783078 9.072859
-0.024528 1.760626 9.649419
-0.036306 1.681855 10.335337
-0.512139 1.143311 10.801331
-0.973356 1.715987 0.755301
-0.768526 1.924752 1.151389
-0.679554 1.973598 1.716112
-0.775252 1.796137 2.281224
-0.751172 1.784195 2.670235
-0.661680 1.852722 3.056205
-0.569969 1.924184 3.440148
-0.524095 1.920468 4.002560
-0.489677 1.921462 4.389047
-0.444346 1.926617 4.861973
-0.564000 1.708114 5.536812
-0.520266 1.720445 5.924013
-0.328001 1.898467 6.464152
-0.340899 1.840404 6.860805
-0.277176 1.868150 7.333194
-0.284514 1.816688 7.731833
-0.173742 1.874155 8.466331
-0.159499 1.839600 8.954462
-0.186050 1.782897 9.181337
-0.180427 1.707428 9.954345
-0.275893 1.533485 10.489104
-0.991933 1.806110 0.661309
-0.845196 1.929253 1.406271
-0.877404 1.826813 1.881752
-0.854704 1.813623 2.270189
-0.823936 1.801640 2.746725
-0.789960 1.794286 3.223137
-0.745552 1.791567 3.787420
-0.663419 1.874961 4.081795
-0.612265 1.882183 4.644064
-0.574489 1.890915 5.030485
-0.684786 1.662756 5.619518
-0.651528 1.675145 5.919881
-0.395957 1.959562 6.624730
-0.403307 1.902105 7.022025
-0.408318 1.847842 7.420744
-0.398634 1.804214 7.908466
-0.359225 1.782482 8.572922
-0.341340 1.750298 9.063617
-0.307716 1.773790 9.274372
-0.324974 1.678263 9.873480
-0.446291 1.427717 10.517896
-1.121666 1.706903 0.912538
-0.997084 1.856106 1.395279
-0.985554 1.847213 1.609624
-0.997102 1.739745 2.264679
-0.965318 1.730158 2.743971
-0.937259 1.725986 3.135027
-0.843141 1.812234 3.697551
-0.810503 1.816096 4.087283
-0.767932 1.825291 4.564554
-0.731090 1.836437 4.953771
-0.813884 1.603430 5.633301
-0.712469 1.714727 6.102197
-0.548858 1.923028 6.643832
-0.572576 1.852201 6.868978
-0.551364 1.811479 7.445362
-0.525867 1.777888 8.023420
-0.459830 1.827565 8.499108
-0.439553 1.796498 8.991352
-0.429586 1.759265 9.397446
-0.451804 1.652307 9.911861
-0.537119 1.407407 10.647938
-1.284094 1.526361 0.986678
-1.165451 1.681875 1.556674
-1.131294 1.664960 2.122461
-1.161315 1.570544 2.336801
-1.072196 1.652887 2.989426
-1.049751 1.652617 3.290592
-0.968628 1.746242 3.763091
-0.913304 1.759553 4.414416
-0.878171 1.772000 4.802022
-0.927847 1.608217 5.205862
-0.923456 1.542575 5.691873
-0.735027 1.846755 6.224728
-0.692361 1.874932 6.610404
-0.670190 1.832387 7.183188
-0.655219 1.788258 7.670252
-0.648851 1.739713 8.071302
-0.563094 1.815842 8.719552
-0.551984 1.776725 9.122467
-0.513550 1.766552 9.701406
-0.541247 1.600933 10.410392
-1.413340 1.419565 0.866625
-1.282694 1.682426 1.260633
-1.248952 1.664611 1.823289
-1.254420 1.562059 2.299114
-1.227853 1.558316 2.686819
-1.199940 1.558049 3.074448
-1.107033 1.660414 3.809412
-1.075298 1.670239 4.195659
-1.049866 1.680204 4.493946
-0.991757 1.709052 5.142795
-1.053445 1.457202 5.643638
-0.988614 1.570147 5.933250
-0.842255 1.813934 6.647242
-0.845478 1.748146 6.956442
-0.802896 1.786219 7.340854
-0.763182 1.765555 8.001440
-0.730249 1.743399 8.576253
-0.716623 1.703805 8.977690
-0.678402 1.746919 9.274653
-0.626792 1.756077 9.939477
-0.719788 1.393488 10.602670
-1.510978 1.289016 1.109507
-1.396411 1.561717 1.588326
-1.411575 1.461026 1.797727
-1.345981 1.549125 2.359159
-1.319193 1.548142 2.744523
-1.271707 1.554493 3.393465
-1.235223 1.565458 3.866366
-1.204360 1.578330 4.251212
-1.150034 1.608013 4.898968
-1.179796 1.433573 5.212054
-1.101378 1.567086 5.764200
-1.029432 1.700324 6.225411
-1.000834 1.726699 6.521020
-0.954687 1.705843 7.265786
-0.905437 1.760544 7.735664
-0.881749 1.725579 8.220409
-0.885760 1.659002 8.444477
-0.829057 1.672563 9.194137
-0.804588 1.705754 9.402188
-0.780043 1.626624 10.085634
-0.853475 1.242734 10.661730
-1.533468 1.450246 1.337916
-1.514356 1.443423 1.636418
-1.503645 1.339186 2.111442
-1.471097 1.338276 2.586972
-1.416957 1.440697 3.059419
-1.369020 1.455854 3.709218
-1.339518 1.469733 4.095172
-1.288180 1.501281 4.744121
-1.249393 1.530777 5.217084
-1.276805 1.266190 5.629855
-1.215840 1.403341 6.094987
-1.149896 1.625838 6.370857
-1.091221 1.693372 7.016080
-1.058328 1.662947 7.587079
-1.040762 1.616337 7.985061
-1.013559 1.586441 8.471794
-0.976047 1.576414 9.047358
-0.945287 1.625544 9.343545
-0.905095 1.627804 9.920387
-0.910365 1.429084 10.452875
-1.710120 1.047390 0.835834
-1.620525 1.428585 1.405326
-1.583474 1.421248 1.964888
-1.557442 1.420689 2.349002
-1.525522 1.328889 2.998986
-1.491807 1.340766 3.471726
-1.476665 1.347778 3.680736
-1.435372 1.371898 4.240925
-1.373662 1.508368 4.880842
-1.369258 1.337810 5.280652
-1.344554 1.277546 5.762513
-1.288747 1.510339 6.126366
-1.250346 1.558685 6.596418
-1.208773 1.535573 7.253500
-1.195811 1.475301 7.562614
-1.144205 1.481075 8.310581
-1.110228 1.540748 8.693287
-1.067886 1.619022 9.162533
-1.044659 1.589290 9.562691
-1.035888 1.385864 10.091331
-1.864934 0.018992 0.392919
-1.834247 0.207875 0.706402
-1.761526 1.096040 1.119368
-1.714518 1.388156 1.597508
-1.687734 1.286427 2.070770
-1.655675 1.290138 2.543272
-1.634229 1.197420 2.930653
-1.583304 1.221365 3.667695
-1.556411 1.239266 4.052983
-1.523151 1.266296 4.525823
-1.483386 1.305550 5.085958
-1.458386 1.145767 5.576238
-1.434869 1.082560 5.972215
-1.396060 1.510369 6.227197
-1.355342 1.573340 6.783689
-1.318379 1.545084 7.352833
-1.293943 1.499429 7.749291
-1.249479 1.498904 8.408870
-1.224317 1.463765 8.808217
-1.195120 1.530908 9.190785
-1.149269 1.554252 9.853052
-1.130296 1.337993 10.296288
-1.867222 -0.123396 0.297831
-1.860022 0.169150 0.524897
-1.850648 1.056715 1.028797
-1.832498 1.351222 1.419150
-1.789226 1.150153 1.978594
-1.751565 1.156859 2.540188
-1.714130 1.171423 3.101649
-1.673861 1.093990 3.667352
-1.659929 1.104454 3.878374
-1.622971 1.137751 4.440470
-1.591980 1.171962 4.914382
-1.545408 0.921125 5.502347
-1.518033 1.067322 5.968625
-1.503625 1.407454 6.322221
-1.479036 1.453001 6.705802
-1.439865 1.426792 7.276254
-1.395367 1.421969 7.934558
-1.367477 1.384216 8.332889
-1.328698 1.381221 8.907073
-1.299438 1.467957 9.376889
-1.271748 1.444675 9.778204
-1.240010 1.327617 10.201023
-1.949036 1.203172 1.196862
-1.916989 1.201601 1.667364
-1.874803 1.106124 2.138596
-1.826906 1.123276 2.872707
-1.802425 1.137587 3.256730
-1.778345 1.155562 3.640624
-1.727660 1.094887 4.292484
-1.709827 1.116085 4.589300
-1.670798 1.055233 5.068838
-1.637286 0.991549 5.462473
-1.607111 1.168144 6.187845
-1.597444 1.312756 6.559840
-1.572229 1.374023 7.029133
-1.531639 1.355457 7.598767
-1.504985 1.302809 7.908683
-1.474164 1.267128 8.306989
-1.442726 1.380607 8.950932
-1.404784 1.389549 9.525110
-1.371649 1.236651 9.771697
-1.303321 1.101954 10.566573
-1.997859 1.043907 1.819433
-1.953779 0.952064 2.207299
-1.918194 0.967912 2.770192
-1.900144 0.979322 3.065074
-1.867153 1.006712 3.622184
-1.830823 1.047905 4.266305
-1.819557 1.063322 4.473378
-1.766674 1.020167 5.124753
-1.709134 0.862042 5.524893
-1.697674 1.030954 6.160864
-1.707554 1.153501 6.356955
-1.686990 1.214034 6.824836
-1.641078 1.208774 7.479739
-1.629617 1.254262 7.773137
-1.583464 1.279693 8.516733
-1.548160 1.268647 9.000889
-1.519224 1.228810 9.312264
-1.460969 1.168009 9.992987
-1.411311 1.059388 10.415602
-2.059777 0.791022 1.590330
-2.060481 0.893689 1.976958
-2.030806 0.906092 2.450194
-2.007689 0.920216 2.836089
-1.980679 0.942449 3.309125
-1.946093 0.981654 3.956310
-1.922577 1.016696 4.428757
-1.878054 0.953114 4.821181
-1.807951 0.797233 5.223588
-1.788191 0.846838 5.698472
-1.816759 1.115045 6.325403
-1.806409 1.153630 6.622840
-1.759343 1.149250 7.280492
-1.724174 1.099412 7.591967
-1.705852 1.220470 8.322341
-1.647787 1.067596 8.563824
-1.607285 1.111326 9.313285
-1.573578 1.112961 9.802703
-1.517378 0.968981 10.051824
-1.901594 -0.230596 0.337152
-2.013002 0.237585 1.135500
-2.155683 0.712236 1.529617
-2.125372 0.722028 2.002189
-2.086942 0.743975 2.649287
-2.065755 0.761727 3.034458
-2.037225 0.793750 3.593944
-2.023132 0.813803 3.891614
-2.002340 0.849882 4.363424
-1.983463 0.891207 4.834885
-1.863615 0.657151 5.331746
-1.843350 0.729946 5.980825
-1.901752 0.964455 6.344425
-1.927137 1.108833 6.715912
-1.881939 1.096399 7.284640
-1.807207 0.970642 7.695993
-1.800946 1.064120 8.253501
-1.728866 0.964076 8.757119
-1.693257 0.945121 9.159128
-1.659792 0.984355 9.823796
-1.627680 0.975611 10.228324
-1.796236 -0.566209 0.304499
-2.033537 0.072173 1.021600
-2.249401 0.625388 1.504921
-2.178532 0.546276 1.976276
-2.192815 0.654270 2.447010
-2.126436 0.585396 2.920621
-2.096189 0.623796 3.565329
-2.083764 0.644581 3.860966
-2.056947 0.704579 4.592059
-2.042676 0.749551 5.061287
-1.993106 0.689977 5.364932
-1.939075 0.663416 5.931752
-1.973118 0.812920 6.390617
-1.969424 0.852743 6.685282
-1.964239 0.959798 7.413305
-1.922029 0.945383 7.895050
-1.839298 0.816432 8.220374
-1.800916 0.811077 8.706088
-1.809489 0.934517 9.348908
-1.771395 0.887620 9.575400
-2.397616 0.611039 1.393648
-2.276491 0.446611 1.774627
-2.205699 0.372825 2.158689
-2.127967 0.311056 2.719616
-2.102828 0.343429 3.279617
-2.133543 0.463139 3.747219
-2.120742 0.493254 4.130963
-2.109752 0.526587 4.514496
-2.093808 0.599127 5.245800
-1.992361 0.448657 5.472644
-1.986788 0.503893 5.944365
-2.032812 0.661989 6.491130
-2.032954 0.715121 6.873553
-1.988233 0.725675 7.529600
-1.942910 0.687319 7.839728
-1.905794 0.711959 8.499070
-1.866359 0.696610 8.899265
-1.877784 0.770066 9.282404
-1.806868 0.749311 10.051602
-1.673110 0.559134 10.410134
-1.794026 -0.668986 0.348327
-2.161121 -0.081796 0.584784
-2.335527 0.263899 1.241353
-2.306616 0.277562 1.711366
-2.276296 0.299760 2.268464
-2.257939 0.318795 2.651387
-2.179750 0.268595 3.211670
-2.172185 0.282742 3.420882
-2.157373 0.317932 3.891614
-2.142056 0.373679 4.536269
-2.079301 0.336836 5.014083
-2.132156 0.441825 5.214883
-2.018273 0.371341 6.052411
-1.965305 0.349924 6.534668
-2.078758 0.555795 6.806738
-2.032516 0.555219 7.375545
-1.986026 0.533148 7.772118
-1.947221 0.544273 8.344127
-1.961000 0.612110 8.726545
-1.878744 0.570270 9.405453
-1.843140 0.565419 9.807466
-1.765277 0.520366 10.405683
-2.191044 -0.174161 0.836945
-2.400939 0.156333 1.403005
-2.317530 0.091417 1.785170
-2.228103 0.038110 2.343823
-2.211746 0.059212 2.728033
-2.194790 0.089085 3.199402
-2.183516 0.116667 3.583384
-2.171196 0.161963 4.141515
-2.162989 0.221811 4.784560
-2.222964 0.339373 5.157698
-2.286149 0.479719 5.701559
-2.045165 0.236515 6.297020
-2.048726 0.263792 6.504705
-2.185071 0.496217 7.034561
-2.073200 0.397580 7.441385
-2.028909 0.393665 7.923622
-1.992413 0.409402 8.494315
-1.955858 0.415705 8.979480
-1.934376 0.460474 9.639943
-1.893503 0.442501 9.953712
-1.690859 0.253180 10.593275
-1.978976 -0.576487 0.652337
-2.161697 -0.347653 0.959241
-2.403780 -0.037409 1.436929
-2.315619 -0.095126 1.818841
-2.215656 -0.130754 2.551788
-2.205218 -0.112598 2.848360
-2.193929 -0.086697 3.232116
-2.319329 0.095304 3.693726
-2.106848 -0.060993 4.441315
-2.106036 -0.041055 4.650716
-2.379975 0.317037 5.261906
-2.316690 0.287025 5.650905
-2.194363 0.220005 6.312250
-2.132394 0.174580 6.531871
-2.084013 0.178602 7.100486
-2.100502 0.234507 7.482781
-2.066210 0.262647 8.140196
-2.016326 0.239456 8.451511
-1.986393 0.263986 9.025013
-1.962005 0.294668 9.599860
-1.852201 0.208645 9.933341
-1.575970 -0.016623 10.683156
-2.294031 -0.395886 0.643292
-2.469473 -0.166548 1.379097
-2.380791 -0.221497 1.672371
-2.282877 -0.260886 2.228333
-2.193131 -0.300487 2.699739
-2.179196 -0.262234 3.257332
-2.389473 0.035310 4.386537
-2.541399 0.232580 5.009226
-2.475978 0.215486 5.481311
-2.343808 0.145829 6.051912
-2.059951 -0.085144 6.389642
-2.088228 -0.000058 7.033210
-2.118884 0.079142 7.588620
-2.058471 0.043767 7.810851
-2.037170 0.092427 8.556130
-1.980632 0.060863 8.780930
-1.972586 0.122028 9.529188
-1.919992 0.094326 9.756425
-1.760086 0.003436 10.374586
-1.588806 -1.136995 0.159356
-1.951304 -0.813112 0.567184
-2.161138 -0.612034 0.961122
-2.275296 -0.450272 1.783470
-2.185093 -0.496621 2.079587
-2.169574 -0.468431 2.550425
-2.160145 -0.442913 2.933913
-2.385289 -0.143634 4.326419
-2.627071 0.094599 4.856275
-2.561617 0.090423 5.413161
-2.420652 0.019690 5.895649
-2.280129 -0.057790 6.295727
-2.001006 -0.220761 6.985076
-1.941114 -0.241883 7.293768
-2.045286 -0.127157 7.662342
-2.025362 -0.078863 8.407340
-2.068236 -0.004392 8.875471
-2.019735 -0.016164 9.187361
-2.012001 0.034578 9.848039
-2.028269 -0.846400 0.839343
-2.326591 -0.593214 1.490530
-2.231211 -0.633441 1.784150
-2.129680 -0.656431 2.341096
-2.119081 -0.625428 2.810865
-2.113077 -0.591350 3.280503
-2.282132 -0.395571 4.294027
-2.619311 -0.147564 4.559818
-2.550225 -0.148886 5.115276
-2.480516 -0.164415 5.500807
-2.343918 -0.202888 6.157157
-2.272339 -0.233351 6.374135
-1.981995 -0.372373 7.063773
-1.852132 -0.419243 7.560905
-2.057746 -0.245443 8.001040
-2.020023 -0.231520 8.484803
-1.996868 -0.200641 9.056949
-1.969737 -0.179382 9.543460
-1.936009 -0.169514 9.944192
-1.602516 -0.339864 10.604876
-1.469015 -1.329134 0.190247
-1.868908 -1.060041 0.778101
-2.031624 -0.952010 0.998371
-2.180591 -0.825212 1.561378
-2.159763 -0.787008 2.207247
-2.063008 -0.804567 2.680990
-2.058135 -0.764067 3.240975
-2.333764 -0.515472 4.463871
-2.609549 -0.326839 4.908850
-2.545027 -0.319787 5.467818
-2.390303 -0.375529 5.867032
-2.157592 -0.467085 6.367477
-1.836585 -0.613338 6.799263
-1.787649 -0.603116 7.286330
-1.934560 -0.471995 7.920259
-1.974661 -0.419859 8.305036
-1.941747 -0.400592 8.793174
-2.023315 -0.305176 9.438114
-1.903833 -0.339410 9.860535
-1.728916 -0.389327 10.481552
-1.448735 -1.402845 0.172827
-1.520603 -1.347224 0.479889
-1.676619 -1.239965 0.964435
-2.019820 -1.047273 1.446425
-2.004704 -1.019129 1.919676
-1.994690 -0.988651 2.392918
-1.989781 -0.955845 2.866085
-2.278498 -0.720053 4.266296
-2.482610 -0.580306 4.892410
-2.405189 -0.593317 5.194823
-2.345107 -0.579134 5.757258
-2.110934 -0.642776 6.344100
-2.043556 -0.650735 6.652705
-1.640177 -0.789096 7.275700
-1.525959 -0.790988 7.955406
-1.910864 -0.603789 8.105746
-1.910966 -0.548283 8.854386
-1.975612 -0.483863 9.324820
-1.942317 -0.469309 9.726874
-1.747648 -0.519007 10.258009
-1.230859 -1.546771 0.246540
-1.670053 -1.346029 0.829267
-1.938966 -1.226837 1.134134
-2.016768 -1.164822 1.606612
-1.911788 -1.169061 2.077882
-2.000122 -1.103401 2.548010
-1.906081 -1.097270 3.108754
-2.019426 -0.982849 4.133097
-2.214394 -0.898176 4.329797
-2.417704 -0.798316 4.696315
-2.258375 -0.815328 5.263929
-2.194361 -0.804390 5.740052
-1.962686 -0.839994 6.413710
-1.836394 -0.775483 7.952261
-1.791393 -0.763137 8.351972
-1.831124 -0.727479 8.648921
-1.898466 -0.669389 9.119448
-1.799656 -0.662546 9.714221
-1.724601 -0.640568 10.400229
-1.569978 -1.493166 0.531224
-1.648979 -1.444342 0.921215
-2.020943 -1.315306 1.313446
-1.912640 -1.312100 1.783130
-1.810464 -1.313150 2.167895
-1.808917 -1.268503 2.813251
-2.129854 -1.083479 4.206842
-2.247332 -1.019302 4.666116
-2.268419 -0.987095 5.044782
-2.209180 -0.964182 5.604671
-1.877044 -1.007361 6.285998
-1.633933 -1.038498 6.791402
-1.395756 -1.012834 8.090851
-1.664496 -0.902472 8.619593
-1.708729 -0.869689 8.915934
-1.812445 -0.796360 9.560110
-1.768509 -0.786388 9.874820
-1.448284 -0.809327 10.799345
-1.283825 -1.671817 0.045874
-1.055697 -1.671888 0.693920
-1.237734 -1.609249 1.088559
-1.716121 -1.482810 1.569509
-1.710277 -1.457576 1.953773
-1.708063 -1.431633 2.338027
-1.711323 -1.392645 2.896761
-2.040156 -1.244554 4.118666
-2.165904 -1.182489 4.665106
-1.781261 -1.158223 6.113038
-1.446039 -1.182195 6.717579
-1.022286 -1.221845 7.345599
-0.790674 -1.231239 7.867737
-1.148046 -1.131786 8.299835
-1.483074 -1.049256 8.548970
-1.556985 -1.002511 9.019699
-1.651688 -0.945787 9.576657
-1.641080 -0.914324 10.065219
-0.929822 -1.776539 0.321538
-1.399041 -1.671096 1.108269
-1.589661 -1.623768 1.494158
-1.584377 -1.586615 2.050947
-1.586811 -1.548608 2.607697
-1.497604 -1.520567 3.167567
-1.822060 -1.433684 3.917709
-2.138413 -1.374054 4.279049
-1.967658 -1.360676 4.756230
-1.499068 -1.308049 6.300531
-1.244062 -1.308015 6.718905
-0.916819 -1.302753 7.332784
-0.697232 -1.285855 7.941908
-0.964110 -1.225895 8.389196
-1.333914 -1.156031 8.813945
-1.430104 -1.107464 9.372837
-1.467961 -1.089157 9.580900
-1.477314 -1.049000 10.158016
-0.683690 -1.851524 0.286155
-1.261032 -1.786884 0.994870
-1.350160 -1.728644 1.820370
-1.250161 -1.717324 2.031707
-1.354069 -1.682412 2.504653
-1.368564 -1.638301 3.152877
-1.594677 -1.586642 3.821315
-2.029326 -1.532466 4.436650
-1.769087 -1.501514 5.008771
-1.097711 -1.426918 6.406797
-1.023550 -1.312749 8.132969
-0.957602 -1.299477 8.358500
-1.232982 -1.261726 8.799210
-1.332597 -1.221145 9.358139
-1.290366 -1.201180 9.672689
-1.341015 -1.148916 10.426197
-0.832134 -1.876060 0.774495
-1.221486 -1.848743 1.432760
-1.120427 -1.824258 1.730163
-1.127074 -1.774849 2.467210
-1.135957 -1.749203 2.853314
-1.499758 -1.670590 4.255667
-1.818539 -1.665995 4.531079
-1.497586 -1.586712 5.498155
-1.067106 -1.520880 6.194536
-0.935120 -1.475562 6.780793
-0.676610 -1.441420 7.119021
-0.485915 -1.379896 7.907437
-0.617574 -1.372253 8.106371
-0.907613 -1.348877 8.641619
-1.074016 -1.331249 9.011232
-1.179490 -1.298056 9.572060
-1.292779 -1.265307 10.131388
-1.101809 -1.220888 10.665949
-1.444064 -1.726740 5.299357
-1.204450 -1.656921 5.883682
-0.973475 -1.587678 6.475533
-0.766718 -1.467360 7.864478
-0.633388 -1.422147 8.283339
-0.797505 -1.417508 8.655749
-0.997953 -1.405683 9.201307
-1.126458 -1.377837 9.849525
-1.052245 -1.327721 10.450134
-0.714090 -2.036662 0.645214
-0.904912 -2.037729 1.211626
-0.905999 -2.011419 1.597167
-0.814441 -1.959599 2.070770
-0.737351 -1.892500 2.810461
-0.851313 -1.889989 3.194463
-0.588219 -1.795137 3.770123
-1.429781 -1.916020 4.580360
-1.372974 -1.871440 5.054764
-1.039035 -1.760645 5.645977
-0.770195 -1.687747 5.885162
-0.642850 -1.620756 6.470031
-0.427022 -1.533998 7.072230
-0.289845 -1.476475 7.489571
-0.393373 -1.452907 8.147673
-0.718430 -1.509732 8.313417
-0.722335 -1.470603 8.893768
-0.699772 -1.437961 9.299166
-0.850443 -1.418690 10.038603
-0.878780 -1.384525 10.621347
-0.164159 -1.957504 0.872520
-0.649156 -2.039034 1.747296
-0.662219 -2.003344 2.310284
-0.686755 -1.964884 2.960874
-0.967087 -1.948371 4.372612
-1.175533 -1.995981 4.569608
-1.305230 -2.007882 4.944527
-0.998859 -1.863851 5.709386
-0.652396 -1.737918 6.048293
-0.331573 -1.606688 6.570232
-0.125089 -1.503179 7.177371
-0.145361 -1.455484 7.941560
-0.305512 -1.476156 8.319405
-0.579309 -1.525476 8.766349
-0.746618 -1.548704 9.137852
-0.653494 -1.485214 9.650983
-0.679381 -1.451809 10.235274
-0.466084 -1.363416 10.598600
-0.289584 -2.129245 0.114664
-0.378415 -2.135176 0.507191
-0.097452 -1.999242 0.888421
-0.008989 -1.924129 1.455943
-0.392070 -2.037252 1.936305
-0.403974 -2.013792 2.324810
-0.330138 -1.950736 2.803530
-0.458414 -1.953320 3.453191
-0.589734 -1.963665 4.011616
-0.899165 -2.056487 4.379572
-1.033933 -2.075046 4.842690
-1.080921 -2.059309 5.311701
-0.865537 -1.933956 5.896811
-0.369658 -1.703724 6.435562
-0.120865 -1.589782 6.684123
-0.044124 -1.504274 7.458262
-0.091633 -1.500635 7.762520
-0.354854 -1.569654 8.213195
-0.471905 -1.567539 8.867945
-0.654908 -1.605017 9.326790
-0.642294 -1.570800 9.733258
-0.581172 -1.503620 10.337021
-0.125255 -1.290368 10.854151
-0.130737 -2.102534 0.666659
0.047644 -1.989566 1.051379
0.132139 -1.920600 1.441027
-0.156738 -2.008222 2.097323
-0.089317 -1.934108 2.664368
-0.204562 -1.953195 3.139157
-0.127055 -1.900468 3.355200
-0.429896 -2.009086 3.818265
-0.752194 -2.114497 4.447794
-0.779198 -2.105188 4.744011
-0.655587 -2.004107 5.316578
-0.529191 -1.907866 5.806514
-0.229272 -1.727680 6.322478
-0.037508 -1.592244 6.923839
0.186515 -1.460981 7.264601
-0.005451 -1.503601 7.910186
-0.368324 -1.636330 8.430433
-0.438327 -1.640567 8.817562
-0.494706 -1.644957 9.116239
-0.518068 -1.612758 9.696559
-0.480461 -1.543576 10.386500
0.388303 -1.903187 0.706717
0.119678 -2.013717 1.279436
-0.060921 -2.094592 1.580082
0.089641 -1.956997 2.231516
-0.019173 -1.982954 2.705411
0.050836 -1.919099 3.006720
0.193435 -1.799143 3.490506
-0.187033 -1.983229 3.947674
-0.579397 -2.168176 4.482072
-0.701739 -2.209754 4.855545
0.345621 -1.439081 6.989830
0.260849 -1.443638 7.560397
0.013771 -1.551236 8.010889
-0.222001 -1.659587 8.367802
-0.306825 -1.671674 8.841952
-0.227371 -1.586166 9.351527
-0.274468 -1.561230 10.021640
-0.208213 -1.482847 10.537563
0.542475 -1.877121 0.549598
0.616805 -1.786700 1.027330
0.524471 -1.818283 1.420190
0.253880 -1.951357 2.076518
0.235747 -1.932112 2.464519
0.214552 -1.914987 2.852463
0.260318 -1.836869 3.420796
0.067508 -1.938948 3.799803
-0.307217 -2.153616 4.337561
-0.369141 -2.143687 4.981071
-0.318735 -2.084046 5.284566
-0.067344 -1.854474 5.968968
0.383578 -1.513452 6.332151
0.400673 -1.461353 6.824425
0.412805 -1.412546 7.318340
0.229704 -1.486178 7.962979
-0.077012 -1.669851 8.305844
-0.175960 -1.692108 8.868399
-0.247658 -1.710029 9.254115
-0.242309 -1.673263 9.658137
-0.098902 -1.530606 10.191448
0.218027 -1.240543 11.062114
0.845566 -1.688124 0.714027
0.448588 -1.978067 1.116171
0.278001 -2.076090 1.594166
0.335332 -1.987816 2.069086
0.378034 -1.895928 2.723042
0.424798 -1.815872 3.202915
0.473857 -1.741473 3.596224
0.442826 -1.732936 3.986062
-0.251539 -2.230904 4.794892
-0.147019 -2.103102 5.280139
0.314456 -1.663101 5.995215
0.471617 -1.482210 6.595321
0.558142 -1.367400 7.100535
0.500980 -1.380045 7.492753
0.275053 -1.525694 7.944032
0.030648 -1.679276 8.477912
-0.020937 -1.695522 8.776335
-0.031103 -1.661037 9.268037
-0.045979 -1.630295 9.761021
0.047786 -1.491586 10.472688
1.108956 -1.474006 0.854160
0.875303 -1.650611 1.342437
0.569276 -1.904823 1.735447
0.618614 -1.813603 2.212718
0.580213 -1.789254 2.867374
0.553773 -1.778244 3.256179
0.575344 -1.696497 3.915385
0.621619 -1.624058 4.221849
0.433124 -1.759922 4.686869
0.393985 -1.699570 5.736525
0.623029 -1.433747 6.255532
0.608443 -1.385285 6.926202
0.553620 -1.400992 7.317675
0.438296 -1.483790 7.605688
0.194880 -1.657019 8.230096
0.145950 -1.675746 8.528821
0.064891 -1.708693 9.002994
0.017542 -1.691651 9.670488
0.171378 -1.512352 10.027267
0.232806 -1.379252 10.831624
1.009058 -1.580386 1.244485
0.999976 -1.568670 1.460959
0.710174 -1.843650 1.940850
0.734023 -1.742014 2.684007
0.701697 -1.729931 3.161064
0.686178 -1.725918 3.372382
0.692182 -1.643734 4.120122
0.590662 -1.718432 4.502491
0.619197 -1.646699 4.897626
0.578994 -1.652363 5.285978
0.682205 -1.450236 6.147203
0.842395 -1.237669 6.481935
0.737912 -1.324874 6.773176
0.622835 -1.368835 7.609909
0.461157 -1.530749 7.793394
0.323576 -1.637775 8.254200
0.233104 -1.681976 8.816532
0.152781 -1.723845 9.289770
0.197808 -1.622031 9.800552
0.302621 -1.451077 10.335272
0.658724 -0.990388 10.962030
1.128431 -1.491456 1.314550
1.174608 -1.397300 1.616205
0.850943 -1.778772 2.006786
0.865887 -1.676519 2.750090
0.838737 -1.668971 3.138581
0.795183 -1.663291 3.703973
0.814937 -1.583741 4.186277
0.727589 -1.665748 4.480044
0.723693 -1.597408 5.140770
0.752106 -1.525814 5.449260
0.857777 -1.310858 6.135000
0.930000 -1.170051 6.548741
0.845419 -1.207632 7.209457
0.614421 -1.471993 7.559201
0.441114 -1.659661 7.917579
0.416311 -1.628016 8.495112
0.383775 -1.647410 8.704857
0.352037 -1.624706 9.283847
0.342613 -1.550808 10.059843
0.479818 -1.340572 10.330777
1.716686 -0.768853 0.437394
1.276047 -1.428162 0.677426
1.200766 -1.485604 1.159739
1.225461 -1.375893 1.727993
1.024939 -1.607621 2.383318
0.999150 -1.599362 2.771887
1.025008 -1.509917 3.163579
1.041615 -1.423596 3.646007
0.932479 -1.512933 4.296753
0.896793 -1.520132 4.685521
0.841276 -1.536245 5.251063
0.916371 -1.379023 5.568811
1.023119 -1.148341 6.077975
1.009650 -1.096576 6.660290
0.938939 -1.135756 7.231446
0.718473 -1.425806 7.669922
0.560628 -1.627955 8.027950
0.505845 -1.665407 8.413709
0.474633 -1.641945 8.991666
0.438860 -1.625447 9.570976
0.464863 -1.520650 10.083587
0.574616 -1.268038 10.730501
1.552025 -0.942682 1.145255
1.446530 -1.109471 1.367959
1.215057 -1.437192 2.122708
1.242152 -1.341961 2.430076
1.196160 -1.334092 3.087882
1.166487 -1.333867 3.478530
1.127664 -1.338128 3.957944
1.086209 -1.347387 4.437068
1.012451 -1.444107 4.731201
1.013063 -1.373173 5.216758
1.084312 -1.140505 5.901495
1.113850 -0.999717 6.493828
0.931296 -1.292490 6.850312
0.988790 -1.084003 7.547149
0.984478 -1.033735 7.953470
0.694134 -1.523096 8.355411
0.686214 -1.480052 8.758771
0.708581 -1.364494 9.269569
0.669418 -1.354405 9.853282
0.654167 -1.324500 10.261345
0.800619 -0.964706 10.844588
1.852309 -0.401438 0.487769
1.589569 -0.928857 0.904714
1.406583 -1.277372 1.307522
1.292272 -1.441566 1.879115
1.347675 -1.249774 2.272898
1.308447 -1.243310 2.844536
1.239522 -1.334704 3.234658
1.227659 -1.250670 3.898206
1.194700 -1.259827 4.291282
1.152218 -1.275811 4.772939
1.115888 -1.292722 5.165461
1.160907 -1.060516 5.941932
