1.723333 1.177139 6.019303
1.509089 1.022809 6.212415
1.192451 0.794656 7.145893
1.036018 0.681941 7.587389
1.358583 0.914206 8.244543
1.425327 0.962287 8.170988
1.471281 0.995367 8.356838
1.639420 1.116407 9.000285
1.613362 1.097618 9.216735
1.638125 1.115415 9.605539
1.463784 1.149371 0.994862
1.464108 1.149639 1.008976
1.541309 1.213796 1.020037
1.549683 1.220724 1.319703
1.576519 1.242960 1.961562
1.589800 1.253972 2.203652
1.513938 1.190925 2.225302
2.102642 1.680013 3.738117
2.198337 1.759524 3.903281
2.129961 1.702692 3.986144
2.138507 1.709721 4.680572
2.049633 1.635871 4.599562
2.013743 1.606012 4.908813
1.913721 1.522848 5.294943
1.836702 1.458789 5.798116
1.688573 1.335680 5.853666
1.565975 1.233727 6.502729
1.005043 0.767440 7.675411
1.206739 0.935040 7.868237
1.430445 1.120889 8.488444
1.533347 1.206363 8.903000
1.522219 1.197119 8.859228
1.603123 1.264292 9.475724
1.472617 1.155853 9.293567
1.305205 1.174197 0.778743
1.471554 1.332850 1.589123
1.492503 1.352789 2.060467
1.493142 1.353397 2.072939
1.488070 1.348569 1.971365
1.445330 1.307724 2.505425
2.022397 1.858225 4.116087
2.107716 1.939632 4.223369
2.018950 1.854940 4.084910
2.129414 1.960254 4.981327
1.988889 1.826149 5.030524
1.904361 1.745496 4.949780
1.802566 1.648319 5.279171
1.687869 1.538790 5.984241
1.514738 1.373495 6.712056
1.327367 1.194627 7.307706
1.154663 1.029792 7.572580
1.278051 1.147472 8.163780
1.344736 1.211074 8.464204
1.373836 1.238829 8.591608
1.457771 1.318887 8.947641
1.434116 1.296290 9.163580
1.357979 1.223601 9.470804
1.262160 1.132107 9.988091
1.218551 1.257609 0.490801
1.286543 1.332039 0.560149
1.290327 1.336146 0.859983
1.379641 1.433833 1.670056
1.378014 1.432057 1.625913
1.409616 1.466572 2.323188
1.423456 1.481696 2.563904
1.357073 1.409016 2.585797
1.978356 2.089002 4.303077
2.017351 2.131655 4.645996
1.959010 2.067772 4.731004
1.921519 2.026696 4.982567
1.776556 1.867997 4.920582
1.688914 1.771999 5.306333
1.647436 1.726565 5.507229
1.565748 1.637086 5.899565
1.042010 1.063519 7.358329
1.249887 1.291062 7.722995
1.263495 1.305952 7.793486
1.293578 1.338828 8.294208
1.280273 1.324229 8.566501
1.332943 1.381865 8.808725
1.297307 1.342831 8.967616
1.306367 1.352673 9.619154
1.175727 1.209606 9.964641
1.004880 1.182735 0.557906
1.196754 1.424357 0.969769
1.261387 1.505748 1.095244
1.270335 1.516972 1.451976
1.302044 1.556808 2.264650
1.317675 1.576457 2.563459
1.270007 1.516386 2.814953
1.192197 1.418414 2.552214
1.736469 2.103764 3.992644
1.758891 2.131975 4.227973
1.806302 2.191634 4.683991
1.797778 2.180836 5.157702
1.731698 2.097609 5.135021
1.679052 2.031288 5.223377
1.616029 1.951843 5.723555
1.443129 1.734050 5.856984
1.413174 1.696233 6.537850
1.209176 1.439245 6.876130
1.077346 1.273152 7.253357
1.198359 1.425531 7.586576
1.231218 1.466894 7.772554
1.248044 1.488030 8.215503
1.306027 1.561025 8.514924
1.283620 1.532775 8.729485
1.310266 1.566278 9.173133
1.229949 1.465126 9.104127
1.151747 1.366594 9.354068
1.043571 1.414180 0.861966
1.104585 1.502122 1.103511
1.101828 1.498169 0.946021
1.168664 1.594475 1.414728
1.177466 1.607125 1.714642
1.190496 1.625863 2.071380
1.164195 1.587849 2.721930
1.102116 1.498349 2.631312
1.165786 1.590138 2.750934
1.126659 1.533677 3.061582
1.053649 1.428318 3.673941
1.619534 2.244192 4.251120
1.574775 2.179633 4.392050
1.597479 2.212338 4.628155
1.613978 2.236031 5.325804
1.510602 2.086889 5.916591
1.373098 1.888644 5.749287
1.250814 1.712263 6.167799
1.132330 1.541362 6.593184
1.072657 1.455261 6.998614
1.083019 1.470192 7.068855
1.064610 1.443611 7.337134
1.187891 1.621266 8.094370
1.141531 1.554361 8.508780
1.048623 1.420421 8.321769
1.112708 1.512777 8.679196
1.147699 1.563160 9.181451
1.064982 1.443863 9.374061
0.948339 1.486024 1.052003
1.070629 1.690500 1.859959
1.059686 1.672251 1.475394
1.018553 1.603376 1.838926
1.050962 1.657471 2.654764
0.997874 1.568656 2.621678
0.961891 1.508406 2.933549
1.353268 2.163018 4.163640
1.427989 2.287989 4.440862
1.328014 2.120715 4.488224
1.346573 2.151648 5.247640
1.376810 2.202192 5.538905
1.358643 2.171748 5.850973
1.241005 1.974948 5.737407
1.157678 1.835437 6.380769
0.995597 1.564268 6.347848
1.042299 1.642284 7.129020
0.994392 1.562125 7.167065
0.954355 1.495125 7.262761
1.081813 1.708238 8.134458
1.043602 1.644292 8.233145
1.033105 1.626687 8.504087
1.004999 1.579640 8.661506
0.977362 1.533376 8.819649
0.961720 1.507124 9.355865
0.887791 1.383404 9.549766
0.772413 1.190283 10.104762
0.838714 1.565273 1.393504
0.939218 1.766623 1.856171
0.929716 1.747646 1.471602
0.947013 1.782199 2.114140
0.949389 1.786949 2.186063
0.935310 1.758595 2.951417
0.834411 1.556417 2.699586
0.936712 1.761400 2.981286
0.926296 1.740406 3.635927
0.882785 1.653196 3.661853
1.100426 2.089291 4.242667
1.245552 2.380129 4.375775
1.170885 2.230444 4.588515
1.140953 2.170419 4.786319
1.160255 2.209062 5.023076
1.199825 2.288203 5.949931
1.037437 1.962790 5.689380
0.973268 1.834131 5.971318
0.934422 1.756185 6.484895
0.900085 1.687274 7.003437
0.871775 1.630508 7.156307
0.936521 1.760178 7.684281
0.924946 1.736932 7.953468
0.930310 1.747613 8.338031
0.865864 1.618474 8.208586
0.864747 1.616176 8.538247
0.891001 1.668705 9.041048
0.861358 1.609218 9.463176
0.779169 1.444481 9.542538
0.669183 1.223956 10.039581
0.612468 1.314238 0.269525
0.740933 1.617392 1.463626
0.815217 1.792875 1.240057
0.832569 1.833690 2.053339
0.825690 1.817498 1.782403
0.808726 1.777279 2.545167
0.764559 1.672999 2.394852
0.783742 1.718197 2.923982
0.807074 1.773192 3.452016
0.807699 1.774666 3.464967
0.778212 1.704984 3.662301
0.839249 1.849054 4.061563
0.962294 2.139636 4.143301
0.998965 2.226124 4.717976
1.007611 2.246518 4.842809
0.999041 2.226191 5.266463
0.988565 2.201374 5.635822
0.913311 2.023635 5.689822
0.839249 1.848614 6.221464
0.774832 1.696445 6.394002
0.765116 1.673432 6.717282
0.818222 1.798745 7.245524
0.818884 1.800229 7.627646
0.808551 1.775772 7.896776
0.792549 1.737937 8.109797
0.770340 1.685453 8.266423
0.791258 1.734752 8.768032
0.831407 1.829447 9.384445
0.759602 1.659849 9.463625
0.736318 1.604771 9.889175
0.625606 1.343225 10.273140
0.520610 1.354334 0.457243
0.617994 1.637342 0.355365
0.653686 1.740917 0.941764
0.655568 1.746338 1.127032
0.699016 1.872423 1.821852
0.696010 1.863728 1.663814
0.701947 1.880907 1.962231
0.676551 1.807033 2.268207
0.647476 1.722513 2.404045
0.665512 1.774778 2.990666
0.641887 1.706067 3.244268
0.671243 1.791198 3.945582
0.664062 1.770371 3.786987
0.730236 1.962496 4.470195
0.820499 2.224684 4.901607
0.811436 2.198387 4.745765
0.790028 2.136127 4.945495
0.801087 2.168220 5.127716
0.791242 2.139405 5.970794
0.728666 1.957552 6.027299
0.670293 1.787902 6.141259
0.670154 1.787392 6.577978
0.699090 1.871388 6.934065
0.678355 1.811097 7.086581
0.678178 1.810489 7.468929
0.696263 1.862907 8.023947
0.688987 1.841698 8.294530
0.688564 1.840386 8.623335
0.647044 1.719752 8.552375
0.666303 1.775593 9.055368
0.651405 1.732184 9.535155
0.591601 1.558382 9.615245
0.481406 1.238041 10.147903
0.504796 1.680996 0.754900
0.532323 1.783437 0.997550
0.533412 1.787455 1.127480
0.564696 1.903817 1.596036
0.562676 1.896344 1.439932
0.541776 1.818395 1.803579
0.529419 1.772158 2.514114
0.536726 1.799277 2.816087
0.534220 1.789975 2.716660
0.555866 1.870356 3.476130
0.540342 1.812443 3.790344
0.529267 1.771300 3.461568
0.554253 1.864137 4.164124
0.573836 1.936925 4.636005
0.610333 2.072775 4.861395
0.644587 2.200294 5.028152
0.648061 2.213209 5.099529
0.609274 2.068674 5.378749
0.545873 1.832460 5.681551
0.550656 1.850104 6.233132
0.529734 1.772158 6.328126
0.570769 1.924783 6.972614
0.567969 1.914368 6.930722
0.550493 1.849125 7.454406
0.543333 1.822377 7.725592
0.528151 1.765786 7.883206
0.545009 1.828398 8.443281
0.569978 1.921295 8.744192
0.566284 1.907453 9.019014
0.519383 1.732660 9.416275
0.471671 1.554948 9.495986
0.465677 1.532375 10.307359
0.327499 1.412568 0.305931
0.387637 1.721180 1.096751
0.428085 1.928847 1.389970
0.436693 1.972754 2.145984
0.436896 1.973789 2.160235
0.422456 1.899478 2.467911
0.404619 1.807814 2.548180
0.413475 1.853113 3.021093
0.406383 1.816455 3.562855
0.405341 1.811121 3.519836
0.412915 1.849905 3.820775
0.431360 1.944390 4.464003
0.424877 1.911173 4.249858
0.445330 2.015976 4.891425
0.460102 2.091692 5.303412
0.441884 1.998092 5.336831
0.427713 1.925032 5.962075
0.423553 1.903703 5.862089
0.412689 1.847802 6.069454
0.449916 2.038708 6.882772
0.434915 1.961604 6.978852
0.425749 1.914427 7.189744
0.435321 1.963372 7.744445
0.408310 1.824666 7.613232
0.419518 1.882011 8.169705
0.405338 1.809123 8.269113
0.408529 1.825358 8.656132
0.431518 1.943176 9.330069
0.404020 1.801833 9.523724
0.238268 1.430371 0.318674
0.238277 1.430430 0.333691
0.277075 1.728318 0.404860
0.291893 1.841672 1.107319
0.278348 1.737753 0.952828
0.295045 1.865542 1.652763
0.295151 1.866345 1.667534
0.287942 1.810589 2.319954
0.292694 1.846823 2.736369
0.290138 1.827324 2.521735
0.292351 1.844201 2.708597
0.290309 1.828045 3.479947
0.294385 1.859193 3.724094
0.293653 1.853602 3.681558
0.310477 1.982257 4.554037
0.314555 2.013454 4.739738
0.322865 2.077047 5.095795
0.328877 2.123068 5.337540
0.312973 2.000691 5.733328
0.294601 1.859735 5.539709
0.305935 1.946515 5.954936
0.316321 2.026051 6.309576
0.305863 1.945688 6.401930
0.302663 1.920915 6.723684
0.298053 1.885348 6.989573
0.287373 1.803048 7.454983
0.304707 1.935868 7.925796
0.292799 1.844400 7.966565
0.296680 1.873932 8.409281
0.296683 1.873748 8.738505
0.289796 1.820767 8.896806
0.291328 1.832127 9.547929
0.132582 1.443826 0.229933
0.138408 1.547145 0.650838
0.155792 1.856648 1.062069
0.156052 1.861097 1.191316
0.156639 1.871224 1.435184
0.159038 1.913019 2.137016
0.153762 1.818794 2.216325
0.153825 1.819902 2.230907
0.157084 1.877104 2.876532
0.151935 1.785148 2.958709
0.156194 1.860199 3.604969
0.155073 1.840425 3.447447
0.158149 1.894701 3.863281
0.160124 1.929585 4.106721
0.158797 1.905213 4.594542
0.160569 1.936565 4.778904
0.158697 1.902638 5.152719
0.149074 1.730757 5.317802
0.151784 1.778762 5.560906
0.162177 1.963578 5.954266
0.165215 2.017427 6.195195
0.166853 2.045865 6.743865
0.168273 2.070480 7.236933
0.163062 1.977486 7.275631
0.160602 1.932783 7.856579
0.154501 1.823985 7.839927
0.161122 1.941035 8.569316
0.160328 1.926935 8.524868
0.162561 1.966136 8.968614
0.164090 1.992862 9.356148
0.151532 1.768922 9.319911
0.032055 1.550021 0.385404
0.030787 1.651843 0.572669
0.028174 1.862364 1.043252
0.028083 1.871124 1.286949
0.029252 1.779469 1.478009
0.028951 1.806375 1.952406
0.028803 1.819318 2.139144
0.028529 1.843021 2.440590
0.028337 1.859424 2.627056
0.027623 1.919809 3.214304
0.027994 1.894179 3.813168
0.027680 1.920248 3.998789
0.027556 1.930583 4.069857
0.026554 2.013522 4.597699
0.026755 1.996929 4.497437
0.027994 1.902424 5.117382
0.029201 1.806729 5.149642
0.029304 1.801675 5.642664
0.026673 2.013861 6.150657
0.026635 2.016998 6.164466
0.025444 2.114167 6.576600
0.025753 2.091697 6.898762
0.026931 1.998381 6.937408
0.028211 1.899271 7.345299
0.028200 1.902591 7.729618
0.027690 1.946222 8.229573
0.028627 1.872477 8.330045
0.027911 1.930493 8.515707
0.026736 2.027733 9.131738
0.028822 1.862881 9.267585
0.028609 1.883976 9.921949
0.032360 1.586409 9.981993
-0.067917 1.452920 0.716386
-0.076711 1.559975 1.020012
-0.102597 1.874612 1.427572
-0.102057 1.867899 1.270824
-0.094967 1.782126 1.577779
-0.096972 1.806875 1.995507
-0.097363 1.811688 2.065761
-0.099206 1.834350 2.365702
-0.100901 1.855162 2.608011
-0.095083 1.784834 2.917599
-0.098808 1.830456 3.332649
-0.103702 1.890321 3.804217
-0.106484 1.924338 4.045948
-0.108731 1.951791 4.230215
-0.103731 1.891345 4.487401
-0.098138 1.823636 4.688625
-0.095213 1.788489 5.063634
-0.091801 1.747385 5.382838
-0.095778 1.795902 5.625823
-0.113112 2.006817 6.132838
-0.122128 2.116714 6.600782
-0.122670 2.123723 7.035463
-0.109011 1.957671 6.788204
-0.113606 2.014036 7.397082
-0.099354 1.841142 7.520242
-0.106765 1.931763 8.191155
-0.111404 1.988262 8.375267
-0.105359 1.914968 8.475031
-0.108478 1.953263 8.918851
-0.104175 1.901179 9.077738
-0.103745 1.896543 9.671744
-0.167831 1.443041 0.611732
-0.197882 1.640112 0.563185
-0.216783 1.764545 1.437556
-0.217704 1.770654 1.564747
-0.221351 1.794793 1.979344
-0.222666 1.803486 2.106381
-0.226854 1.831144 2.463008
-0.226282 1.827365 2.417722
-0.233696 1.876274 2.945913
-0.233885 1.877517 2.957997
-0.232420 1.868312 3.726781
-0.228203 1.840542 3.509529
-0.238924 1.911135 4.037232
-0.228135 1.840482 4.235935
-0.227708 1.837998 4.837957
-0.234250 1.881035 5.079351
-0.223010 1.807390 5.224604
-0.238926 1.912059 5.752636
-0.241137 1.926599 5.821893
-0.258859 2.043108 6.347381
-0.257278 2.032719 6.302459
-0.249126 1.979356 6.508525
-0.247695 1.970168 6.887029
-0.227927 1.840673 7.178270
-0.225554 1.825278 7.503427
-0.233927 1.880486 8.059245
-0.235886 1.893542 8.444175
-0.261550 2.062148 8.969806
-0.236470 1.897548 8.785027
-0.219902 1.789047 9.089509
-0.225402 1.825490 9.799629
-0.180402 1.530376 9.856473
-0.281971 1.528335 0.697982
-0.349790 1.838150 1.282022
-0.348147 1.830569 1.068566
-0.328687 1.741825 1.317980
-0.337798 1.783703 2.081471
-0.338039 1.784808 2.097405
-0.318757 1.696838 2.235821
-0.321971 1.711578 2.424695
-0.328932 1.743493 2.786138
-0.347142 1.826907 3.548965
-0.347573 1.828880 3.564871
-0.354477 1.860490 3.810035
-0.342503 1.805943 4.126769
-0.339433 1.792133 4.675164
-0.342106 1.804361 4.748510
-0.325908 1.730473 4.896637
-0.317857 1.694040 5.757219
-0.344726 1.816740 5.867452
-0.382634 1.989917 6.204768
-0.379875 1.977464 6.585618
-0.377738 1.967692 6.544405
-0.372924 1.945840 6.869635
-0.368974 1.927929 7.196216
-0.352169 1.851385 7.665624
-0.363689 1.904045 7.853229
-0.354992 1.864425 8.069089
-0.361928 1.896252 8.515037
-0.362383 1.898453 8.847610
-0.359408 1.884974 9.121789
-0.345482 1.821559 9.544792
-0.353719 1.406633 0.388073
-0.383945 1.511144 0.924387
-0.438238 1.698537 0.703388
-0.474492 1.823960 1.576218
-0.448650 1.734773 1.711000
-0.449806 1.738786 1.783099
-0.424259 1.650622 1.919078
-0.433926 1.684133 2.394987
-0.442836 1.715001 2.755117
-0.458527 1.769329 3.287117
-0.453559 1.752131 3.129367
-0.479963 1.843510 3.889675
-0.448567 1.735088 3.803142
-0.430583 1.673069 4.061986
-0.448385 1.734651 4.479634
-0.462425 1.783215 4.781470
-0.444225 1.720436 4.985891
-0.405242 1.585935 5.325681
-0.462585 1.784067 5.838984
-0.526407 2.004585 6.402953
-0.509007 1.944432 6.132615
-0.505048 1.930871 6.512091
-0.510781 1.950806 7.007140
-0.501735 1.919651 7.275408
-0.484657 1.860837 7.799603
-0.513964 1.962127 8.155386
-0.503126 1.924765 8.369025
-0.513329 1.960120 8.811900
-0.440934 1.710122 8.657697
-0.479853 1.844706 9.391590
-0.454875 1.758480 9.437822
-0.416158 1.284563 0.352387
-0.486117 1.475399 0.656731
-0.522839 1.575606 0.959215
-0.524867 1.581178 1.147695
-0.527356 1.588008 1.336127
-0.532344 1.601680 1.639979
-0.547054 1.641942 2.289635
-0.544424 1.634749 2.189430
-0.574128 1.715964 3.125551
-0.570408 1.705795 3.025639
-0.573095 1.713140 3.098163
-0.566002 1.693949 3.757763
-0.592423 1.766120 4.289708
-0.565438 1.692568 4.435152
-0.532270 1.602132 4.466048
-0.574578 1.717662 5.172315
-0.534322 1.607871 5.090500
-0.512653 1.548832 5.297435
-0.583476 1.742074 5.811405
-0.630866 1.871337 5.975013
-0.658327 1.946397 6.752093
-0.606664 1.805477 6.560534
-0.668049 1.973024 7.258261
-0.630719 1.871228 7.240170
-0.592535 1.767188 7.592177
-0.618430 1.837942 8.205899
-0.637994 1.891332 8.390202
-0.650729 1.926160 8.832824
-0.632582 1.876713 8.991365
-0.575453 1.720963 9.125427
-0.620874 1.844976 9.802049
-0.554974 1.665358 10.148878
-0.423186 1.069711 0.334045
-0.545965 1.343508 0.348026
-0.628733 1.528126 0.593444
-0.635709 1.543810 1.244287
-0.634205 1.540437 1.143858
-0.642742 1.559566 1.621035
-0.658243 1.594249 2.213077
-0.658709 1.595291 2.228164
-0.630161 1.531701 2.597879
-0.632875 1.537766 2.670797
-0.655307 1.587895 3.205452
-0.638474 1.550451 3.694370
-0.642422 1.559271 3.767228
-0.605912 1.477871 3.853616
-0.661361 1.601693 4.735530
-0.658262 1.594774 4.690949
-0.663191 1.605778 4.761643
-0.641027 1.556509 5.561364
-0.666629 1.613658 5.862796
-0.738858 1.774793 6.198716
-0.761853 1.826118 6.440298
-0.728912 1.752678 6.533691
-0.749612 1.798958 7.143312
-0.763489 1.829929 7.270502
-0.744613 1.787877 7.481216
-0.733114 1.762287 7.750194
-0.722736 1.739197 8.020304
-0.706312 1.702612 8.234147
-0.743233 1.785066 8.850291
-0.721698 1.737074 9.009266
-0.702507 1.694372 9.488747
-0.635569 1.545129 9.626078
-0.573711 1.407278 10.089146
-0.542513 1.126226 0.264622
-0.639173 1.307457 0.758928
-0.736985 1.490813 1.058088
-0.741156 1.498672 1.303409
-0.747787 1.511151 1.606376
-0.754349 1.523490 1.851461
-0.772335 1.557285 2.384633
-0.721599 1.462188 2.291342
-0.736019 1.489272 2.652513
-0.752709 1.520612 3.012330
-0.738408 1.493913 3.614716
-0.765137 1.544075 4.032036
-0.711688 1.443893 3.943882
-0.791640 1.593806 4.404142
-0.754902 1.524982 4.548563
-0.778943 1.570086 4.850078
-0.692137 1.407424 4.956002
-0.704333 1.430393 5.625736
-0.832052 1.669803 5.943635
-0.845301 1.694653 6.071468
-0.838051 1.681131 6.450884
-0.879038 1.758002 6.807397
-0.803065 1.615654 6.984470
-0.892389 1.783172 7.684949
-0.880179 1.760336 7.954360
-0.844878 1.694196 8.053203
-0.826142 1.659120 8.267320
-0.887410 1.774009 8.681111
-0.808628 1.626390 8.813366
-0.775627 1.564613 9.235128
-0.761386 1.537964 9.453966
-0.729193 1.477748 10.146830
-0.725559 1.256349 0.440861
-0.782211 1.346917 0.861842
-0.837095 1.434620 0.990594
-0.839282 1.438134 1.121739
-0.853397 1.460771 1.711911
-0.800803 1.376751 1.730215
-0.824586 1.414843 2.379696
-0.835710 1.432652 2.623617
-0.848025 1.452363 2.867333
-0.875432 1.496219 3.341467
-0.823535 1.413312 3.365855
-0.847448 1.451569 3.725276
-0.816994 1.402964 4.040661
-0.845765 1.448982 4.400186
-0.856656 1.466401 4.528276
-0.842137 1.443270 4.961933
-0.831396 1.426176 5.397513
-0.902789 1.540330 6.044474
-0.923261 1.572992 5.748603
-0.919410 1.566904 6.184592
-0.941964 1.602964 6.369359
-0.921015 1.569536 6.634739
-0.924969 1.575919 7.073790
-0.856567 1.466686 7.367938
-0.849573 1.455560 7.695814
-0.886656 1.514841 7.939069
-0.902174 1.539699 8.383355
-0.942613 1.604340 8.625668
-0.873412 1.493823 8.872311
-0.950735 1.617463 9.607064
-0.842276 1.444193 9.629237
-0.739307 1.279743 9.975584
-0.808917 1.203359 0.283178
-0.870776 1.288731 0.761217
-0.938974 1.382851 1.293255
-0.942233 1.387363 1.422765
-0.959591 1.411371 1.956262
-0.953750 1.403296 1.797134
-0.989951 1.453330 2.618180
-0.935369 1.378069 2.699011
-0.949486 1.397571 2.944014
-0.950332 1.398739 2.957994
-0.985859 1.447804 3.490898
-0.959963 1.412151 3.921425
-0.912670 1.346952 4.065074
-0.923889 1.362441 4.194769
-0.979866 1.439716 4.785951
-0.979388 1.439132 5.336484
-0.892777 1.319729 5.620531
-0.951975 1.401365 5.614583
-0.989187 1.452723 5.916788
-1.051791 1.539120 6.390418
-1.053706 1.541763 6.404306
-1.056035 1.545035 6.843215
-1.035872 1.517266 7.111469
-0.933387 1.375952 7.233946
-1.019527 1.494814 7.766553
-1.035248 1.516555 8.210828
-1.033910 1.514755 8.541387
-1.046113 1.531635 8.930426
-1.038525 1.521209 9.205731
-0.977234 1.436728 9.515215
-1.010290 1.482374 9.966032
-0.798141 1.189796 9.850917
-0.958286 1.228645 0.885863
-1.041671 1.328642 1.648773
-1.038306 1.324598 1.547736
-1.044752 1.332344 1.735361
-1.016007 1.298001 2.508004
-0.940710 1.207763 2.298901
-0.990304 1.267284 3.125312
-1.003919 1.283619 3.313427
-0.964158 1.236021 3.629694
-1.024181 1.307926 3.573635
-0.981324 1.256613 3.832570
-1.037300 1.323750 4.425451
-1.056821 1.347161 4.613013
-1.014056 1.295950 4.817443
-0.936835 1.203490 5.273362
-0.990156 1.267425 5.693837
-1.086029 1.382317 5.918588
-1.074920 1.369055 6.300345
-1.138632 1.445439 6.717282
-1.140905 1.448164 6.731631
-1.108808 1.409736 6.942701
-1.137379 1.444035 7.499839
-1.119740 1.422935 7.771043
-1.125906 1.430371 8.158338
-1.067078 1.359895 8.200265
-1.065337 1.357851 8.531012
-1.127636 1.432567 9.150559
-1.095040 1.393535 9.310920
-1.041858 1.329863 9.678412
-1.033437 1.319843 10.222450
-1.037493 1.158275 0.743765
-1.040516 1.161454 0.932545
-1.060213 1.182109 1.643072
-1.058638 1.180459 1.599835
-1.065862 1.188027 1.788376
-1.076703 1.199379 2.034739
-1.036858 1.157823 2.578940
-1.013694 1.133704 3.242422
-1.070272 1.192781 3.072151
-1.103758 1.227805 3.491902
-1.073340 1.196084 3.924656
-1.086151 1.209480 4.055128
-1.124020 1.249076 4.416654
-1.118234 1.243096 4.967800
-1.096814 1.220766 5.347596
-0.994950 1.114401 5.633189
-1.174271 1.301733 5.896319
-1.151091 1.277504 5.738075
-1.146277 1.272525 6.177622
-1.185284 1.313297 6.422713
-1.228810 1.358838 7.091959
-1.228309 1.358358 7.475171
-1.197483 1.326184 7.687279
-1.191164 1.319622 8.015516
-1.241586 1.372316 8.258131
-1.178160 1.306073 8.300180
-1.268026 1.400022 9.032768
-1.273316 1.405586 9.364299
-1.202134 1.331271 9.673284
-1.032393 1.153965 9.579794
-0.927177 1.044120 10.043457
-1.116643 1.086394 0.876345
-1.126773 1.095662 1.297531
-1.127230 1.096080 1.312706
-1.142471 1.110001 1.733609
-1.153711 1.120261 1.980457
-1.099594 1.071031 2.350846
-1.070660 1.044761 3.014470
-1.058676 1.033834 2.855191
-1.117810 1.087746 3.567614
-1.141660 1.109486 3.814691
-1.137406 1.105609 3.771910
-1.101943 1.073363 4.149057
-1.123104 1.092649 4.338323
-1.181154 1.145550 4.816766
-1.037394 1.014675 4.866186
-1.037866 1.015164 5.421303
-1.236607 1.196135 5.742129
-1.293782 1.248226 6.100182
-1.242957 1.201971 6.249921
-1.305226 1.258699 6.607810
-1.299459 1.253490 6.989410
-1.263589 1.220856 7.199802
-1.300206 1.254253 7.756676
-1.306773 1.260273 8.142181
-1.264641 1.221932 8.298831
-1.263445 1.220879 8.629136
-1.279433 1.235477 9.018075
-1.184068 1.148648 8.946806
-1.148369 1.116199 9.428594
-1.134747 1.103856 9.972032
-1.187825 1.005755 0.812437
-1.199566 1.015094 1.291868
-1.212981 1.025747 1.655069
-1.221517 1.032521 1.844267
-1.146851 0.973444 1.923951
-1.111946 0.945896 2.645326
-1.117273 0.950119 2.719013
-1.171714 0.993266 3.374007
-1.167781 0.990149 3.331364
-1.234008 1.042623 3.984589
-1.210447 1.023956 3.766251
-1.172569 0.994020 4.141573
-1.209001 1.022881 4.444991
-1.296384 1.092095 5.094558
-1.178561 0.998887 5.376563
-1.207567 1.021859 5.563939
-1.382761 1.160552 6.133639
-1.318811 1.109957 6.226501
-1.341970 1.128296 6.355022
-1.420408 1.190408 6.770632
-1.440197 1.206118 7.267641
-1.379417 1.158031 7.364308
-1.343864 1.129918 7.576678
-1.348922 1.133960 7.962910
-1.358403 1.141502 8.350320
-1.314839 1.107045 8.508490
-1.345470 1.131330 8.955798
-1.429597 1.197964 9.576158
-1.318036 1.109703 9.771934
-1.141574 0.970062 9.737099
-1.360278 0.996708 6.059505
-1.416794 1.035526 6.361996
-1.480024 1.078994 7.090164
-1.508034 1.098231 7.219046
-1.339157 0.982325 7.226949
-1.367276 1.001672 7.729638
-1.432292 1.046356 8.348521
-1.435893 1.048828 8.362681
-1.357143 0.994814 8.725156
-1.344765 0.986345 9.001440
-1.434358 1.047897 9.624752
-1.352306 0.991611 9.937573
-1.160040 0.859673 10.171933
-1.225587 0.784787 10.202652
-1.189046 0.654235 0.840864
-1.372266 0.746165 1.024997
-1.397064 0.758664 1.677478
-1.392278 0.756254 1.576291
-1.352332 0.736289 2.409812
-1.273193 0.696600 2.549325
-1.283713 0.701889 2.680580
-1.305140 0.712661 2.928140
-1.328620 0.724462 3.175466
-1.042995 0.492998 0.655242
-1.327341 0.612183 1.014603
-1.352725 0.622876 1.669552
-1.353469 0.623189 1.684320
-1.289769 0.596538 2.171407
-1.290769 0.596959 2.186212
-1.327400 0.612350 2.667161
-1.344034 0.619337 2.856554
-1.398115 0.642046 3.394419
-1.447503 0.662778 3.815144
-1.487106 0.679400 4.119313
-1.529921 0.697367 4.422970
-1.566937 0.712900 4.668428
-1.451760 0.664623 4.526022
-1.365324 0.628457 5.155326
-1.318087 0.608686 5.421530
-1.498639 0.684384 5.880533
-1.548132 0.705146 6.126242
-1.575207 0.716503 6.256225
-1.602872 0.728107 6.386062
-1.633246 0.740883 6.942252
-1.645389 0.746009 7.384740
-1.604079 0.728717 7.598493
-1.657718 0.751243 8.157217
-1.573109 0.715791 8.199364
-1.521042 0.693986 8.357215
-1.503430 0.686630 8.631497
-1.563344 0.711808 9.458697
-1.549075 0.705825 9.414308
-1.172087 0.453864 0.827366
-1.462329 0.552774 1.067140
-1.376260 0.523471 1.317722
-1.386971 0.527141 1.565027
-1.417783 0.537684 2.102848
-1.324341 0.505849 2.124480
-1.386989 0.527259 2.896326
-1.377505 0.524019 2.794499
-1.458461 0.551667 3.564442
-1.488887 0.562054 3.810843
-1.483361 0.560168 3.767383
-1.414061 0.536573 3.969581
-1.546046 0.581617 4.853579
-1.587782 0.595858 5.099067
-1.445823 0.547514 5.382231
-1.377274 0.524170 5.532289
-1.529129 0.575934 5.816825
-1.603684 0.601366 6.177847
-1.631369 0.610810 6.306197
-1.659644 0.620454 6.434403
-1.677486 0.626575 6.931470
-1.631253 0.610841 7.142206
-1.631323 0.610897 7.526954
-1.605160 0.602005 7.797699
-1.697978 0.633687 8.472734
-1.716444 0.640011 8.860928
-1.594941 0.598607 8.789865
-1.581020 0.593887 9.065058
-1.461447 0.553168 9.315840
-1.394826 0.424320 0.875627
-1.517485 0.456996 1.583988
-1.505229 0.453714 1.309082
-1.531709 0.460800 1.845625
-1.439670 0.436331 1.924860
-1.381881 0.421009 2.471045
-1.431064 0.434132 3.009927
-1.432584 0.434537 3.024919
-1.478720 0.446841 3.446573
-1.494387 0.451018 3.577584
-1.518093 0.457338 3.766477
-1.479988 0.447240 4.201437
-1.553462 0.466818 4.680052
-1.499019 0.452362 4.941277
-1.341583 0.410514 5.163963
-1.490031 0.450054 5.932925
-1.517142 0.457234 5.577071
-1.677026 0.499814 6.340624
-1.692791 0.504012 6.410572
-1.818192 0.537403 6.939691
-1.713442 0.509545 6.919339
-1.572480 0.472080 7.154685
-1.760127 0.522038 7.858542
-1.753249 0.520235 8.186382
-1.698381 0.505658 8.342902
-1.679538 0.500669 8.615415
-1.683808 0.501858 9.266399
-1.674140 0.499310 9.541995
-1.456743 0.441496 9.504946
-1.287827 0.396610 9.909272
-1.521825 0.348601 0.999166
-1.436620 0.332057 1.366373
-1.359718 0.317133 1.794466
-1.387470 0.322566 2.217872
-1.392949 0.323637 2.291202
-1.450772 0.334938 2.946771
-1.464271 0.337574 3.078064
-1.526082 0.349641 3.614289
-1.520554 0.348562 3.569880
-1.575691 0.359321 3.989112
-1.540360 0.352484 4.423029
-1.628751 0.369721 4.957419
-1.587119 0.361649 5.278225
-1.354072 0.316303 5.096021
-1.455809 0.336136 5.634098
-1.614163 0.366961 5.917116
-1.629315 0.369914 5.988444
-1.735213 0.390551 6.463173
-1.792924 0.401797 6.706519
-1.816588 0.406440 7.203813
-1.615350 0.367297 7.210920
-1.648359 0.373758 7.712953
-1.750789 0.393711 8.072133
-1.583640 0.361209 8.200700
-1.708758 0.385606 8.937128
-1.619941 0.368333 8.982029
-1.588299 0.362196 9.200794
-1.505438 0.346109 9.569365
-1.398470 0.325349 10.150309
-1.344882 0.218694 1.041548
-1.463019 0.233374 1.519574
-1.469715 0.234214 1.651375
-1.400635 0.225692 2.139059
-1.389556 0.224306 1.976599
-1.406703 0.226451 2.222427
-1.426093 0.228874 2.468086
-1.488593 0.236672 3.120753
-1.502809 0.238444 3.249457
-1.545993 0.243825 3.610211
-1.627505 0.253975 4.201770
-1.638069 0.255290 4.271998
-1.648818 0.256628 4.342198
-1.599174 0.250500 4.659704
-1.445346 0.231458 4.938296
-1.436104 0.230352 5.434953
-1.570315 0.246999 5.602198
-1.831880 0.279476 6.342918
-1.806300 0.276332 6.665476
-1.851802 0.281986 6.849933
-1.730057 0.266891 6.771633
-1.801246 0.275768 7.441970
-1.693258 0.262382 7.423150
-1.648471 0.256849 7.635352
-1.672415 0.259852 8.079719
-1.758257 0.270540 8.697934
-1.686248 0.261624 8.798654
-1.633441 0.255092 8.957646
-1.639899 0.255919 9.290921
-1.567563 0.247010 9.982446
-1.453807 0.132621 0.949098
-1.568333 0.139029 1.365251
-1.500791 0.135317 1.964142
-1.402011 0.129820 1.983664
-1.447912 0.132422 2.579584
-1.470743 0.133713 2.825415
-1.472010 0.133784 2.838371
-1.529991 0.137055 3.374461
-1.575191 0.139600 3.735460
-1.625280 0.142417 4.095811
-1.581658 0.140018 4.471251
-1.574499 0.139616 4.426199
-1.654095 0.144085 4.902122
-1.480600 0.134440 5.066280
-1.439430 0.132174 5.388763
-1.696805 0.146561 6.135032
-1.765805 0.150426 6.435977
-1.810089 0.152906 6.621275
-1.841388 0.154658 6.748891
-1.791133 0.151877 6.958423
-1.661223 0.144669 7.252229
-1.745188 0.149397 7.926472
-1.834565 0.154396 8.226748
-1.778259 0.151274 8.383805
-1.777801 0.151275 8.714338
-1.800746 0.152584 9.103429
-1.596412 0.141211 9.122328
-1.565118 0.139486 9.341212
-1.674269 0.029799 1.365459
-1.606821 0.030727 1.965302
-1.593525 0.030884 1.749678
-1.616958 0.030607 2.113208
-1.640509 0.030324 2.418556
-1.552150 0.031488 2.558994
-1.481337 0.032438 2.874964
-1.520190 0.031960 3.239926
-1.610607 0.030836 3.952024
-1.588911 0.031107 3.794320
-1.532878 0.031864 4.114355
-1.579472 0.031280 4.420538
-1.629587 0.030650 4.726164
-1.431546 0.033282 5.318196
-1.445855 0.033101 5.392632
-1.802000 0.028511 6.120167
-1.858198 0.027797 6.365774
-1.737838 0.029362 6.289317
-1.880532 0.027547 6.879936
-1.802335 0.028575 6.977959
-1.751819 0.029281 7.563406
-1.758890 0.029220 7.952340
-1.713431 0.029800 7.795446
-1.812356 0.028563 8.473407
-1.776834 0.029044 8.692091
-1.743915 0.029517 9.228827
-1.653828 0.030696 9.274439
-1.509274 0.032598 9.468856
-1.462941 0.033263 10.224033
-1.553718 -0.075134 0.770736
-1.663298 -0.084055 1.130542
-1.581444 -0.077335 1.555009
-1.609724 -0.079607 2.033608
-1.519564 -0.072232 2.171842
-1.439468 -0.065669 2.427573
-1.582611 -0.077323 2.898567
-1.503186 -0.070820 3.098274
-1.551964 -0.074771 3.520022
-1.607394 -0.079264 3.940942
-1.678530 -0.085036 4.418684
-1.601140 -0.078704 4.565392
-1.613162 -0.079680 4.638449
-1.655248 -0.083098 4.884964
-1.471926 -0.068116 4.993095
-1.523111 -0.072233 5.783259
-1.711506 -0.087589 6.182353
-1.825128 -0.096865 6.232830
-1.828554 -0.097144 6.247859
-1.816232 -0.096107 6.630476
-1.712942 -0.087638 7.039531
-1.711661 -0.087502 7.424727
-1.766049 -0.091900 7.984046
-1.708607 -0.087196 8.141252
-1.836488 -0.097607 8.557533
-1.764031 -0.091681 8.658821
-1.634606 -0.081090 8.907049
-1.621293 -0.079981 9.183615
-1.536930 -0.073061 9.552131
-1.427957 -0.064114 10.133005
-1.247448 -0.129093 0.688013
-1.662329 -0.189315 1.331163
-1.665425 -0.189759 1.403363
-1.591979 -0.179050 1.885898
-1.589316 -0.178666 1.842457
-1.636634 -0.185488 2.493550
-1.642868 -0.186388 2.565816
-1.556048 -0.173764 2.705158
-1.499864 -0.165567 3.136192
-1.520989 -0.168621 3.325012
-1.557911 -0.173960 3.629694
-1.614571 -0.182158 4.049703
-1.518704 -0.168228 4.078513
-1.640076 -0.185799 4.846352
-1.613080 -0.181890 4.687286
-1.677680 -0.191202 5.587074
-1.526861 -0.169312 5.331436
-1.609787 -0.181326 5.749920
-1.783044 -0.206469 6.087605
-1.891348 -0.222165 6.559192
-1.784459 -0.206639 6.537761
-1.834617 -0.213876 7.149134
-1.631489 -0.184366 7.154911
-1.695839 -0.193665 7.771562
-1.816773 -0.211200 8.187055
-1.778267 -0.205589 8.401328
-1.777964 -0.205518 8.731637
-1.726485 -0.198001 9.210148
-1.736158 -0.199380 9.543571
-1.615434 -0.181821 9.796659
-1.475784 -0.161517 9.993766
-1.629053 -0.312534 0.910001
-1.441388 -0.270417 1.162881
-1.553825 -0.295609 1.521953
-1.597052 -0.305248 2.231673
-1.585755 -0.302727 2.072732
-1.608180 -0.307732 2.376759
-1.558865 -0.296625 2.921658
-1.493831 -0.282011 3.237202
-1.529285 -0.289939 3.542233
-1.531085 -0.290342 3.556963
-1.627398 -0.311889 4.266580
-1.655834 -0.318252 4.452968
-1.543637 -0.293092 4.365959
-1.582044 -0.301687 4.610859
-1.632581 -0.312999 4.913183
-1.668328 -0.320958 5.638028
-1.634927 -0.313440 5.960460
-1.662442 -0.319601 6.089045
-1.905151 -0.373994 6.711177
-1.841623 -0.359731 6.862921
-1.736083 -0.336059 6.842926
-1.823632 -0.355638 7.571118
-1.749018 -0.338893 7.668630
-1.658727 -0.318635 7.708894
-1.650150 -0.316685 8.038448
-1.645561 -0.315628 8.369173
-1.626993 -0.311441 8.643239
-1.537102 -0.291247 9.007543
-1.583357 -0.301586 9.458453
-1.604457 -0.422811 0.927836
-1.516038 -0.396523 1.176794
-1.635438 -0.431950 1.707176
-1.649735 -0.436177 1.952206
-1.551373 -0.406959 1.915082
-1.614167 -0.425545 2.739183
-1.626221 -0.429115 2.868010
-1.532122 -0.401159 2.891322
-1.461558 -0.380174 3.147317
-1.481971 -0.386223 3.334993
-1.586967 -0.417347 4.159756
-1.588870 -0.417911 4.173084
-1.512871 -0.395321 4.317253
-1.626739 -0.429090 5.025103
-1.702557 -0.451579 5.441996
-1.611052 -0.424392 5.474724
-1.425554 -0.369280 5.527060
-1.545468 -0.404855 6.121111
-1.785523 -0.476154 6.320730
-1.707992 -0.453113 6.414170
-1.698026 -0.450121 6.796377
-1.650237 -0.435906 7.007085
-1.756450 -0.467394 7.795057
-1.716322 -0.455455 8.008773
-1.661154 -0.439053 8.165808
-1.623863 -0.427957 8.381356
-1.605812 -0.422572 8.655656
-1.645661 -0.434372 9.104285
-1.505966 -0.392856 9.297484
-1.673010 -0.568737 1.175898
-1.503056 -0.505327 1.601872
-1.591810 -0.538431 1.494052
-1.600820 -0.541775 1.680118
-1.514218 -0.509471 1.814399
-1.562908 -0.527567 2.521781
-1.578688 -0.533435 2.708039
-1.519469 -0.511322 3.078034
-1.439640 -0.481543 3.217912
-1.466580 -0.491568 3.463124
-1.488564 -0.499749 3.650082
-1.550232 -0.522704 4.126318
-1.545675 -0.520953 4.733396
-1.576025 -0.532254 4.919729
-1.607602 -0.544013 5.105830
-1.661376 -0.564039 5.406909
-1.592892 -0.538449 6.037176
-1.457137 -0.487844 5.839518
-1.598199 -0.540426 6.062888
-1.700403 -0.578495 6.536638
-1.776496 -0.606808 7.262939
-1.660495 -0.563559 7.186531
-1.722184 -0.586510 7.801116
-1.589398 -0.537007 7.668521
-1.645178 -0.557759 8.228631
-1.609078 -0.544280 8.443820
-1.626887 -0.550887 8.833126
-1.668513 -0.566371 9.281017
-1.514175 -0.508809 9.416828
-1.617536 -0.676448 0.652775
-1.444731 -0.598094 1.077109
-1.544037 -0.643079 1.319881
-1.549267 -0.645438 1.450288
-1.489528 -0.618311 2.049213
-1.510236 -0.627670 2.353486
-1.515661 -0.630122 2.426237
-1.454697 -0.602460 2.797576
-1.392676 -0.574324 3.113033
-1.418206 -0.585873 3.360398
-1.480931 -0.614254 3.897284
-1.545204 -0.643341 4.374917
-1.449103 -0.599790 4.347384
-1.520767 -0.632227 4.825575
-1.560780 -0.650340 5.071560
-1.582842 -0.660327 5.201832
-1.690423 -0.709033 5.792119
-1.596203 -0.666291 6.252622
-1.522633 -0.632939 6.347627
-1.651507 -0.691332 6.512605
-1.725368 -0.724743 7.240995
-1.585768 -0.661491 7.051244
-1.643390 -0.687553 7.668181
-1.604744 -0.670019 7.883268
-1.583390 -0.660317 8.157022
-1.580976 -0.659194 8.489568
-1.599508 -0.667559 8.880867
-1.587547 -0.662114 9.157910
-1.577561 -0.657564 9.433914
-1.503522 -0.738351 1.376966
-1.497813 -0.735340 1.218335
-1.517503 -0.745732 1.695000
-1.436002 -0.702528 1.831143
-1.457619 -0.713951 2.193244
-1.479151 -0.725335 2.497164
-1.498840 -0.735747 2.743019
-1.460854 -0.715567 3.288565
-1.380616 -0.673037 3.372873
-1.420824 -0.694312 3.735686
-1.457981 -0.713976 4.039983
-1.522571 -0.748163 4.517005
-1.463005 -0.716578 4.721418
-1.578842 -0.777951 4.892139
-1.647102 -0.814088 5.309168
-1.731855 -0.858961 5.782131
-1.529737 -0.751858 5.665301
-1.506649 -0.739549 6.473577
-1.497685 -0.734802 6.430481
-1.562128 -0.768927 6.733605
-1.584165 -0.780561 7.233760
-1.585823 -0.781405 7.620080
-1.577105 -0.776755 7.948516
-1.603279 -0.790586 8.393241
-1.586717 -0.781784 8.666465
-1.506272 -0.739148 8.710042
-1.509515 -0.740836 9.042955
-1.450708 -0.709633 9.467499
-1.287907 -0.623348 9.546523
-1.069963 -0.507803 10.045548
-1.259862 -0.719553 0.447459
-1.526386 -0.884546 1.092928
-1.438737 -0.830276 0.995334
-1.476295 -0.853447 1.933952
-1.386045 -0.797565 1.839289
-1.418454 -0.817586 2.374952
-1.455114 -0.840244 2.851995
-1.456357 -0.841013 2.866657
-1.410346 -0.812478 3.296702
-1.363836 -0.783640 3.671147
-1.392047 -0.801087 3.917644
-1.471181 -0.850099 3.860798
-1.318348 -0.755437 4.019062
-1.380192 -0.793692 4.497960
-1.683155 -0.981283 4.808158
-1.720323 -1.004278 5.051121
-1.724515 -1.006823 5.598337
-1.727518 -1.008636 6.090282
-1.542619 -0.894136 6.033689
-1.363541 -0.783196 6.459881
-1.306910 -0.748111 6.612238
-1.452799 -0.838432 6.891191
-1.571535 -0.911913 7.422673
-1.397148 -0.803918 7.430669
-1.496612 -0.865475 7.848149
-1.475915 -0.852633 8.120070
-1.406994 -0.809912 8.538412
-1.473335 -0.850942 9.102482
-1.363585 -0.782983 9.031555
-1.411540 -0.812608 9.805248
-1.255691 -0.716086 9.886427
-1.123003 -0.756728 0.694952
-1.454582 -0.998986 1.105745
-1.475942 -1.014537 1.695950
-1.390932 -0.952426 1.600963
-1.396689 -0.956620 1.731302
-1.331552 -0.908991 2.041524
-1.361542 -0.930859 2.519297
-1.294899 -0.882140 2.716938
-1.239154 -0.841374 3.032187
-1.261183 -0.857447 3.279636
-1.539938 -1.061041 4.336298
-1.659086 -1.148080 4.620862
-1.743561 -1.209752 5.202304
-1.684059 -1.166257 5.347509
-1.606820 -1.109812 5.379287
-1.588835 -1.096585 6.234025
-1.381567 -0.945149 6.002885
-1.278767 -0.869994 6.348844
-1.382649 -0.945853 6.882618
-1.397031 -0.956355 6.952987
-1.432870 -0.982489 7.510299
-1.357864 -0.927675 7.549555
-1.431859 -0.981680 8.225029
-1.492258 -1.025792 8.467796
-1.326756 -0.904851 8.482330
-1.419980 -0.972907 9.161514
-1.334862 -0.910677 9.470212
-1.311793 -0.893798 9.689890
-1.114812 -0.749806 10.188806
-0.988434 -0.765401 0.290068
-1.296284 -1.024754 0.593444
-1.381183 -1.096238 1.067969
-1.231799 -0.970357 1.205791
-1.330143 -1.053158 1.794880
-1.339245 -1.060808 1.983304
-1.343049 -1.064005 2.056306
-1.295497 -1.023889 2.541428
-1.259514 -0.993513 3.087309
-1.204858 -0.947435 3.345882
-1.206247 -0.948604 3.361306
-1.299681 -1.027310 3.537514
-1.266639 -0.999425 3.970117
-1.300831 -1.028202 4.273804
-1.691965 -1.357693 4.909227
-1.753722 -1.409740 4.792617
-1.736437 -1.395131 5.220623
-1.663446 -1.333628 5.253754
-1.605047 -1.284358 5.876623
-1.448467 -1.152429 5.875969
-1.391019 -1.103965 6.451486
-1.170381 -0.918053 6.535010
-1.272007 -1.003624 7.071745
-1.360365 -1.078068 7.118798
-1.336352 -1.057807 7.389576
-1.430106 -1.136719 8.179877
-1.414432 -1.123484 8.453429
-1.244382 -0.980209 8.411724
-1.361571 -1.078866 9.208347
-1.233408 -0.970899 9.023401
-1.270245 -1.001890 9.475639
-1.158008 -1.036752 0.707275
-1.310440 -1.182578 1.122160
-1.237214 -1.112507 1.083368
-1.247553 -1.122361 1.445551
-1.182219 -1.059818 1.639677
-1.230576 -1.105991 2.578687
-1.217172 -1.093188 2.360265
-1.160285 -1.038721 2.613389
-1.136631 -1.016012 3.275098
-1.152634 -1.031306 3.462217
-1.484689 -1.348948 4.551364
-1.621999 -1.480356 4.474668
-1.644083 -1.501470 4.657034
-1.704623 -1.559352 5.121331
-1.596339 -1.455699 5.398241
-1.498820 -1.362340 5.735332
-1.442086 -1.307986 6.305058
-1.284302 -1.156999 6.247894
-1.114384 -0.994361 6.560455
-1.265812 -1.139180 7.384392
-1.234791 -1.109512 7.224014
-1.283009 -1.155586 7.840719
-1.372153 -1.240848 8.256114
-1.293202 -1.165297 8.240560
-1.318107 -1.189081 8.686247
-1.265950 -1.139122 9.107215
-1.257655 -1.131154 9.383198
-1.213423 -1.088779 9.809542
-0.982589 -0.867881 9.807558
-1.223908 -1.269936 1.079212
-1.155726 -1.194920 1.037547
-1.176757 -1.217977 1.743477
-1.175043 -1.216096 1.698608
-1.120440 -1.155979 2.006694
-1.144892 -1.182828 2.482483
-1.089071 -1.121383 2.677970
-1.038161 -1.065336 2.932911
-1.126959 -1.163007 3.225267
-1.161044 -1.200462 3.642926
-1.156306 -1.195171 4.305408
-1.357037 -1.416044 4.272401
-1.594635 -1.677441 4.577649
-1.542794 -1.620382 4.719983
-1.629720 -1.715948 5.409269
-1.476858 -1.547764 5.291221
-1.417568 -1.482459 5.855718
-1.330762 -1.386904 6.197151
-1.303985 -1.357312 7.281297
-1.143346 -1.180527 7.545715
-1.211894 -1.255909 7.904873
-1.138544 -1.175203 7.887863
-1.210216 -1.254022 8.247086
-1.208776 -1.252399 8.577613
-1.120792 -1.155559 8.824762
-1.231831 -1.277644 9.620257
-1.122181 -1.156976 9.758222
-0.963965 -0.982861 9.989630
-1.005008 -1.185416 0.696849
-1.137184 -1.352185 1.169377
-1.136263 -1.351027 1.127331
-1.089030 -1.291342 1.666137
-1.095865 -1.299944 1.854842
-1.046705 -1.237856 2.166115
-1.064796 -1.260644 2.528782
-1.020585 -1.204801 2.843095
-0.986822 -1.162132 3.275552
-1.262697 -1.510200 4.318816
-1.476762 -1.780355 4.569723
-1.472475 -1.774950 4.528543
-1.430800 -1.722323 4.729920
-1.504549 -1.815326 5.365536
-1.452600 -1.749745 5.456786
-1.324233 -1.587662 5.930648
-1.144360 -1.360621 6.010318
-1.134995 -1.348645 7.221168
-1.017530 -1.200376 7.288085
-1.130460 -1.342830 7.939294
-1.127272 -1.338763 8.271388
-1.070829 -1.267516 8.316137
-1.152448 -1.370439 9.054025
-1.048789 -1.239627 8.867725
-1.055535 -1.248058 9.523559
-0.953977 -1.119857 9.661199
-0.802154 -0.928165 10.161279
-1.038543 -1.423743 1.033788
-1.043455 -1.430874 1.277966
-1.006227 -1.376474 1.931022
-1.000668 -1.368386 1.771885
-0.960039 -1.309057 2.197087
-0.988795 -1.350923 2.789277
-0.921058 -1.252136 2.580980
-0.898481 -1.219116 3.185681
-1.118871 -1.540525 3.882518
-1.336302 -1.857641 4.419927
-1.332394 -1.851945 4.377165
-1.327158 -1.844231 4.915726
-1.377289 -1.917298 5.380262
-1.329844 -1.848072 5.470017
-1.220014 -1.687777 5.999311
-1.111360 -1.529262 6.056476
-1.005999 -1.375428 6.996268
-0.950332 -1.294162 7.407371
-0.997698 -1.363218 7.709796
-0.973635 -1.328084 7.924008
-0.990197 -1.352183 8.370527
-0.979502 -1.336541 8.644819
-0.992012 -1.354735 9.035737
-0.898263 -1.217956 9.170467
-0.838776 -1.131131 9.481372
-0.722927 -0.962041 10.097696
-0.733272 -1.142897 0.872602
-0.940901 -1.495254 1.165330
-0.947300 -1.506068 1.467671
-0.912201 -1.446410 2.006513
-0.901866 -1.428921 1.674932
-0.862573 -1.362173 2.042654
-0.892164 -1.412285 2.751369
-0.836810 -1.318349 2.659617
-0.820902 -1.291244 3.323197
-1.012452 -1.616266 3.905554
-1.212677 -1.956008 4.499689
-1.204490 -1.942128 4.401193
-1.221534 -1.970936 5.166025
-1.268898 -2.051253 5.630339
-1.177171 -1.895550 5.742403
-1.067019 -1.708601 5.682779
-1.033309 -1.651288 6.309524
-0.942874 -1.497649 7.247699
-0.813380 -1.277830 7.454164
-0.890034 -1.407848 7.988582
-0.883362 -1.396532 7.943656
-0.871468 -1.376301 8.216296
-0.917113 -1.453677 8.836730
-0.861425 -1.359160 8.822727
-0.825831 -1.298682 9.246475
-0.825323 -1.297726 9.848083
-0.702966 -1.089974 10.349637
-0.604507 -1.094588 0.362279
-0.744561 -1.374790 1.071672
-0.829592 -1.545057 0.676845
-0.790548 -1.466822 1.155594
-0.800028 -1.485712 1.632311
-0.813343 -1.512278 2.108570
-0.810207 -1.506018 2.007864
-0.779822 -1.445125 2.434369
-0.749969 -1.385305 2.805503
-0.778828 -1.442964 3.399294
-0.919142 -1.723666 4.221062
-1.048816 -1.983234 4.133607
-1.077857 -2.041290 4.541537
-1.034738 -1.954978 4.570851
-1.032342 -1.950087 5.110564
-0.994341 -1.874009 5.198755
-0.943378 -1.771923 5.649143
-0.890179 -1.665370 6.047076
-0.827630 -1.540121 6.334100
-0.771322 -1.427285 7.079883
-0.742165 -1.368831 7.608394
-0.760535 -1.405508 8.112947
-0.809572 -1.503596 8.472894
-0.744719 -1.373811 8.341965
-0.752588 -1.389492 8.732883
-0.798217 -1.480710 9.356136
-0.715762 -1.315657 9.434567
-0.736501 -1.357039 10.154476
-0.527895 -1.133126 0.247887
-0.644074 -1.411947 0.552239
-0.723675 -1.602955 0.909647
-0.688157 -1.517643 1.157851
-0.690983 -1.524388 1.345604
-0.700456 -1.547028 1.821931
-0.703611 -1.554576 1.951755
-0.688877 -1.519047 2.724740
-0.655472 -1.438829 2.864605
-0.662897 -1.456614 3.051563
-0.773191 -1.721227 3.758117
-0.930541 -2.098793 4.465762
-0.920833 -2.075522 4.309252
-0.916683 -2.065448 4.846904
-0.879714 -1.976699 4.877341
-0.825264 -1.845924 5.210863
-0.809779 -1.808589 6.005792
-0.763660 -1.697899 5.925714
-0.699369 -1.543535 6.096711
-0.657238 -1.442145 7.330203
-0.602601 -1.310941 7.570090
-0.635519 -1.389896 7.874136
-0.710719 -1.570277 8.523806
-0.689731 -1.519864 8.682515
-0.647604 -1.418741 8.668099
-0.663661 -1.457193 9.118030
-0.651641 -1.428294 9.337135
-0.632447 -1.382063 10.089600
-0.482275 -1.265031 0.676227
-0.548589 -1.461042 0.978319
-0.612256 -1.649316 0.930339
-0.618622 -1.668006 1.463626
-0.589652 -1.582298 1.654186
-0.595454 -1.599380 1.955361
-0.563756 -1.505643 1.974576
-0.573693 -1.534922 2.392349
-0.557575 -1.487129 2.935240
-0.664093 -1.801834 3.997895
-0.787997 -2.168081 4.532287
-0.748126 -2.050219 4.391261
-0.738176 -2.020436 5.844804
-0.661392 -1.793312 6.149980
-0.595646 -1.598904 6.149005
-0.555489 -1.480076 6.495662
-0.431759 -1.114184 6.600474
-0.381598 -0.965706 7.216232
-0.433555 -1.119287 7.439591
-0.516957 -1.365854 7.633798
-0.566490 -1.512188 8.169047
-0.542634 -1.441623 8.268523
-0.530368 -1.405298 8.484803
-0.530602 -1.405908 8.818368
-0.576894 -1.542608 9.558801
-0.558160 -1.487104 9.986520
-0.418792 -1.075005 9.960932
-0.419482 -1.393216 0.742094
-0.472276 -1.594016 1.041384
-0.500523 -1.701406 1.340233
-0.478084 -1.615942 1.589687
-0.488697 -1.656125 2.238523
-0.472369 -1.593860 2.665154
-0.474089 -1.600381 2.737152
-0.447736 -1.500116 2.702892
-0.525758 -1.796709 3.645954
-0.588581 -2.035660 3.975153
-0.639093 -2.227675 4.595922
-0.627266 -2.182573 4.909110
-0.554486 -1.905432 5.537478
-0.495872 -1.682283 5.899693
-0.459960 -1.545536 6.187845
-0.400965 -1.320688 7.338575
-0.348851 -1.122382 7.345613
-0.428476 -1.425138 8.093739
-0.425191 -1.412649 8.049876
-0.452965 -1.518223 8.412629
-0.419431 -1.390540 8.660846
-0.439614 -1.467264 8.907793
-0.451364 -1.511836 9.360010
-0.446524 -1.493248 9.904985
-0.322906 -1.022816 10.030417
-0.353065 -1.519602 0.958378
-0.393406 -1.723533 1.198381
-0.393105 -1.722030 1.156112
-0.376177 -1.636286 1.463824
-0.378040 -1.645634 1.652381
-0.371882 -1.614099 2.599233
-0.371146 -1.610394 2.556784
-0.354147 -1.524361 2.697002
-0.416705 -1.840327 3.758117
-0.461724 -2.067930 3.973822
-0.502182 -2.272273 4.652048
-0.476187 -2.140877 4.457636
-0.410250 -1.807005 5.389645
-0.367527 -1.590755 5.810498
-0.361416 -1.559713 6.136497
-0.348023 -1.491736 6.719360
-0.292241 -1.209571 6.806111
-0.219364 -0.840753 7.358313
-0.238813 -0.938966 7.730560
-0.305309 -1.275239 7.842067
-0.334606 -1.423350 8.005082
-0.369627 -1.600231 8.598523
-0.348387 -1.492810 8.583759
-0.348809 -1.494806 8.917774
-0.365543 -1.579209 9.484683
-0.354014 -1.520724 9.912689
-0.296150 -1.228043 9.970082
-0.245645 -1.533297 0.620466
-0.271513 -1.737932 0.919993
-0.273046 -1.749837 1.279989
-0.263084 -1.670692 1.702892
-0.267552 -1.705731 2.236721
-0.253587 -1.595249 2.085395
-0.242852 -1.510131 2.281433
-0.246715 -1.540486 2.644435
-0.287826 -1.865291 3.761474
-0.315882 -2.087337 3.919685
-0.344279 -2.311680 4.710353
-0.326241 -2.169015 4.458963
-0.332566 -2.218905 4.756194
-0.321558 -2.131357 5.373432
-0.277152 -1.779583 5.638398
-0.267136 -1.699911 6.213439
-0.258675 -1.632817 6.365918
-0.224210 -1.359840 6.506962
-0.200898 -1.174681 7.407433
-0.199359 -1.162282 7.741674
-0.243067 -1.508050 8.225880
-0.250243 -1.564750 8.413535
-0.247951 -1.546432 8.688944
-0.241256 -1.493317 8.849247
-0.246914 -1.537828 9.300884
-0.231387 -1.414732 9.554265
-0.217725 -1.306182 10.136701
-0.143077 -1.643958 0.363103
-0.143089 -1.644129 0.392010
-0.154423 -1.847487 0.691922
-0.143647 -1.653363 0.941155
-0.144957 -1.676068 1.533300
-0.145526 -1.686027 1.720930
-0.147549 -1.721638 2.254510
-0.142869 -1.637208 2.450182
-0.140187 -1.588217 2.994992
-0.144486 -1.665827 2.768067
-0.162150 -1.982011 3.764387
-0.175509 -2.221817 4.034672
-0.180651 -2.313445 4.613312
-0.170386 -2.128730 4.717806
-0.160811 -1.954850 5.913878
-0.139976 -1.580019 6.069508
-0.124596 -1.303284 6.205410
-0.115394 -1.136375 7.218870
-0.113796 -1.106703 7.873665
-0.121215 -1.239947 7.976750
-0.131556 -1.425477 8.253766
-0.139831 -1.573579 8.731524
-0.135817 -1.501263 8.832901
-0.137212 -1.525795 9.225609
-0.137789 -1.535678 9.561202
-0.132205 -1.434839 9.873682
-0.031910 -1.568278 1.219383
-0.030647 -1.668746 1.230070
-0.030110 -1.716988 2.110372
-0.030234 -1.706125 1.951755
-0.030842 -1.662265 2.666960
-0.030889 -1.658297 2.623617
-0.031797 -1.588087 2.937051
-0.028191 -1.879584 3.704842
-0.022780 -2.315265 4.583153
-0.023419 -2.262469 4.258078
-0.025552 -2.094267 4.473081
-0.026445 -2.031445 5.764494
-0.031338 -1.643123 5.861333
-0.034055 -1.429815 6.287982
-0.043257 -0.706201 7.529219
-0.038567 -1.080483 7.761847
-0.036275 -1.264439 8.042760
-0.033729 -1.469002 8.378684
-0.032121 -1.601490 9.119840
-0.033259 -1.511329 9.165473
-0.033663 -1.480622 9.385945
0.073758 -1.562022 1.080961
0.090875 -1.775342 1.434410
0.089848 -1.762234 1.103722
0.084721 -1.699209 1.872423
0.084502 -1.696440 1.827342
0.077450 -1.608890 2.019812
0.073585 -1.561461 2.677970
0.074110 -1.568069 2.748653
0.103818 -1.939063 4.144471
0.126407 -2.219967 3.999324
0.130678 -2.273452 4.350709
0.130641 -2.273587 4.944392
0.100715 -1.901953 5.645770
