0.094384 2.130574 1.322763
0.083703 2.023837 1.163403
0.086711 2.054271 1.741323
0.087896 2.066228 1.919542
0.083175 2.019550 2.562730
0.071748 1.905381 2.407326
0.073936 1.927390 2.643877
0.082309 2.011495 3.395056
0.083126 2.019699 3.459325
0.092055 2.109270 4.093709
0.078906 1.977870 3.887407
0.104795 2.236554 4.262654
0.120408 2.392642 4.591942
0.126640 2.455087 4.936371
0.124699 2.436011 5.356042
0.111676 2.305918 5.213839
0.115113 2.340678 5.862592
0.089959 2.089757 6.106347
0.083086 2.021557 6.673855
0.083265 2.023351 6.680994
0.096869 2.159501 7.200785
0.089008 2.081097 7.291332
0.092586 2.117164 7.781527
0.081560 2.007089 7.759897
0.079009 1.981809 8.024349
0.091377 2.105772 8.746170
0.085946 2.051663 8.898604
0.092521 2.117648 9.393938
0.071949 1.912309 9.410658
0.042945 1.623050 9.783741
-0.065091 1.704278 0.410676
-0.058148 1.927840 1.234538
-0.054486 2.045589 1.580414
-0.054370 2.049418 1.645275
-0.053660 2.072868 1.995259
-0.055611 2.011645 2.467887
-0.057852 1.940745 2.771475
-0.056670 1.979275 3.122813
-0.056009 2.000784 3.302189
-0.053296 2.088865 3.950009
-0.044284 2.377893 4.491622
-0.041406 2.470940 5.004365
-0.041699 2.461485 4.954798
-0.039961 2.517618 5.241851
-0.041919 2.455534 5.436812
-0.046512 2.309455 5.710437
-0.051415 2.153384 5.930303
-0.059312 1.901753 6.175170
-0.061402 1.836287 6.752901
-0.056624 1.990176 7.333177
-0.057575 1.960383 7.595898
-0.053846 2.080372 8.002435
-0.053468 2.093294 8.380664
-0.053507 2.092780 8.703016
-0.060558 1.867500 8.657716
-0.058661 1.929202 9.155390
-0.058756 1.927469 9.745263
-0.068818 1.606161 9.739784
-0.183482 1.793721 0.077316
-0.183884 1.803452 0.785027
-0.190852 1.996298 0.444973
-0.188368 1.925990 1.372226
-0.188493 1.929327 1.437812
-0.185797 1.854146 1.853774
-0.185818 1.854710 1.862079
-0.187531 1.900833 2.444524
-0.187368 1.896446 2.395449
-0.185224 1.836495 2.815410
-0.185942 1.855950 2.996162
-0.192808 2.043986 3.695690
-0.207733 2.454335 4.394257
-0.210317 2.524845 4.794907
-0.207969 2.459700 4.989672
-0.206866 2.429559 4.829266
-0.207406 2.443318 5.418600
-0.203965 2.347450 5.919434
-0.193438 2.056913 5.993919
-0.190756 1.981095 6.946584
-0.187809 1.898909 7.408078
-0.191484 1.999598 7.759897
-0.190584 1.974273 8.024572
-0.185939 1.846287 7.946124
-0.188401 1.913141 8.499817
-0.191286 1.991628 9.053957
-0.183098 1.765866 9.011032
-0.182211 1.740350 9.545744
-0.175168 1.545427 9.887372
-0.295519 1.576279 0.164888
-0.295523 1.576309 0.173049
-0.307089 1.679443 0.527646
-0.331207 1.894593 1.105775
-0.332385 1.904973 1.343124
-0.321645 1.808957 1.413587
-0.323133 1.822104 1.651701
-0.325314 1.841400 1.947141
-0.316779 1.764946 2.250581
-0.321576 1.807513 2.718356
-0.322982 1.820005 2.840566
-0.319631 1.789226 4.153848
-0.347920 2.041818 4.472809
-0.394057 2.454069 4.525591
-0.400961 2.515542 4.868824
-0.389009 2.408763 4.838049
-0.389281 2.410859 5.370093
-0.377262 2.303470 5.340882
-0.376601 2.297002 6.237831
-0.290753 1.529225 7.257609
-0.317717 1.770092 7.385698
-0.312651 1.724693 7.592909
-0.333872 1.913918 8.232608
-0.323503 1.821241 8.269485
-0.333864 1.913438 8.881380
-0.319316 1.783485 8.805314
-0.322872 1.814817 9.510668
-0.427108 1.754676 0.454825
-0.427293 1.755704 0.520512
-0.412571 1.671320 1.050480
-0.430634 1.774542 1.169967
-0.440200 1.828856 2.097915
-0.426395 1.749833 2.344196
-0.429202 1.765805 2.525042
-0.426638 1.751214 2.360395
-0.419402 1.709602 2.954712
-0.478911 2.049387 4.050122
-0.546136 2.433522 4.574674
-0.551573 2.464531 4.750713
-0.533110 2.358988 4.720322
-0.557963 2.500780 5.457484
-0.516509 2.263847 5.280905
-0.510033 2.226694 5.591665
-0.398711 1.589586 7.179051
-0.396082 1.574424 7.501652
-0.416525 1.691138 7.913004
-0.447482 1.867893 8.494666
-0.431426 1.776081 8.531491
-0.415296 1.683715 8.888191
-0.416257 1.689077 9.215355
-0.381895 1.492480 9.552784
-0.351921 1.320950 9.953092
-0.578372 1.813463 0.243585
-0.579279 1.816984 0.539191
-0.567424 1.769510 1.775651
-0.546076 1.684615 1.961693
-0.547222 1.689150 2.025886
-0.562145 1.748260 2.723525
-0.573189 1.792031 3.138871
-0.533562 1.634450 3.457693
-0.612831 1.949247 4.303470
-0.707214 2.324392 4.189688
-0.738607 2.448945 4.925220
-0.717546 2.365219 5.006338
-0.723176 2.387562 5.124915
-0.681102 2.220301 5.282890
-0.656986 2.124311 5.783104
-0.439188 1.258193 7.572148
-0.514110 1.555966 7.556000
-0.560355 1.739572 8.197812
-0.559670 1.736757 8.522050
-0.527961 1.610757 8.443529
-0.537334 1.647883 8.885484
-0.505919 1.522957 9.129562
-0.510488 1.540930 9.782835
-0.437115 1.249307 9.833836
-0.586106 1.385144 0.167983
-0.621612 1.491596 0.880191
-0.715396 1.773209 0.764387
-0.722336 1.793917 1.345811
-0.690026 1.696916 1.301229
-0.663395 1.616888 1.602692
-0.743506 1.857049 3.292364
-0.511250 1.158640 8.063849
-0.572474 1.342476 8.013777
-0.599904 1.424697 8.632696
-0.582465 1.372303 8.786765
-0.589209 1.392539 8.851847
-0.635828 1.532349 9.588070
-0.602693 1.158045 0.290689
-0.834694 1.723863 0.877303
-0.767085 1.558844 1.412369
-0.766160 1.556597 1.363649
-0.775023 1.578139 1.774232
-0.778121 1.585675 1.896137
-0.748691 1.513829 2.198943
-0.735892 1.482477 2.909461
-0.740976 1.494856 3.031831
-0.838353 1.732308 3.488296
-0.957960 2.023924 4.263760
-1.021215 2.178154 4.648671
-1.004414 2.137113 4.961119
-0.938614 1.976575 5.118321
-0.901201 1.566258 0.524561
-0.860909 1.484167 0.881877
-0.867956 1.498448 1.295072
-0.882836 1.528651 1.881042
-0.834085 1.429420 1.722981
-0.800996 1.361993 2.086724
-0.772437 1.303778 2.511012
-0.777632 1.314335 2.636305
-0.894641 1.552352 3.982869
-1.041411 1.851146 4.175292
-1.073963 1.917449 3.998254
-1.080568 1.930785 4.703796
-1.042367 1.852994 4.786927
-1.048102 1.864577 5.383272
-0.972934 1.711508 5.546483
-0.969046 1.703524 5.977123
-0.818311 1.396652 5.820069
-0.724389 1.205360 6.242145
-0.659241 1.072613 6.906334
-0.482505 0.712770 6.952537
-0.389332 0.523010 7.334353
-0.503716 0.755864 7.529330
-0.656182 1.066208 8.014708
-0.772546 1.303096 8.198657
-0.737526 1.231730 8.615392
-0.788954 1.336379 8.972317
-0.833597 1.427227 9.269749
-0.751407 1.259876 9.342534
-0.692155 1.139155 9.859718
-0.703910 0.978537 0.214436
-1.012440 1.510821 0.976397
-0.960581 1.421349 0.872622
-0.968481 1.434925 1.284244
-0.931366 1.370813 1.759632
-0.893919 1.306144 2.121890
-0.894200 1.306630 2.129150
-0.909224 1.332503 2.484674
-0.876758 1.276431 2.850148
-1.018751 1.521353 3.542560
-1.196260 1.827607 3.908255
-1.214131 1.858412 4.142243
-1.119591 1.695180 4.825255
-1.090666 1.645164 5.571074
-0.950345 1.403013 5.697755
-0.533008 0.682580 7.749748
-0.625063 0.841390 8.026842
-0.722375 1.009316 7.977949
-0.851859 1.232678 8.483077
-0.823821 1.184275 8.637289
-0.805792 1.153136 8.850685
-0.896149 1.308978 9.382384
-0.745186 1.048475 9.430105
-0.599169 0.796459 9.806764
-0.884360 1.094813 0.481925
-1.054490 1.346032 0.659508
-1.058118 1.351360 0.899484
-1.012784 1.284354 1.375331
-0.964076 1.212392 1.621772
-0.939410 1.175870 2.394539
-0.942741 1.180780 2.461653
-0.890334 1.103378 2.537934
-1.065854 1.362455 3.538929
-1.204315 1.566887 3.865281
-1.249787 1.633974 4.388163
-1.173258 1.520911 4.773947
-1.099290 1.411566 5.662575
-0.830193 1.014098 6.270555
-0.729481 0.865357 6.381277
-0.594070 0.665300 7.076449
-0.539625 0.584846 7.492406
-0.540654 0.586366 7.499181
-0.680373 0.792632 8.014575
-0.784676 0.946628 8.287923
-0.839445 1.027512 8.265417
-0.848699 1.041130 8.653594
-0.894356 1.108484 9.218253
-0.911327 1.133498 9.608187
-0.955681 1.033665 0.506132
-1.151436 1.284777 1.147064
-1.090188 1.206185 1.157931
-1.032058 1.131580 1.285240
-0.998923 1.088976 2.055340
-1.001953 1.092856 2.120474
-1.007963 1.100554 2.243877
-0.984138 1.069907 2.901567
-1.069903 1.179918 3.246445
-1.220424 1.373022 3.588403
-1.344018 1.531536 4.268243
-1.373861 1.569795 4.560081
-1.284785 1.455459 4.887460
-1.115061 1.237599 5.560326
-0.890296 0.949166 5.765721
-0.903387 0.965902 6.322342
-0.744594 0.762028 7.348544
-0.548042 0.509824 7.313537
-0.730706 0.744132 8.008788
-0.769860 0.794388 7.869479
-0.883327 0.939954 8.142788
-0.938468 1.010637 8.765687
-0.977629 1.060830 9.271866
-0.908595 0.972250 9.252647
-0.895581 0.955489 9.795111
-0.750263 0.768997 10.022570
-0.955930 0.889045 0.285875
-1.023556 0.964474 0.410445
-1.166442 1.123812 0.996419
-1.106100 1.056471 1.241142
-1.043296 0.986394 1.370789
-1.049692 0.993510 1.554396
-1.070165 1.016300 2.029602
-1.089338 1.037652 2.387713
-1.057433 1.002002 2.930518
-1.281626 1.251996 3.982644
-1.431890 1.419613 4.133061
-1.410537 1.395747 4.557595
-1.293283 1.264924 4.714890
-1.114239 1.065109 5.449326
-0.886008 0.810465 5.771252
-0.808203 0.723625 6.175059
-0.753558 0.662609 6.701743
-0.625006 0.519194 6.756132
-0.482015 0.359635 7.135950
-0.666123 0.564956 7.776307
-0.777163 0.688807 7.993508
-0.877515 0.800741 8.149423
-0.975888 0.910435 8.626577
-0.951704 0.883432 8.840108
-1.044803 0.987248 9.256813
-0.996732 0.933610 9.354724
-0.943768 0.755864 0.540920
-1.093055 0.901570 0.894516
-1.115402 0.923317 1.601826
-1.102861 0.911107 1.257857
-1.060697 0.869875 1.971756
-1.055236 0.864554 1.861064
-1.088232 0.896708 2.452546
-1.125952 0.933481 2.984534
-1.289340 1.092889 3.978553
-1.425555 1.225875 3.898231
-1.497539 1.296087 4.535026
-1.441971 1.241826 4.672898
-1.350998 1.153029 4.523577
-1.099899 0.907812 5.381053
-0.907239 0.719711 5.563966
-0.938507 0.750170 6.240111
-0.819679 0.634149 6.409776
-0.694878 0.512259 6.962791
-0.498859 0.320884 7.103004
-0.544795 0.365705 7.350322
-0.649660 0.468062 7.510860
-0.791201 0.606207 7.847998
-0.841905 0.655682 8.091623
-0.933308 0.744873 8.511570
-1.003475 0.813311 9.137136
-1.019241 0.828696 9.202246
-0.899727 0.712009 9.332087
-0.824976 0.639004 9.640772
-1.071260 0.745949 0.277851
-1.156388 0.817464 0.869861
-1.170544 0.829322 1.345467
-1.164836 0.824538 1.178450
-1.194568 0.849469 1.887212
-1.138785 0.802539 2.253367
-1.128742 0.794110 2.086073
-1.167966 0.827032 2.678974
-1.137385 0.801271 3.240461
-1.354035 0.983355 3.862831
-1.519268 1.122259 3.957443
-1.492572 1.099776 4.383048
-1.387917 1.011756 4.770606
-1.254225 0.899345 4.929220
-1.173316 0.831277 5.440373
-0.949313 0.642949 5.506790
-0.931973 0.628336 5.888886
-0.813395 0.528625 6.116743
-0.590080 0.340834 6.632147
-0.534214 0.293818 7.168886
-0.534878 0.294340 7.563275
-0.734742 0.462350 7.757204
-0.902126 0.603036 8.152660
-0.917380 0.615854 8.219200
-0.946534 0.640353 8.344752
-0.989318 0.676275 8.854075
-1.050688 0.727847 9.096759
-0.953485 0.646105 9.344999
-0.938721 0.633643 9.891286
-1.040813 0.614321 0.507791
-1.205169 0.734477 0.688125
-1.223751 0.748006 1.339079
-1.217763 0.743643 1.172060
-1.165284 0.705216 1.829040
-1.172165 0.710236 1.954377
-1.095514 0.654184 2.028406
-1.114642 0.668144 2.330285
-1.160381 0.701535 2.924915
-1.410139 0.884073 3.798610
-1.670859 1.074690 3.936565
-1.540445 0.979313 4.204209
-1.348378 0.838846 4.607644
-1.207229 0.735538 5.814885
-0.971887 0.563458 5.886116
-0.879406 0.495804 6.293020
-0.667309 0.340710 6.488264
-0.528073 0.238858 7.048386
-0.476466 0.201111 7.202299
-0.751282 0.402003 7.699405
-0.927351 0.530704 8.096249
-0.943549 0.542541 8.163754
-0.894067 0.506320 8.645392
-0.896193 0.507874 8.653730
-0.991024 0.577179 9.017019
-1.013481 0.593565 9.411371
-1.331801 0.700969 0.316336
-1.251060 0.649958 0.618253
-1.171692 0.599820 0.863687
-1.182776 0.606789 1.224279
-1.190034 0.611357 1.408850
-1.204213 0.620285 1.710529
-1.152198 0.587394 2.254153
-1.165438 0.595740 2.438949
-1.136924 0.577679 3.103545
-1.368909 0.724122 3.689450
-1.677622 0.919029 4.117038
-1.594905 0.866794 4.138782
-1.384456 0.733874 4.481935
-1.170715 0.598832 5.332014
-0.963096 0.467702 5.633376
-0.813783 0.373365 6.237850
-0.791165 0.359056 6.565256
-0.582640 0.227357 6.822139
-0.523877 0.190206 7.360320
-0.661720 0.277231 7.581826
-0.854176 0.398755 7.654877
-0.941795 0.454054 8.017815
-0.968118 0.470639 8.467915
-0.904730 0.430603 8.563591
-0.971916 0.472982 9.134456
-0.876885 0.412974 9.113483
-0.918541 0.439241 9.568052
-0.734753 0.323161 9.853377
-0.935236 0.371381 0.141114
-1.030460 0.422851 0.740320
-1.201409 0.515360 0.450233
-1.124933 0.473942 0.989915
-1.214921 0.522622 1.053398
-1.239900 0.536089 1.647828
-1.249981 0.541528 1.831785
-1.253917 0.543652 1.898575
-1.106587 0.463910 2.333141
-1.120801 0.471585 2.518120
-1.307096 0.572293 3.529100
-1.625927 0.744751 3.960360
-1.716011 0.793437 4.601159
-1.509657 0.681811 4.411751
-1.199822 0.514117 5.282278
-1.049224 0.432588 5.939650
-0.901874 0.352856 6.109315
-0.709598 0.248735 7.326641
-0.598773 0.188784 7.240369
-0.874046 0.337650 8.000136
-1.006699 0.409405 8.158207
-1.020238 0.416698 8.550645
-1.071923 0.444646 8.736153
-0.940069 0.373296 8.922670
-0.998540 0.404889 9.435255
-0.834321 0.316038 9.507284
-0.781718 0.287545 9.938576
-1.146905 0.384255 0.564387
-1.243224 0.427404 0.805254
-1.243426 0.427494 0.813274
-1.165833 0.392686 1.236163
-1.297531 0.451651 2.001482
-1.294249 0.450185 1.950946
-1.215602 0.414922 2.142215
-1.047267 0.339463 2.343117
-1.213732 0.414006 3.166419
-1.105826 0.365656 3.008996
-0.956254 0.298597 3.335689
-1.224336 0.418692 4.024537
-1.602163 0.588020 4.088782
-1.670942 0.618809 4.557355
-1.538612 0.559476 4.887738
-1.331647 0.466730 4.755023
-1.101827 0.363708 5.049843
-0.985674 0.311620 5.449175
-0.946128 0.293838 6.209552
-0.822226 0.238320 6.059663
-0.696266 0.181811 6.792500
-0.501166 0.094343 7.173500
-0.577159 0.128407 7.095472
-0.738510 0.200699 7.377638
-1.011124 0.322825 8.072194
-1.061375 0.345332 8.256607
-1.093461 0.359678 8.706646
-1.025889 0.329386 8.803210
-0.958600 0.299221 8.900187
-0.932668 0.287558 9.445619
-0.889550 0.201894 0.604096
-1.271909 0.342904 0.897600
-1.282223 0.346686 1.198855
-1.305042 0.355066 1.675747
-1.323535 0.361865 1.976558
-1.219212 0.323398 1.815381
-1.154293 0.299421 2.242683
-1.173745 0.306578 2.486378
-1.218023 0.322874 2.965120
-1.119645 0.286590 2.924871
-0.871726 0.195121 3.262669
-1.651835 0.482792 4.182015
-1.644608 0.480131 4.132132
-1.579520 0.456064 4.925542
-1.357130 0.374050 4.735842
-1.131065 0.290641 5.090633
-1.069452 0.267863 5.787297
-0.960516 0.227652 6.193548
-0.830744 0.179765 6.484617
-0.626540 0.104417 6.862566
-0.509650 0.061309 6.773946
-0.640232 0.109432 7.324723
-0.793244 0.165854 7.546823
-0.901174 0.205660 7.588171
-1.046903 0.259371 8.130470
-0.958847 0.226890 8.165687
-1.097516 0.277977 8.972271
-1.065925 0.266309 9.187837
-0.890210 0.201492 9.258358
-1.088081 0.196098 0.127450
-0.900385 0.140956 0.560133
-1.195041 0.227450 0.856756
-1.193648 0.227045 0.805465
-1.114427 0.203749 1.288481
-1.139289 0.211014 1.768382
-1.163431 0.218076 2.129864
-1.081924 0.194130 2.322558
-1.107764 0.201695 2.625718
-1.198687 0.228396 2.565037
-1.417987 0.292703 3.688320
-1.699280 0.375250 4.304518
-1.596725 0.345141 4.269161
-1.539332 0.328271 4.524151
-1.298186 0.257405 5.375318
-0.875166 0.133175 5.717806
-0.737355 0.092691 6.005248
-0.482440 0.017798 6.642621
-0.404589 -0.005067 6.733497
-0.522036 0.029381 7.224955
-0.756285 0.098122 7.747330
-0.911250 0.143634 7.581428
-1.009796 0.172542 7.944876
-1.091422 0.196462 8.572817
-1.147522 0.212921 8.756893
-1.098341 0.198445 9.239797
-0.990499 0.166783 9.219493
-0.949083 0.154587 9.707453
-0.826010 0.118412 10.233758
-1.004042 0.100719 0.466549
-1.210287 0.146284 0.941621
-1.208692 0.145935 0.889645
-1.124203 0.127229 1.254103
-1.135676 0.129748 1.497239
-1.059230 0.112821 1.864871
-1.109585 0.123906 2.522544
-1.099962 0.121787 2.411251
-1.332008 0.173000 3.657324
-1.549834 0.221148 3.812076
-1.592272 0.230510 4.109225
-1.601968 0.232649 4.174032
-1.610736 0.234540 4.835204
-1.494487 0.208806 5.285628
-1.219636 0.148030 5.408942
-0.922183 0.082266 5.414674
-0.770631 0.048707 6.139529
-0.621191 0.015651 6.370513
-0.530314 -0.004475 6.845685
-0.466440 -0.018607 6.997707
-0.607654 0.012602 7.161359
-0.828723 0.061445 7.622677
-0.846846 0.065447 7.689614
-0.931661 0.084177 7.994791
-1.164114 0.135514 8.772100
-1.054865 0.111361 8.750714
-1.136426 0.129353 9.321479
-0.861670 0.068600 9.425768
-0.760716 0.046257 9.737682
-0.908006 0.015753 0.324245
-1.117955 0.047031 0.922236
-1.129138 0.048678 1.226415
-1.124727 0.048028 1.117036
-1.129886 0.048788 1.243951
-1.049154 0.036719 1.612685
-0.965333 0.024196 1.864049
-0.991516 0.028076 2.228352
-1.149730 0.051633 2.878301
-1.423308 0.092400 3.524536
-1.692323 0.132497 4.027803
-1.587112 0.116804 3.992238
-1.562548 0.113104 4.480119
-1.525944 0.107617 4.853769
-1.343109 0.080335 4.955483
-1.093145 0.042988 5.746639
-0.864676 0.008914 5.616715
-0.676612 -0.019181 6.165829
-0.388683 -0.062139 6.238763
-0.405141 -0.059721 6.754827
-0.542373 -0.039287 7.307516
-0.752394 -0.007985 7.710367
-0.928807 0.018341 7.605142
-0.997120 0.028514 7.850781
-1.025507 0.032717 8.302221
-1.193108 0.057682 8.842106
-0.988488 0.027156 8.852419
-1.093694 0.042806 9.484715
-1.013551 0.030823 9.855444
-0.601555 -0.030641 9.878526
-0.806438 -0.059155 0.264007
-0.711809 -0.066170 0.633330
-1.008895 -0.044221 0.517075
-1.135248 -0.034948 1.351232
-1.132906 -0.035117 1.300709
-1.045547 -0.041587 1.550890
-1.052763 -0.041063 1.677943
-0.986136 -0.046018 2.167815
-0.912010 -0.051514 2.481983
-1.268131 -0.025309 3.845798
-1.590604 -0.001504 3.986795
-1.575001 -0.002648 3.879034
-1.557688 -0.003965 4.425628
-1.559060 -0.003865 4.434030
-1.304719 -0.022669 4.725955
-1.120499 -0.036320 5.377824
-0.926452 -0.050654 5.424903
-0.733164 -0.064968 5.971772
-0.647874 -0.071304 6.504456
-0.498191 -0.082375 6.738295
-0.350417 -0.093305 6.974468
-0.591105 -0.075539 7.114066
-0.783568 -0.061349 7.455723
-0.980204 -0.046851 7.793490
-1.138746 -0.035180 8.333219
-1.045411 -0.042076 8.369138
-1.025685 -0.043552 8.642612
-1.067022 -0.040531 9.094918
-0.825363 -0.058393 9.315941
-0.700853 -0.114633 0.306906
-0.904116 -0.113559 0.552689
-1.006671 -0.113018 0.678842
-1.115120 -0.112457 0.978788
-1.141807 -0.112355 1.576108
-1.068724 -0.112777 2.002930
-0.973776 -0.113292 2.076177
-0.983324 -0.113250 2.201680
-1.003567 -0.113158 2.445826
-1.318830 -0.111540 3.506414
-1.672369 -0.109669 3.880465
-1.582760 -0.110155 3.959350
-1.616719 -0.110031 4.794431
-1.431454 -0.111033 4.894471
-1.323722 -0.111609 4.860233
-1.106840 -0.112806 5.333962
-0.898259 -0.113959 5.815563
-0.631775 -0.115403 6.004529
-0.366460 -0.116841 6.196074
-0.441049 -0.116493 6.953478
-0.427780 -0.116561 6.899766
-0.681814 -0.115238 7.484785
-0.876741 -0.114189 7.439490
-0.960672 -0.113759 7.743826
-1.100796 -0.113041 8.224743
-1.230636 -0.112373 8.644287
-1.080152 -0.113194 8.830024
-0.970120 -0.113806 9.136228
-0.768826 -0.114911 9.477554
-0.730000 -0.115154 9.969921
-0.690667 -0.161227 -0.005725
-0.792658 -0.167553 0.421849
-0.913760 -0.175082 1.203352
-1.111164 -0.187263 1.144729
-1.134537 -0.188739 1.625913
-1.032040 -0.182409 1.581210
-0.951126 -0.177437 1.892834
-0.893456 -0.173916 2.444766
-0.916041 -0.175327 2.691713
-0.823360 -0.169612 2.769866
-0.776475 -0.166753 3.267511
-1.134312 -0.188872 3.714252
-1.563519 -0.215377 3.901952
-1.564760 -0.215454 3.910574
-1.499182 -0.211466 4.765088
-1.382094 -0.204233 4.674172
-1.316053 -0.200171 4.875807
-1.066320 -0.184777 5.174327
-0.782241 -0.167287 5.794594
-0.626625 -0.157697 6.023088
-0.556042 -0.153382 6.616255
-0.474989 -0.148386 6.706885
-0.408934 -0.144320 6.858576
-0.614087 -0.157011 7.263873
-0.954492 -0.178056 7.756592
-0.939762 -0.177143 7.704122
-1.114598 -0.187977 8.303690
-1.245485 -0.196085 8.723084
-1.154238 -0.190479 9.086629
-1.047392 -0.183905 9.394093
-0.820333 -0.169887 9.346736
-0.642937 -0.158966 9.751194
-0.777337 -0.220455 0.136281
-0.779064 -0.220697 0.384491
-0.780799 -0.220932 0.510805
-0.886513 -0.234699 0.813659
-1.099392 -0.262409 1.228492
-1.011766 -0.251033 1.476587
-0.926402 -0.239951 1.726362
-0.851842 -0.230282 2.097039
-0.974776 -0.246288 2.393209
-0.921170 -0.239352 2.884565
-0.934333 -0.241073 3.010193
-0.842933 -0.229193 3.087328
-1.127997 -0.266309 3.781336
-1.473655 -0.311277 4.096948
-1.501401 -0.314898 4.278187
-1.589627 -0.326407 4.807570
-1.395547 -0.301174 4.849296
-1.012507 -0.251448 5.986313
-0.529524 -0.188653 6.099592
-0.377298 -0.168876 6.331205
-0.323526 -0.161899 6.542541
-0.598786 -0.197741 7.251182
-0.681070 -0.208435 7.172797
-0.889299 -0.235539 7.572127
-0.973992 -0.246573 7.876052
-0.914786 -0.238885 8.029413
-0.927671 -0.240588 8.421592
-0.965124 -0.245490 8.874219
-0.970215 -0.246176 9.209060
-0.771502 -0.220362 9.550924
-0.619513 -0.200631 10.017455
-0.859631 -0.293859 0.357280
-0.865833 -0.295134 0.723187
-0.872731 -0.296540 0.969931
-0.967364 -0.315587 0.856574
-0.899308 -0.301936 1.582128
-0.819833 -0.285955 1.894626
-0.832746 -0.288569 2.082136
-0.846919 -0.291436 2.269551
-0.862353 -0.294557 2.456862
-0.787041 -0.279411 2.713186
-0.720365 -0.266009 3.030967
-1.001055 -0.322576 3.730154
-1.309414 -0.384669 3.815670
-1.503233 -0.423740 4.450832
-1.389260 -0.400785 4.358784
-1.331711 -0.389216 4.617277
-0.968643 -0.316203 5.872835
-0.586731 -0.239311 5.963879
-0.393224 -0.200384 6.459087
-0.299403 -0.181496 6.489113
-0.540118 -0.230006 7.078524
-0.713393 -0.264915 7.361266
-0.936082 -0.309758 7.436178
-1.025253 -0.327762 8.123072
-1.079705 -0.338739 8.307843
-1.005895 -0.323884 8.403618
-1.061723 -0.335161 8.914570
-0.916116 -0.305857 9.103037
-0.933570 -0.309419 9.769653
-0.701376 -0.262683 9.997774
-0.740207 -0.324499 0.197226
-0.552404 -0.273332 0.626685
-0.758934 -0.329670 1.107650
-0.954257 -0.382923 1.166305
-0.884207 -0.363866 1.712660
-0.791862 -0.338696 1.785341
-0.825331 -0.347855 2.269318
-0.952069 -0.382432 2.624236
-0.862124 -0.357917 2.700081
-0.874132 -0.361200 2.826027
-0.816128 -0.345414 3.200977
-1.088286 -0.419655 3.835033
-1.280322 -0.472006 3.814298
-1.305498 -0.478883 3.996738
-1.385995 -0.500866 4.529266
-1.245689 -0.462640 4.862523
-1.109370 -0.425502 5.199578
-0.837292 -0.351338 5.322112
-0.600163 -0.286715 5.626448
-0.523722 -0.265919 6.216648
-0.376617 -0.225832 6.449145
-0.297724 -0.204331 6.539454
-0.506068 -0.261163 7.007404
-0.815089 -0.345439 7.443681
-0.864088 -0.358811 7.629316
-0.947163 -0.381480 7.933293
-1.033507 -0.405041 8.236289
-1.011808 -0.399169 8.835109
-0.885364 -0.364692 8.754014
-0.797372 -0.340731 9.120540
-0.794354 -0.339952 9.729157
-0.607109 -0.288931 10.076851
-0.622025 -0.346129 0.455948
-0.627760 -0.348185 0.764770
-0.819541 -0.416180 0.887613
-0.834707 -0.421588 1.313060
-0.772937 -0.399736 1.923282
-0.759158 -0.394834 1.693511
-0.777986 -0.401531 2.000621
-0.840812 -0.423861 2.783742
-0.742296 -0.388934 2.742810
-0.784739 -0.404012 3.169309
-0.798720 -0.408978 3.297350
-0.935300 -0.457421 3.650301
-1.211206 -0.555275 4.278919
-1.195382 -0.549658 4.170336
-1.040881 -0.494950 5.007429
-0.780532 -0.402708 5.683807
-0.493304 -0.300887 5.690981
-0.366982 -0.256166 6.487014
-0.237489 -0.210249 6.334158
-0.240720 -0.211429 6.790098
-0.495842 -0.301888 7.052154
-0.829520 -0.420188 7.223931
-1.000636 -0.480897 7.883335
-0.895886 -0.443762 7.858664
-0.974164 -0.471558 8.486872
-0.938889 -0.459069 8.701425
-0.997682 -0.479949 9.213013
-0.859435 -0.430955 9.402909
-0.692796 -0.371912 9.806886
-0.595074 -0.386987 0.265191
-0.596178 -0.387475 0.392442
-0.691598 -0.428857 0.637577
-0.784676 -0.469209 0.702254
-0.798903 -0.475413 1.185685
-0.720288 -0.441359 1.495573
-0.726615 -0.444111 1.622179
-0.777691 -0.466311 2.404519
-0.769117 -0.462586 2.292592
-0.697097 -0.431386 2.547049
-0.735454 -0.448046 2.972228
-0.716489 -0.439877 3.647765
-0.801238 -0.476608 3.582503
-1.158877 -0.631684 4.197603
-1.193933 -0.646899 4.439148
-1.051017 -0.585011 5.276688
-0.735256 -0.448160 5.598538
-0.536206 -0.361909 6.026612
-0.382594 -0.295335 6.197261
-0.217343 -0.223710 6.308709
-0.233620 -0.230806 6.825759
-0.525022 -0.357156 7.268338
-0.793074 -0.473346 7.199753
-0.928216 -0.531968 7.741219
-0.920412 -0.528611 8.072194
-0.899671 -0.519641 8.345063
-0.951954 -0.542318 8.529855
-0.901259 -0.520380 9.012543
-0.877299 -0.510035 9.558320
-0.562440 -0.373545 9.483724
-0.520991 -0.355636 10.252166
-0.571131 -0.428428 0.586233
-0.302986 -0.289852 0.479605
-0.405893 -0.343079 1.091197
-0.775194 -0.533947 1.442267
-0.689612 -0.489728 1.515860
-0.695904 -0.492989 1.644092
-0.716860 -0.503848 2.010869
-0.765998 -0.529292 2.674978
-0.756843 -0.524553 2.564777
-0.706037 -0.498332 3.000659
-0.624330 -0.456116 3.080071
-0.689525 -0.489854 3.686710
-0.926203 -0.612196 4.142782
-1.014946 -0.658055 4.134583
-1.040032 -0.671032 4.317844
-0.926430 -0.612363 4.770009
-0.773341 -0.533308 5.483939
-0.676909 -0.483474 5.450472
-0.437937 -0.359997 5.635863
-0.404001 -0.342521 6.409063
-0.219880 -0.247373 6.399776
-0.250364 -0.263172 6.977079
-0.606236 -0.447101 7.331789
-0.765657 -0.529475 7.227883
-0.867270 -0.582018 7.650292
-0.813121 -0.554048 7.802770
-0.918331 -0.608475 8.549259
-0.986906 -0.643932 8.792140
-0.854055 -0.575294 8.978968
-0.739919 -0.516333 9.226951
-0.599052 -0.443574 9.689484
-0.368566 -0.324481 9.856037
-0.450875 -0.412066 0.021527
-0.632198 -0.522167 0.884547
-0.716395 -0.573256 0.830636
-0.648632 -0.532181 1.379666
-0.659719 -0.538929 1.627074
-0.687076 -0.555569 2.112874
-0.602377 -0.504174 2.128984
-0.704448 -0.566132 2.368455
-0.658010 -0.537993 2.863373
-0.692134 -0.558730 3.229846
-0.574359 -0.487303 3.741240
-0.640063 -0.527159 3.557488
-0.819657 -0.636204 4.325595
-0.913243 -0.692999 4.377692
-0.907185 -0.689368 4.934327
-0.722132 -0.577067 4.859319
-0.591982 -0.498112 5.142182
-0.537026 -0.464822 5.848797
-0.404396 -0.384357 6.079797
-0.250311 -0.290864 6.191804
-0.227274 -0.276912 6.526396
-0.303414 -0.323146 6.899292
-0.576192 -0.488711 7.340446
-0.937065 -0.707730 7.745112
-0.900550 -0.685590 7.958351
-0.880623 -0.673520 8.231671
-0.847354 -0.653349 8.446874
-0.847801 -0.653648 8.781476
-0.801046 -0.625289 8.937270
-0.731879 -0.583373 9.634048
-0.572499 -0.486663 9.706801
-0.591004 -0.560941 0.686602
-0.683277 -0.625945 1.108970
-0.607924 -0.572907 1.299893
-0.612848 -0.576385 1.427244
-0.657714 -0.608046 2.270249
-0.650568 -0.603006 2.158976
-0.698652 -0.636918 2.821845
-0.694434 -0.633943 2.770265
-0.679569 -0.623540 3.503460
-0.599260 -0.566998 3.523887
-0.667141 -0.614843 4.128095
-0.727743 -0.657495 3.942927
-0.787411 -0.699548 4.425125
-0.707683 -0.643416 4.448633
-0.596455 -0.565136 4.846979
-0.588965 -0.559905 5.350818
-0.468483 -0.475102 5.637011
-0.350413 -0.391995 5.926283
-0.302554 -0.358355 6.582341
-0.296442 -0.354086 6.976896
-0.365132 -0.402442 6.900168
-0.744047 -0.669279 7.490909
-0.891979 -0.773458 7.767455
-0.842919 -0.738929 7.920735
-0.867271 -0.756114 8.370348
-0.820977 -0.723532 8.525696
-0.760076 -0.680662 8.622458
-0.810044 -0.715887 9.134919
-0.629048 -0.588475 9.416913
-0.596720 -0.565756 9.908709
-0.557638 -0.604304 0.959699
-0.562848 -0.608542 1.146383
-0.578423 -0.621201 1.571820
-0.576233 -0.619422 1.519591
-0.613470 -0.649660 2.242783
-0.610285 -0.647075 2.190639
-0.647297 -0.677115 2.734013
-0.676851 -0.701096 3.098164
-0.610809 -0.647594 3.235899
-0.556714 -0.603783 3.494015
-0.607217 -0.644750 3.978905
-0.698386 -0.718636 4.090897
-0.665321 -0.691877 4.469997
-0.652779 -0.681759 4.969952
-0.569055 -0.613913 4.935408
-0.496107 -0.554855 5.518222
-0.382928 -0.463171 5.805855
-0.272055 -0.373355 6.096547
-0.218379 -0.329915 6.694145
-0.265573 -0.368179 6.944252
-0.465005 -0.529799 7.143971
-0.777829 -0.783316 7.491382
-0.779402 -0.784591 7.498773
-0.851276 -0.842893 8.183032
-0.908855 -0.889572 8.425747
-0.687974 -0.710598 8.521851
-0.764450 -0.772624 9.152485
-0.681854 -0.705724 9.461166
-0.601879 -0.640947 9.772487
-0.351188 -0.437808 9.759617
-0.513624 -0.647978 1.091782
-0.523225 -0.657075 1.399257
-0.537981 -0.671045 1.766231
-0.549958 -0.682380 2.013664
-0.570702 -0.702006 2.380089
-0.595019 -0.725005 2.746097
-0.575534 -0.706577 2.457327
-0.541844 -0.674814 3.012309
-0.556911 -0.689060 3.198881
-0.572903 -0.704181 3.385307
-0.637273 -0.765035 4.047075
-0.670867 -0.796790 4.351293
-0.650035 -0.777159 4.790352
-0.579373 -0.710429 4.815137
-0.539741 -0.673027 5.078793
-0.413966 -0.554262 5.242704
-0.307261 -0.453568 6.032183
-0.156858 -0.311529 6.021376
-0.176265 -0.329912 6.598080
-0.167281 -0.321423 6.545152
-0.509997 -0.645142 7.204274
-0.697903 -0.822616 7.398491
-0.734734 -0.857416 7.583493
-0.752328 -0.874075 8.031923
-0.792301 -0.911843 8.216399
-0.611506 -0.741123 8.429719
-0.625331 -0.754217 8.823884
-0.531116 -0.665266 9.072062
-0.543508 -0.677033 9.741041
-0.418631 -0.559141 10.149566
-0.321249 -0.521691 0.394328
-0.188229 -0.377901 0.647788
-0.259236 -0.454690 0.835440
-0.471419 -0.684130 1.193979
-0.477084 -0.690275 1.381532
-0.510247 -0.726210 2.165495
-0.504628 -0.720123 2.054656
-0.517558 -0.734129 2.301436
-0.496684 -0.711636 3.034678
-0.492942 -0.707585 2.983414
-0.516296 -0.732865 3.289902
-0.558048 -0.778056 3.774407
-0.564365 -0.784893 3.842204
-0.594254 -0.817239 4.147457
-0.565990 -0.786721 4.527573
-0.555855 -0.775815 5.028489
-0.423287 -0.632492 5.072726
-0.345258 -0.548178 5.538627
-0.229721 -0.423283 5.707139
-0.168087 -0.356701 6.242082
-0.179475 -0.369067 6.758619
-0.211036 -0.403209 6.948984
-0.483024 -0.697307 7.303881
-0.659125 -0.887721 7.497849
-0.649701 -0.877527 7.447027
-0.800568 -1.040716 8.219823
-0.786207 -1.025218 8.490908
-0.593274 -0.816638 8.587468
-0.529855 -0.748109 8.952468
-0.520401 -0.737916 9.229045
-0.505469 -0.721829 9.778077
-0.265877 -0.462814 9.979501
-0.283381 -0.541084 0.108319
-0.223859 -0.467156 0.600387
-0.285331 -0.543551 0.486522
-0.480643 -0.786372 0.966676
-0.422260 -0.713824 1.157582
-0.429117 -0.722375 1.404855
-0.451820 -0.750662 2.009938
-0.392383 -0.676792 2.085280
-0.404494 -0.691874 2.332944
-0.452127 -0.751167 3.116444
-0.436582 -0.731820 2.885054
-0.457364 -0.757686 3.190499
-0.494704 -0.804151 3.674063
-0.537407 -0.857284 4.156495
-0.481757 -0.788122 4.238106
-0.462597 -0.764355 4.678094
-0.420922 -0.712578 4.881284
-0.437678 -0.733481 5.563810
-0.315681 -0.581847 5.610485
-0.171622 -0.402828 5.980367
-0.161513 -0.390307 6.372900
-0.145765 -0.370769 6.706237
-0.254133 -0.505500 6.992327
-0.456606 -0.757173 7.045950
-0.628069 -0.970368 7.679667
-0.660941 -1.011247 7.863674
-0.694597 -1.053101 8.047319
-0.740236 -1.109857 8.289235
-0.607910 -0.945416 8.620835
-0.514799 -0.829739 9.135300
-0.494547 -0.804591 9.352741
-0.246813 -0.558850 0.161006
-0.190565 -0.478554 0.410617
-0.191091 -0.479314 0.478597
-0.309382 -0.648277 0.783044
-0.384819 -0.756102 1.564359
-0.395380 -0.771220 1.870162
-0.397960 -0.774913 1.937260
-0.408230 -0.789610 2.183189
-0.419770 -0.806118 2.428947
-0.369085 -0.733755 2.564554
-0.404514 -0.784422 3.168844
-0.416994 -0.802267 3.355061
-0.434582 -0.827414 3.600632
-0.472929 -0.882235 4.083478
-0.483767 -0.897728 4.209559
-0.471753 -0.880632 4.707599
-0.383409 -0.754506 4.987648
-0.366182 -0.729951 5.371828
-0.288782 -0.619463 5.717965
-0.128296 -0.390295 5.846549
-0.054281 -0.284640 6.199961
-0.046831 -0.274050 6.595431
-0.175948 -0.458446 6.678537
-0.412287 -0.796002 7.094140
-0.550850 -0.993894 7.227867
-0.580309 -1.036033 7.791634
-0.661044 -1.151384 8.268165
-0.641740 -1.123805 8.157007
-0.551481 -0.994971 8.663982
-0.399526 -0.777990 8.820730
-0.495311 -0.914875 9.631744
-0.334265 -0.684906 9.737682
-0.131458 -0.395310 9.937675
-0.264300 -0.667849 0.780233
-0.377565 -0.855821 1.319103
-0.377764 -0.856151 1.327470
-0.334382 -0.784226 1.638964
-0.353265 -0.815625 2.182491
-0.371878 -0.846560 2.606165
-0.366610 -0.837807 2.493846
-0.333186 -0.782409 2.867802
-0.360953 -0.828538 3.351571
-0.310117 -0.744207 3.370283
-0.381180 -0.862136 3.662678
-0.439978 -0.959783 4.441091
-0.415142 -0.918624 4.760686
-0.392249 -0.880690 5.081896
-0.302864 -0.732429 5.244551
-0.213956 -0.584960 5.408908
-0.125532 -0.438294 5.574962
-0.104903 -0.404176 6.350632
-0.084319 -0.370066 6.622756
-0.165394 -0.504594 6.848516
-0.324279 -0.768172 6.843648
-0.414134 -0.917273 7.123479
-0.480775 -1.027891 7.603797
-0.516235 -1.086748 7.846417
-0.521594 -1.095692 8.234803
-0.500087 -1.060087 8.772560
-0.491962 -1.046644 9.046299
-0.446889 -0.971922 9.412596
-0.329391 -0.776994 9.365160
-0.244665 -0.636540 10.103600
-0.257840 -0.771233 0.608628
-0.308257 -0.870853 1.030851
-0.319326 -0.892793 1.573765
-0.275923 -0.807102 1.646424
-0.284650 -0.824382 1.952170
-0.308906 -0.872380 2.615000
-0.317026 -0.888443 2.800936
-0.292801 -0.840675 3.235899
-0.287056 -0.829314 3.124130
-0.279395 -0.814292 3.800004
-0.328317 -0.910902 3.853346
-0.369056 -0.991439 4.454048
-0.378367 -1.009844 4.579859
-0.289790 -0.834945 4.620124
-0.298924 -0.853086 5.300707
-0.166456 -0.591523 5.364701
-0.083663 -0.428055 5.470598
-0.058300 -0.378083 6.186111
-0.001939 -0.266847 6.542068
-0.085926 -0.432742 6.890535
-0.275568 -0.807219 6.921304
-0.377518 -1.008542 6.997848
-0.434824 -1.121773 7.476931
-0.460424 -1.172412 8.040660
-0.441922 -1.135910 8.252513
-0.432463 -1.117274 8.524229
-0.355606 -0.965530 8.650024
-0.410430 -1.073893 9.338774
-0.274043 -0.804587 9.383114
-0.213196 -0.684519 9.907624
-0.166194 -0.695414 0.639188
-0.250744 -0.894950 1.179642
-0.217248 -0.815995 1.489044
-0.228707 -0.843112 1.973135
-0.225744 -0.836102 1.860609
-0.195276 -0.764290 2.173151
-0.207163 -0.792395 2.538647
-0.218566 -0.819347 2.844021
-0.231298 -0.849435 3.149050
-0.257279 -0.910818 3.691720
-0.267120 -0.934063 3.876790
-0.267487 -0.934930 3.883520
-0.291850 -0.992475 4.305682
-0.284303 -0.974761 4.803097
-0.224515 -0.833783 5.082987
-0.184279 -0.738965 5.605731
-0.079673 -0.492251 5.792903
-0.072296 -0.474919 6.183553
-0.007252 -0.321522 6.355321
0.019364 -0.258766 6.506321
-0.195981 -0.766834 7.083313
-0.310094 -1.035996 7.015649
-0.366064 -1.168116 7.553529
-0.419396 -1.294003 8.029904
-0.375964 -1.191549 8.006208
-0.343613 -1.115314 8.424053
-0.373449 -1.185794 8.991363
-0.292574 -0.995024 9.001662
-0.274161 -0.951679 9.487611
-0.135696 -0.625098 9.685432
-0.018964 -0.416967 0.311408
0.046191 -0.228635 0.383787
-0.056325 -0.525114 0.994000
-0.154450 -0.808767 0.993305
-0.162243 -0.831411 1.540110
-0.166958 -0.845095 1.788138
-0.183248 -0.892328 2.453140
-0.180191 -0.883467 2.343325
-0.166311 -0.843476 2.958245
-0.177486 -0.875845 3.265695
-0.177842 -0.876877 3.275006
-0.190181 -0.912610 3.582038
-0.200948 -0.943789 3.829203
-0.230338 -1.028876 4.431836
-0.208117 -0.964685 4.635241
-0.176385 -0.872961 4.661101
-0.158961 -0.822769 5.481964
-0.067282 -0.557775 5.609946
-0.024103 -0.433031 5.960007
0.039350 -0.249616 6.008891
0.049003 -0.221782 6.342942
-0.047518 -0.500884 6.730502
-0.209083 -0.967997 7.060643
-0.256453 -1.104965 7.220254
-0.251594 -1.090991 7.548875
-0.285019 -1.187691 7.909907
-0.308409 -1.255358 8.152191
-0.306674 -1.250483 8.806165
-0.257880 -1.109471 8.993264
-0.242476 -1.065045 9.478245
-0.164287 -0.839069 9.703287
-0.025017 -0.436540 9.998065
0.035423 -0.322177 0.443523
0.008461 -0.421795 0.632392
-0.096819 -0.810602 0.751965
-0.101768 -0.829024 1.297793
-0.107611 -0.850717 1.723812
-0.114021 -0.874487 2.089821
-0.121712 -0.902985 2.455466
-0.127618 -0.924861 2.701708
-0.111467 -0.865318 3.077544
-0.120710 -0.899534 3.383679
-0.119094 -0.893552 3.332257
-0.131132 -0.938104 3.697528
-0.144447 -0.987371 4.062147
-0.156573 -1.032230 4.366803
-0.149148 -1.004929 4.806342
-0.121071 -0.901240 4.772106
-0.076071 -0.735255 5.492006
-0.037946 -0.594544 5.780205
-0.004036 -0.469417 6.132019
0.025038 -0.362161 6.548238
0.049992 -0.270022 6.579234
-0.038064 -0.595229 6.700300
-0.149886 -1.008292 7.173536
-0.213435 -1.243101 7.686798
-0.214028 -1.245295 7.694835
-0.216270 -1.253678 8.083361
-0.205757 -1.214912 8.296658
-0.260047 -1.415568 8.949509
-0.171109 -1.087121 8.874849
-0.163627 -1.059635 9.419764
-0.095628 -0.808573 9.585482
0.057646 -0.318637 0.418084
0.037869 -0.418629 0.546881
-0.041810 -0.821450 0.966934
-0.065696 -0.942357 1.507788
-0.044679 -0.836083 1.342580
-0.052219 -0.874426 2.007609
-0.053171 -0.879262 2.075848
-0.058847 -0.908079 2.441974
-0.043890 -0.832587 2.698257
-0.034480 -0.785212 3.195544
-0.034672 -0.786181 3.204191
-0.076829 -0.999548 4.093679
-0.068867 -0.959209 3.805290
-0.089893 -1.065726 4.525753
-0.074850 -0.989754 4.669337
-0.059952 -0.914520 4.813742
-0.011122 -0.667858 5.112260
0.008813 -0.567305 5.638219
0.044227 -0.388375 5.745090
0.059179 -0.313027 6.340816
0.066963 -0.273786 6.613531
-0.031610 -0.772084 7.008753
-0.087526 -1.054773 7.322173
-0.112785 -1.182459 7.420767
-0.138823 -1.314218 7.897579
-0.123887 -1.238768 7.990816
-0.134427 -1.292102 8.173518
-0.148216 -1.361987 8.737334
-0.138156 -1.311325 9.216912
-0.109676 -1.167465 9.405842
-0.083643 -1.036092 9.926321
0.068947 -0.411881 0.335572
0.081173 -0.311761 0.221934
0.068220 -0.418050 0.713634
0.006295 -0.925039 1.066191
0.004758 -0.937791 1.370695
0.002380 -0.957462 1.734489
0.010967 -0.887440 2.165030
0.007303 -0.917638 2.529430
0.005897 -0.929213 2.655452
0.015026 -0.854648 2.910697
0.010155 -0.894726 3.275471
-0.001991 -0.994122 3.270765
-0.021374 -1.153018 3.738691
-0.010448 -1.063652 3.818302
-0.005890 -1.026599 4.254500
-0.009407 -1.055486 4.439240
-0.027237 -1.201890 5.273236
-0.009243 -1.054794 5.555190
0.032135 -0.716351 5.881602
0.060259 -0.486113 5.748729
0.096563 -0.189307 6.264873
0.099796 -0.163038 6.600009
0.020906 -0.808977 7.153151
0.000887 -0.972720 6.991270
-0.026170 -1.194410 7.446091
-0.032319 -1.244837 7.629607
-0.043880 -1.339846 8.310529
-0.050742 -1.396105 8.493029
-0.053120 -1.415793 8.881281
-0.035072 -1.268196 9.068300
-0.032009 -1.243448 9.610606
0.007068 -0.923639 9.598714
0.097213 -0.404867 0.053174
0.102458 -0.305558 0.244046
0.096838 -0.412903 0.736845
0.070457 -0.913777 0.792495
0.063406 -1.048750 1.627959
0.063720 -1.042640 1.517559
0.066737 -0.986256 2.184748
0.071454 -0.896882 2.319821
0.070895 -0.907661 2.447092
0.074036 -0.848620 2.882023
0.062202 -1.073577 3.106527
0.034965 -1.590790 3.233064
0.030434 -1.678554 4.546532
0.050072 -1.306015 4.737876
0.051860 -1.272577 5.115293
0.061547 -1.088815 5.218701
0.075842 -0.818346 5.899661
0.082433 -0.694300 6.707194
0.084353 -0.658219 6.978830
0.068159 -0.965640 6.972702
0.055608 -1.204582 7.487055
0.052927 -1.255720 7.670954
0.045649 -1.394527 8.147414
0.044887 -1.409509 8.535054
0.049783 -1.316604 8.572519
0.048510 -1.341716 9.287451
0.061489 -1.095187 9.182524
0.064318 -1.042492 9.940211
0.122699 -0.297813 0.210522
0.121308 -0.200259 0.463957
0.124215 -0.401283 0.530299
0.131500 -0.904913 0.708999
0.134644 -1.120408 1.185343
0.133641 -1.048268 1.731161
0.133707 -1.052490 1.798715
0.134033 -1.073605 2.103033
0.133298 -1.020033 2.652956
0.133956 -1.063594 3.076006
0.141867 -1.609725 3.435498
0.146068 -1.901121 3.348505
0.146302 -1.916726 3.471275
0.146494 -1.926315 4.238875
0.142149 -1.622480 4.840639
0.128887 -0.696766 6.309344
0.127783 -0.617729 6.844470
0.131719 -0.889109 7.103449
0.135923 -1.178769 7.416162
0.136672 -1.229745 7.601113
0.138189 -1.333071 7.961705
0.138399 -1.345670 8.350355
0.140897 -1.516146 8.884142
0.139351 -1.407558 9.189263
0.136658 -1.220678 9.260852
0.134416 -1.063212 9.720823
0.143134 -0.294342 0.643455
0.227279 -1.312479 1.284969
0.220072 -1.225025 1.533323
0.213373 -1.143660 1.842364
0.205206 -1.044774 1.857470
0.208210 -1.080729 2.339421
0.201813 -1.003067 2.593659
0.281232 -1.964052 3.157002
0.293020 -2.106476 3.495151
0.290974 -2.081250 4.029659
0.266648 -1.786709 4.081652
0.242183 -1.489972 4.739384
0.213072 -1.136853 5.557051
0.158785 -0.479416 5.824549
0.153808 -0.418601 6.479914
0.164295 -0.545468 6.585399
0.193952 -0.903984 7.203473
0.212609 -1.129782 7.278144
0.223508 -1.261317 7.756346
0.222295 -1.246675 7.704707
0.238244 -1.439212 8.355988
0.233991 -1.387861 8.187844
0.241507 -1.478321 8.808616
0.240283 -1.463279 9.080328
0.222058 -1.242408 9.359876
0.207515 -1.066003 9.761279
0.192411 -0.476042 0.222719
0.268546 -0.974741 0.584751
0.318624 -1.302457 1.467461
0.302727 -1.198345 1.363734
0.303697 -1.204641 1.490127
0.295822 -1.152706 2.212064
0.281614 -1.059574 2.287905
0.314078 -1.272214 2.456368
0.374266 -1.666163 3.365136
0.436497 -2.073889 3.438032
0.437788 -2.082316 3.503373
0.424152 -1.992929 3.582003
0.384329 -1.731868 3.861285
0.365911 -1.610674 4.967409
0.366151 -1.612244 4.976008
0.352211 -1.520636 5.545178
0.263825 -0.941446 5.674817
0.208800 -0.580801 5.884891
0.204223 -0.550451 6.660522
0.225815 -0.691853 6.826230
0.238580 -0.775528 6.751462
0.281715 -1.058016 7.068339
0.308655 -1.234234 7.725596
0.314124 -1.270007 7.851748
0.322299 -1.323485 8.036309
0.355629 -1.541547 8.744848
0.350304 -1.506558 8.956871
0.354315 -1.532658 9.344266
0.324439 -1.336748 9.683860
0.288638 -1.102059 9.909742
0.445664 -1.451627 0.953291
0.423931 -1.354346 0.964596
0.408682 -1.285879 1.620823
0.408784 -1.286332 1.628834
0.412110 -1.301143 1.871128
0.399426 -1.244190 2.414423
0.447703 -1.460211 2.637896
0.569808 -2.006600 3.168227
0.596212 -2.124733 3.334408
0.601218 -2.147082 3.511782
0.597686 -2.131086 4.100166
0.545478 -1.897269 4.497255
0.502233 -1.703509 5.089417
0.440725 -1.428155 5.211216
0.248741 -0.568299 6.800979
0.280059 -0.708430 6.964788
0.353298 -1.036099 7.457424
0.402868 -1.257956 7.529773
0.440288 -1.425263 8.121974
0.423778 -1.351330 8.216842
0.444044 -1.441949 8.516070
0.448522 -1.461868 8.903694
0.433622 -1.395037 9.324987
0.392991 -1.213145 9.397982
0.334068 -0.949256 9.833889
0.576036 -1.501435 0.562018
0.581807 -1.520431 1.207986
0.529317 -1.346123 1.574919
0.533571 -1.360184 1.816339
0.534850 -1.364413 1.882655
0.536176 -1.368799 1.948959
0.494241 -1.229453 2.616761
0.732717 -2.020914 2.841152
0.746111 -2.065271 3.246439
0.752573 -2.086677 3.424333
0.732752 -2.020528 4.913762
0.616648 -1.635166 4.937089
0.614542 -1.628058 5.425770
0.548409 -1.408587 5.298822
0.445849 -1.068121 5.560969
0.350592 -0.751756 6.395755
0.304671 -0.599191 7.013568
0.374424 -0.830673 7.151612
0.462833 -1.124017 7.522483
0.492346 -1.221883 7.883145
0.518118 -1.307350 8.183962
0.550034 -1.413195 8.540409
0.550618 -1.415131 8.546777
0.562155 -1.453316 8.991394
0.508069 -1.273784 9.061309
0.749645 -1.653859 0.888925
0.644026 -1.373510 0.906897
0.656431 -1.406282 1.671970
0.655393 -1.403538 1.622453
0.629951 -1.335922 2.045318
0.636662 -1.353688 2.287126
0.572044 -1.182132 2.488454
0.878489 -1.995408 3.115194
0.953880 -2.195349 3.957809
0.939824 -2.158095 3.683766
0.894273 -2.037092 4.173239
0.824479 -1.851713 4.800050
0.744766 -1.640155 4.670797
0.756100 -1.670205 4.851362
0.757039 -1.672589 5.395815
0.653939 -1.398917 5.463186
0.494663 -0.976091 5.748025
0.418890 -0.774793 6.615802
0.380257 -0.672255 6.587443
0.396224 -0.714601 6.775041
0.484963 -0.950025 7.353170
0.582254 -1.208216 7.602830
0.606630 -1.272869 7.844959
0.591837 -1.233563 8.056666
0.624013 -1.318909 8.356900
0.643920 -1.371648 8.861628
0.618187 -1.303324 8.959317
0.697169 -1.512838 9.606843
0.631830 -1.339393 9.682466
0.860521 -1.600966 0.943568
0.858449 -1.596451 0.778280
0.781452 -1.427597 1.197114
0.744687 -1.346965 1.441604
0.758270 -1.376650 1.972354
0.760254 -1.380989 2.037940
0.772197 -1.407109 2.393791
0.701103 -1.251211 2.710915
1.049754 -2.015425 3.043245
1.155659 -2.247504 3.476287
1.155877 -2.247865 4.170177
1.070666 -2.061079 4.152557
0.963580 -1.826292 4.434947
0.866286 -1.612945 4.837428
0.917610 -1.725344 5.476263
0.863052 -1.605774 5.331309
0.766378 -1.393797 5.688142
0.609818 -1.050578 5.837283
0.469833 -0.743664 6.167305
0.418083 -0.630166 6.518448
0.448772 -0.697387 6.825217
0.553618 -0.927120 7.402421
0.675180 -1.193542 7.709681
0.718691 -1.288860 8.068461
0.726992 -1.307046 8.134948
0.733297 -1.320803 8.522213
0.742068 -1.340016 8.588611
0.848035 -1.572176 9.349650
0.793280 -1.452163 9.275179
0.772840 -1.407229 10.022823
1.065636 -1.719492 1.098259
0.976851 -1.555457 1.402352
0.928136 -1.465484 1.358235
0.885127 -1.386018 1.545566
0.848226 -1.317807 1.908573
0.908592 -1.429254 2.257462
0.866195 -1.350925 2.390391
0.960259 -1.524530 3.312741
1.237729 -2.037056 3.134402
1.352780 -2.249513 3.453319
1.360419 -2.263605 3.572294
1.306279 -2.163520 4.167989
1.174567 -1.920216 4.336096
1.139205 -1.854795 5.059114
1.072753 -1.732084 4.857369
1.041868 -1.675010 5.054765
0.963626 -1.530389 5.753483
0.683498 -1.012896 6.329367
0.599905 -0.858415 6.880105
0.569020 -0.801347 7.031182
0.622203 -0.899516 7.453959
0.699950 -1.043141 7.291672
0.701319 -1.045613 7.678761
0.776092 -1.183643 8.214102
0.848362 -1.317107 8.367258
0.875676 -1.367530 8.549120
0.949338 -1.503519 9.019365
0.952950 -1.510143 9.347849
0.923806 -1.456249 9.769270
1.178594 -1.639681 1.001871
1.136279 -1.572801 1.472056
1.143652 -1.584413 1.709236
1.088624 -1.497526 1.666074
1.043564 -1.426342 1.911006
1.080758 -1.484967 2.725547
1.013174 -1.378284 2.454852
1.038117 -1.417608 2.924964
1.325439 -1.871265 3.218631
1.477648 -2.111530 3.834125
1.400244 -1.989257 4.208796
1.266688 -1.778249 5.093266
1.061510 -1.454182 5.715688
0.964497 -1.300980 5.823694
0.650509 -0.805102 6.404218
0.625453 -0.765452 7.053452
0.651414 -0.806421 7.239778
0.815791 -1.065932 7.606722
0.889497 -1.182255 8.081216
0.872000 -1.154641 7.971374
0.968848 -1.307492 8.559992
1.040880 -1.421222 8.651779
1.031980 -1.407133 8.920666
1.089650 -1.498115 9.536272
1.001433 -1.358800 9.668558
1.108528 -1.293234 0.045283
0.871780 -0.974603 0.473155
1.054401 -1.220314 0.767346
1.246287 -1.478458 1.341333
1.237848 -1.467142 1.005883
1.254109 -1.488955 1.587529
1.199006 -1.414791 1.716824
1.151577 -1.350931 2.020030
1.191431 -1.404472 2.776099
1.269768 -1.509854 3.059562
1.163895 -1.367361 3.262561
1.672030 -2.051017 4.277280
1.524297 -1.852115 5.154552
1.354688 -1.623810 5.752578
0.642368 -0.665152 6.798000
0.716141 -0.764368 7.280752
0.860978 -0.959253 7.413318
0.941225 -1.067182 7.889475
1.051506 -1.215550 8.159542
1.074100 -1.245940 8.282982
1.197763 -1.412272 8.925325
1.234203 -1.461286 9.104996
1.288681 -1.534530 9.661153
1.097174 -1.276828 9.656129
1.194144 -1.215669 0.268181
1.204969 -1.228259 1.027009
1.402743 -1.459775 1.137748
1.411598 -1.470110 1.430596
1.351052 -1.399217 1.557769
1.360473 -1.410220 1.794232
1.396143 -1.451903 2.487974
1.383463 -1.437083 2.266718
1.931344 -2.078261 4.206736
1.757988 -1.875179 5.495935
1.560618 -1.644123 5.508808
0.779600 -0.729611 7.357333
0.833486 -0.792660 7.659380
0.938503 -0.915619 7.494484
1.100086 -1.104725 7.998922
1.186146 -1.205461 8.092486
1.329869 -1.373638 8.790018
1.356126 -1.404364 8.910915
1.372942 -1.424009 9.293186
1.379781 -1.431979 9.619166
1.211938 -1.235473 9.785967
1.209822 -1.064835 0.726102
1.348090 -1.205876 0.614313
1.353561 -1.211427 0.910513
1.433082 -1.292501 1.259615
1.443618 -1.303219 1.554412
1.461978 -1.321905 1.961261
1.462284 -1.322216 1.967297
1.499919 -1.360539 2.602219
1.757815 -1.623527 3.211399
2.105658 -1.978251 3.894076
2.136606 -2.009789 4.175774
2.080961 -1.953018 4.308297
1.984217 -1.854252 5.212130
1.772945 -1.638662 6.170033
0.913742 -0.762169 7.428365
0.982468 -0.832271 7.408271
1.108220 -0.960507 7.680241
1.284735 -1.140498 8.180558
1.365376 -1.222747 8.214893
1.522461 -1.382901 8.908409
1.512526 -1.372740 9.175110
1.584690 -1.446317 9.465921
1.352791 -1.041122 0.512968
1.357781 -1.045519 0.809867
1.520276 -1.189542 1.270810
1.666297 -1.319013 1.155666
1.604246 -1.263966 1.510193
1.609495 -1.268608 1.632125
1.612460 -1.271231 1.696979
1.577091 -1.239808 2.397572
2.262552 -1.847369 4.098879
2.290554 -1.872174 4.326867
2.142099 -1.740453 5.426967
1.941566 -1.562646 5.608710
1.741636 -1.385374 5.791517
0.939952 -0.674469 7.305578
1.136174 -0.848384 7.872356
1.222156 -0.924611 7.908958
1.414069 -1.094712 8.407323
1.486907 -1.159291 8.383497
1.486409 -1.158819 8.707523
1.545168 -1.210892 8.943123
1.524858 -1.192836 9.473362
1.346475 -1.034663 9.696573
1.418329 -0.943336 0.134262
1.580113 -1.067950 0.543224
1.661294 -1.130487 0.663526
1.585788 -1.072296 0.843698
1.748756 -1.197843 1.014310
1.686153 -1.149568 1.480541
1.688905 -1.151682 1.543410
1.712818 -1.170066 2.005502
1.756085 -1.203346 2.637694
1.901379 -1.315307 2.454412
2.337573 -1.651213 4.356245
2.410794 -1.707537 5.379504
2.034540 -1.417629 5.549976
1.872653 -1.292860 6.014894
1.021034 -0.636583 7.477391
