0.118722 8.767600 -2.516616
0.120679 8.773611 -3.122931
0.124115 8.811784 -4.065484
0.126508 8.838025 -4.722618
0.308048 3.307186 3.202058
0.314269 3.363992 2.538114
0.315450 3.364772 1.742940
0.301613 3.210833 1.289968
0.829674 8.740726 -1.245197
0.833582 8.753950 -2.093577
0.840557 8.799907 -2.925738
0.850599 8.877591 -3.765633
0.849094 8.833249 -4.640837
0.888546 9.214278 -5.568556
0.641420 3.317136 2.849616
0.641736 3.314236 2.226856
0.647261 3.336193 1.333190
0.642393 3.306322 0.676186
1.614603 8.283611 -0.898556
1.687591 8.642697 -1.850214
1.682136 8.603429 -2.548333
1.689309 8.623963 -3.550258
1.703736 8.687935 -4.155468
1.711214 8.712394 -5.007461
0.904957 3.232702 4.033851
0.903930 3.224700 3.177167
0.908007 3.235508 2.445251
0.901138 3.207283 1.703974
0.888665 3.159792 1.083174
0.887773 3.151993 0.156968
2.382357 8.430787 -2.229659
2.403644 8.496737 -3.052826
2.412900 8.519814 -3.898590
1.275403 3.353953 4.201296
1.190985 3.128210 3.195355
1.192035 3.128709 2.608979
1.203247 3.154969 1.797554
1.148988 3.011038 1.344331
1.148545 3.007198 0.627852
1.160372 3.034918 -0.233051
3.092593 8.079132 -1.367677
3.127682 8.164467 -2.101448
3.140939 8.193090 -2.793230
3.155545 8.224265 -3.594873
3.155708 8.217864 -4.385688
3.266597 8.499772 -5.199406
1.476748 3.021416 3.767118
1.482257 3.030843 3.179538
1.460349 2.984316 2.616116
1.456344 2.973051 1.620946
1.425311 2.907487 0.891214
1.419714 2.894257 0.292640
3.843909 7.818380 -2.205673
3.827445 7.778036 -3.188726
3.835531 7.789817 -3.860021
-10.523577 -17.462886 3.561590
1.763434 2.904638 3.900267
1.749426 2.879785 3.225041
1.741655 2.865200 2.545314
1.736459 2.853925 1.513063
1.705293 2.801778 1.155783
1.702266 2.794869 0.411040
4.441669 7.275654 -2.416380
4.470335 7.318656 -3.096355
4.468199 7.309857 -4.007889
4.481548 7.327677 -4.702965
2.003085 2.735778 2.703948
1.999486 2.729466 2.108519
2.001221 2.730695 1.624592
1.988114 2.711187 0.930957
4.768710 6.491786 -1.232308
4.916755 6.689956 -1.909969
4.956969 6.741652 -2.511632
4.924104 6.691584 -3.580097
4.905911 6.662829 -4.389357
4.974808 6.753903 -4.901718
2.451177 2.796489 3.956356
2.171807 2.476881 3.474559
2.202384 2.510176 2.718096
2.225884 2.535136 1.852164
2.198172 2.502097 1.139339
2.189383 2.491282 0.747861
2.294759 2.609351 -0.097697
5.290067 6.010649 -1.168503
5.311785 6.030807 -2.198396
5.304409 6.019882 -2.780820
5.270189 5.976975 -3.715560
5.307816 6.016781 -4.381612
5.390218 6.105800 -5.400155
2.423793 2.302733 3.718852
2.459505 2.335256 2.988359
2.456083 2.330956 2.437974
2.424623 2.299318 1.494878
2.401328 2.276371 1.038571
2.447641 2.319159 0.457779
5.402845 5.113931 -0.895606
5.624751 5.321450 -1.552024
5.595669 5.290794 -2.364735
5.596659 5.289025 -3.067474
5.562188 5.252420 -4.120273
5.511823 5.201810 -4.923393
2.634647 2.092676 3.970167
2.647341 2.101252 3.115823
2.642452 2.095884 2.272363
2.589924 2.053288 1.729946
2.558254 2.026695 0.864670
2.606682 2.063771 0.129940
5.481533 4.336446 -0.884845
5.774238 4.565188 -1.709841
5.769448 4.559326 -2.312266
5.770407 4.557656 -3.018717
5.765980 4.551105 -3.911824
2.795581 1.844587 3.664289
2.829294 1.865750 3.015677
2.820834 1.858804 2.190448
2.763658 1.820251 1.648198
2.768207 1.821951 0.856885
2.819590 1.854527 0.111932
6.113397 4.017839 -0.841736
6.416812 4.213698 -1.909666
6.340003 4.160878 -2.625020
6.301543 4.133641 -3.229363
6.258090 4.102483 -4.039909
6.244714 4.091169 -4.825430
2.994907 1.603143 3.687966
2.971486 1.589459 2.949732
2.939765 1.571753 2.470695
2.912570 1.556160 1.784439
2.892739 1.544629 1.173934
2.931703 1.564191 0.375308
6.858397 3.649968 -2.472439
6.870929 3.655017 -2.980832
6.833929 3.632109 -3.994664
6.842684 3.634919 -4.579547
7.245083 3.845752 -5.525292
3.070342 1.302407 3.056635
3.061519 1.297960 2.579766
3.054662 1.294133 1.958435
2.973594 1.258670 1.181233
7.312857 3.084342 -2.192626
7.319660 3.085174 -2.847787
7.348564 3.094824 -3.663785
7.386371 3.108267 -4.464556
7.662374 3.221332 -5.466481
3.208145 1.035335 3.915569
3.213611 1.035994 3.152233
3.166482 1.019961 2.561589
3.153629 1.014410 1.575525
3.126575 1.004931 1.028715
3.114912 1.000396 0.474555
7.720742 2.470931 -2.285865
7.685857 2.457096 -3.160179
7.735836 2.470674 -3.950980
7.785806 2.484638 -4.609913
8.155088 2.599821 -5.501794
3.268125 0.746774 3.397900
3.246079 0.740519 2.525234
3.223934 0.734322 1.702698
3.218316 0.732445 1.274715
7.912677 1.789892 -2.181937
7.901733 1.784735 -3.079132
7.964007 1.796006 -4.018586
8.011381 1.804667 -4.699285
8.352189 1.879134 -5.491278
3.246161 0.456567 4.061150
3.286680 0.461121 3.229318
3.305996 0.462693 2.407059
3.300369 0.460908 1.685795
3.267205 0.455776 1.320121
8.289268 1.145418 -2.091601
8.294800 1.143074 -3.122214
8.222859 1.130770 -3.916801
8.165504 1.120667 -4.660623
8.562727 1.173481 -5.266584
3.358966 0.144591 3.546036
3.391989 0.144763 2.649309
3.337833 0.141548 1.987180
3.344372 0.140958 1.358479
3.364827 0.140897 0.694386
8.121431 0.333967 -1.286726
8.396301 0.343471 -1.894004
8.348205 0.339087 -2.699939
8.376924 0.337641 -3.576608
8.366786 0.334779 -4.400751
8.454853 0.336205 -5.113738
-20.542712 0.728848 3.508510
3.345768 -0.130047 3.673384
3.375210 -0.132320 2.858718
3.440117 -0.136145 1.956650
3.437866 -0.136676 1.517596
3.359579 -0.134384 0.921859
8.205447 -0.334265 -0.987087
8.400789 -0.344655 -1.799742
8.368396 -0.346219 -2.764490
8.423033 -0.350189 -3.337949
8.374454 -0.351129 -4.327489
8.374140 -0.353540 -5.145724
3.348163 -0.452347 2.849616
3.383708 -0.458339 2.009867
3.368585 -0.457282 1.305866
3.338463 -0.454149 0.621587
8.163466 -1.115358 -0.904310
8.379090 -1.147572 -1.812570
8.302160 -1.139734 -2.701694
8.353524 -1.148638 -3.316988
8.310257 -1.145548 -4.264682
8.273988 -1.143270 -5.173781
3.263898 -0.732903 3.921749
3.274340 -0.736035 3.361516
3.257928 -0.733708 2.388875
3.221362 -0.726311 1.784439
3.222563 -0.727408 1.192980
3.289554 -0.743658 0.403174
8.232836 -1.869126 -2.106167
8.229525 -1.870874 -2.916658
8.188251 -1.863883 -3.694129
8.047422 -1.835097 -4.767987
8.448888 -1.928081 -5.280504
3.139461 -1.013165 3.429158
3.162222 -1.021689 2.607029
3.186172 -1.030524 1.850779
3.159151 -1.022426 1.402896
3.136622 -1.016526 0.429510
3.066355 -0.994771 -0.296299
7.944284 -2.580275 -1.304774
8.033590 -2.611514 -2.011809
8.004576 -2.604806 -2.872861
7.950310 -2.590083 -3.806828
7.970203 -2.598152 -4.317022
8.141062 -2.656283 -5.105885
-18.800230 7.765314 3.576330
3.130678 -1.305390 3.733500
3.113730 -1.299147 3.179538
3.093502 -1.291634 2.554410
3.054093 -1.276539 1.630030
3.025978 -1.265481 1.155783
3.043807 -1.274508 0.093518
7.723054 -3.241919 -2.386060
7.698325 -3.233849 -3.099270
7.657472 -3.219122 -3.854127
2.966215 -1.599274 2.949732
2.984718 -1.610175 2.365131
2.977922 -1.607634 1.651905
2.957525 -1.597727 0.949153
6.996225 -3.787063 -1.218721
7.241758 -3.921692 -1.739417
7.287572 -3.949297 -2.569386
7.234858 -3.923295 -3.331069
7.143183 -3.876982 -4.351472
7.150172 -3.883206 -5.091705
2.838747 -1.831849 3.851858
2.828541 -1.826241 3.252341
2.832728 -1.830556 2.272363
2.777832 -1.796042 1.675449
2.781764 -1.799873 0.884139
2.790880 -1.807033 0.111764
6.327209 -4.100067 -0.887760
6.665105 -4.321263 -1.549894
6.673054 -4.329049 -2.318286
6.713353 -4.358664 -3.332267
6.712749 -4.360887 -4.096168
2.596306 -2.032127 3.447319
2.646927 -2.072981 2.747423
2.663032 -2.087513 1.661009
2.545220 -1.996258 1.009044
6.003624 -4.720504 -2.175316
6.026044 -4.741610 -3.157906
6.068034 -4.777304 -3.909743
6.046764 -4.762948 -4.583806
6.226476 -4.907080 -5.327247
2.444838 -2.296483 3.618813
2.461835 -2.313910 2.849616
2.427526 -2.283018 2.123547
2.451736 -2.306984 1.495998
2.452661 -2.309485 0.639787
5.281676 -4.979978 -1.084491
5.325932 -5.025030 -1.983558
5.333304 -5.034293 -2.607602
5.321569 -5.026162 -3.405636
5.297131 -5.006806 -4.420667
5.336491 -5.046700 -5.162330
2.254651 -2.536833 3.715287
2.229106 -2.508811 3.361516
2.222901 -2.504098 2.261571
2.190497 -2.468490 1.820765
2.180499 -2.459006 0.947020
2.204690 -2.487735 0.248082
4.823662 -5.453279 -2.277133
4.794466 -5.423920 -3.183338
4.769419 -5.399095 -4.061173
1.985194 -2.665135 3.183883
2.011775 -2.702026 2.665532
2.014110 -2.707071 1.843063
1.969795 -2.648817 1.265634
4.519938 -6.094738 -2.162180
4.518383 -6.096083 -2.903603
4.504395 -6.080930 -3.707339
4.481684 -6.053879 -4.491043
4.677164 -6.321307 -5.244545
1.715477 -2.819959 3.410995
1.752081 -2.882273 2.610929
1.744816 -2.871730 2.079651
1.661731 -2.737112 1.234673
4.043297 -6.679884 -2.247280
4.025528 -6.654867 -3.042650
3.998546 -6.614633 -3.848014
3.994442 -6.611708 -4.566249
4.177541 -6.918651 -5.306573
1.477519 -2.995190 3.967213
1.494201 -3.031673 3.115823
1.466674 -2.977202 2.661550
1.459060 -2.964553 1.748111
1.450304 -2.949221 0.947020
1.455100 -2.961358 0.175248
3.499787 -7.139396 -2.370036
3.494071 -7.132950 -3.170533
3.494856 -7.139366 -3.912242
1.209127 -3.139195 3.527840
1.224287 -3.181437 2.787972
1.211686 -3.150841 2.226856
1.194643 -3.108405 1.731243
1.188039 -3.094689 0.820544
0.993655 -2.590290 0.208236
2.777568 -7.249836 -0.923975
2.896619 -7.568312 -1.879226
2.898833 -7.579551 -2.547275
2.880213 -7.538152 -3.442649
2.885587 -7.558599 -4.231558
2.916230 -7.644548 -4.938868
-5.713340 19.542121 3.767796
0.941730 -3.268987 2.869961
0.930219 -3.231262 2.417957
0.922263 -3.207789 1.576706
0.915058 -3.186557 0.802374
0.909742 -3.170332 0.338704
2.143076 -7.483482 -1.089462
2.267034 -7.922064 -1.635139
2.248818 -7.869125 -2.635587
2.251257 -7.885612 -3.380990
2.267056 -7.949993 -4.230009
2.268795 -7.961865 -4.771079
0.641662 -3.264242 3.864303
0.655080 -3.339853 2.851743
0.647618 -3.305484 2.336066
0.636731 -3.256068 1.466501
0.635494 -3.254734 0.766032
0.631477 -3.237070 0.356865
1.588989 -8.190913 -2.499542
1.606243 -8.290338 -3.170234
1.597848 -8.260620 -4.034290
1.591620 -8.241360 -4.859840
0.340370 -3.363725 2.822307
0.335031 -3.321792 2.023548
0.336921 -3.347073 1.550592
0.336177 -3.353059 0.585186
0.817740 -8.213661 -1.259646
0.846170 -8.515755 -1.806763
0.840238 -8.485175 -2.754255
0.837917 -8.482190 -3.420148
0.829814 -8.430886 -4.422636
0.839887 -8.552647 -5.067071
0.057683 -3.701399 4.299540
0.050337 -3.322862 3.183883
0.049957 -3.329935 2.827184
0.049005 -3.334929 2.078095
0.047112 -3.272064 1.355426
0.045814 -3.272360 0.392892
0.044591 -3.248603 -0.269320
0.113335 -8.476982 -1.309024
0.111528 -8.558085 -2.260236
0.108385 -8.502998 -3.058855
0.106047 -8.471700 -3.701311
0.104602 -8.540637 -4.473246
0.105699 -8.835955 -5.325367
-0.252626 -3.316228 3.156620
-0.257431 -3.368123 2.547217
-0.256899 -3.346127 1.714347
-0.248580 -3.225395 0.999980
-0.660870 -8.467149 -1.572341
-0.668031 -8.530834 -2.291781
-0.671883 -8.547873 -3.117394
-0.672289 -8.520309 -3.963259
-0.673196 -8.511023 -4.504776
-0.708152 -8.917641 -5.448576
-0.544425 -3.266690 3.302001
-0.555707 -3.328371 2.592726
-0.552659 -3.303781 1.832590
-0.538359 -3.212295 1.091431
-1.408954 -8.359840 -1.309024
-1.425279 -8.439303 -2.260236
-1.428763 -8.448929 -2.863011
-1.431666 -8.450474 -3.721407
-1.428269 -8.416041 -4.515285
-1.497245 -8.807850 -5.349570
-0.833638 -3.182781 3.961305
-0.841645 -3.209468 3.238404
-0.850887 -3.241094 2.572600
-0.844933 -3.214531 1.849394
-0.821712 -3.122708 1.181233
-2.171374 -8.219294 -1.351873
-2.189364 -8.277203 -2.207657
-2.188826 -8.264376 -3.115381
-2.188124 -8.253717 -3.792581
-2.184645 -8.232733 -4.459860
-2.287013 -8.605738 -5.561842
-1.129039 -3.155649 3.867183
-1.138948 -3.181349 3.382229
-1.135996 -3.168943 2.363365
-1.118267 -3.116467 1.611862
-1.118469 -3.114640 1.020403
-1.122774 -3.124750 0.557050
-2.884301 -8.000477 -2.330817
-2.883247 -7.990037 -3.174343
-2.882555 -7.982490 -3.808676
-2.890467 -7.995664 -4.798908
-3.043971 -8.415053 -5.427334
-1.434113 -3.091020 3.818284
-1.426649 -3.072364 3.033887
-1.410293 -3.035798 2.618073
-1.404096 -3.019581 1.731243
-1.427351 -3.067366 1.059116
-1.433677 -3.079057 0.485445
-3.575939 -7.659025 -2.359256
-3.580245 -7.663747 -2.991971
-3.567894 -7.630587 -3.939996
-3.580871 -7.652130 -4.824181
-3.782806 -8.078206 -5.629070
-1.696359 -2.929813 2.767684
-1.700778 -2.935211 1.962836
-1.698666 -2.930526 1.588173
-1.690181 -2.913369 0.676186
-4.086196 -7.032253 -1.130748
-4.188010 -7.203489 -1.806685
-4.166766 -7.162184 -2.611151
-4.165121 -7.155033 -3.345848
-4.127790 -7.084851 -4.380812
-4.167292 -7.147962 -5.195069
-1.927505 -2.772028 3.409536
-1.926227 -2.768993 2.913329
-1.910119 -2.743531 1.950809
-1.907288 -2.738586 1.585797
-1.926293 -2.763598 0.648887
-4.598654 -6.588279 -1.086295
-4.669018 -6.685076 -1.871284
-4.660237 -6.668717 -2.611345
-4.639576 -6.633584 -3.706957
-4.617613 -6.599019 -4.332590
-4.690418 -6.698942 -5.160797
-2.158801 -2.582323 2.995230
-2.172194 -2.596363 2.081206
-2.148913 -2.566970 1.349384
-2.158540 -2.577565 0.930957
-4.920213 -5.865547 -1.198824
-5.069093 -6.040729 -1.723511
-5.047186 -6.009951 -2.778378
-5.054832 -6.016854 -3.277870
-5.026857 -5.979272 -4.252756
-5.059119 -6.014850 -4.897176
-2.387762 -2.385734 3.418638
-2.404525 -2.400897 2.612879
-2.353476 -2.349202 2.232616
-2.369930 -2.363922 1.358479
-2.385049 -2.377699 0.694386
-5.356992 -5.333154 -1.093220
-5.382589 -5.354779 -2.080171
-5.375270 -5.345210 -2.666016
-5.369128 -5.336178 -3.418110
-5.389119 -5.353193 -4.155847
-5.396024 -5.357078 -4.926641
15.733832 13.246810 3.680743
-2.542108 -2.123983 3.292916
-2.570473 -2.146438 2.599885
-2.565733 -2.141352 1.968995
-2.491931 -2.078790 1.408807
-2.495001 -2.079525 0.365396
-2.726419 -2.271090 -0.326644
-5.874750 -4.889338 -1.547916
-5.893034 -4.902496 -2.115131
-5.941238 -4.939166 -3.059213
-6.004004 -4.988526 -3.835004
-5.999098 -4.981711 -4.585569
-6.105765 -5.067812 -5.275526
-2.745157 -1.904088 3.958121
-2.786204 -1.930949 3.006571
-2.729875 -1.891304 2.634291
-2.722073 -1.884221 1.620946
-2.720584 -1.882255 1.056738
-2.713962 -1.876258 0.202491
-6.530008 -4.505776 -2.244352
-6.571653 -4.531927 -2.986204
-6.637081 -4.573337 -4.049633
-2.979980 -1.692362 4.079321
-2.870971 -1.629044 3.154262
-2.919098 -1.655324 2.508930
-2.899553 -1.643623 2.114457
-2.827842 -1.601712 1.290938
-2.826658 -1.599626 0.374463
-3.024318 -1.710585 -0.170727
-7.122599 -4.025228 -1.194705
-7.182460 -4.056391 -1.980497
-7.182854 -4.053841 -2.797232
-7.224501 -4.074201 -3.726327
-7.198698 -4.057086 -4.483283
-7.429852 -4.185048 -5.186670
-3.001027 -1.362261 3.208747
-3.054198 -1.385374 2.536219
-3.050470 -1.382634 1.841684
-3.030883 -1.372838 1.230230
-3.025346 -1.369277 0.529789
-2.937644 -1.328441 -0.250997
-7.567427 -3.418874 -1.271737
-7.650646 -3.453844 -2.072022
-7.694464 -3.470914 -2.895692
-7.636815 -3.442426 -3.649874
-7.565662 -3.407894 -4.402650
-7.857356 -3.536519 -5.273739
-3.125951 -1.096381 3.292916
-3.143481 -1.101390 2.507055
-3.132135 -1.096597 1.940263
-3.047955 -1.066059 1.181233
-8.026978 -2.798745 -1.362373
-8.068307 -2.810846 -2.080105
-8.068397 -2.808332 -2.871671
-8.044606 -2.797209 -3.758623
-7.988292 -2.774436 -4.761263
-8.401614 -2.915868 -5.462862
-3.247873 -0.822229 4.088426
-3.207200 -0.810895 3.338336
-3.264029 -0.824338 2.692831
-3.245034 -0.818401 1.887156
-3.132136 -0.788928 1.154047
-8.343749 -2.093216 -1.323801
-8.451587 -2.117506 -2.195116
-8.457582 -2.116850 -2.874115
-8.427830 -2.106412 -3.817822
-8.428869 -2.103816 -4.725613
-8.837976 -2.203427 -5.547489
-3.325993 -0.539836 3.225041
-3.299130 -0.534269 2.352506
-3.258423 -0.526937 1.811684
-3.195985 -0.515634 0.918406
-8.677126 -1.389628 -2.199362
-8.680637 -1.387953 -2.911404
-8.616258 -1.374442 -3.938917
-8.619431 -1.372262 -4.805614
-9.148192 -1.454332 -5.525730
-3.391955 -0.233694 3.660642
-3.376163 -0.231791 3.070305
-3.342400 -0.228805 2.581695
-3.302943 -0.224797 1.620946
-3.348741 -0.227207 1.112904
-3.366836 -0.227140 0.184744
-8.834972 -0.588016 -2.341369
-8.764365 -0.580278 -3.315356
-8.802300 -0.580733 -3.980799
-8.871929 -0.582451 -4.912023
-3.389309 0.059321 3.521363
-3.386909 0.059953 3.033887
-3.375245 0.060861 2.226856
-3.335877 0.061003 1.603980
-3.366806 0.062807 0.712585
-8.506791 0.164632 -1.131361
-8.853652 0.173605 -1.863191
-8.917707 0.176869 -2.505106
-8.963282 0.180094 -3.245260
-8.962202 0.182630 -4.059860
-8.991237 0.186462 -5.097874
-3.336871 0.368985 3.591524
-3.359537 0.372551 2.831410
-3.322480 0.369653 1.950809
-3.329579 0.371367 1.285723
-3.367773 0.376215 0.867919
-8.648726 0.973317 -1.295565
-8.891991 1.002924 -2.006073
-8.859844 1.002160 -2.910147
-8.827983 1.000703 -3.591186
-8.884203 1.009203 -4.272314
-9.067721 1.033049 -5.234713
-3.359897 0.651803 4.115782
-3.212101 0.624019 3.444744
-3.299216 0.642370 2.436153
-3.279136 0.639086 1.987180
-3.142729 0.613505 1.234673
-3.138230 0.613763 0.392007
-3.655041 0.715750 -0.190396
-8.706047 1.708870 -1.471045
-8.803348 1.729788 -2.039243
-8.808948 1.734253 -3.085842
-8.827151 1.739901 -3.730319
-8.778953 1.733344 -4.649727
-9.171960 1.812801 -5.264550
-3.212546 0.957780 3.637004
-3.261306 0.973463 2.851743
-3.233940 0.966181 2.235958
-3.162462 0.945420 1.811684
-3.152901 0.944044 0.765457
-3.136414 0.939864 0.229561
-8.127787 2.439711 -1.036171
-8.529085 2.562821 -1.854976
-8.553077 2.571535 -2.314031
-8.599745 2.588979 -3.353651
-8.570947 2.583011 -4.176725
-8.622513 2.600564 -4.796932
-3.108004 1.212369 3.782496
-3.146100 1.228182 3.143131
-3.128215 1.222188 2.472543
-3.090490 1.208946 1.448329
-3.083708 1.207027 0.947731
-3.094798 1.212345 0.284433
-7.882462 3.091465 -0.783751
-8.268401 3.246265 -1.811372
-8.312931 3.265441 -2.314031
-8.352354 3.283676 -3.128359
-8.302360 3.267691 -4.216520
-8.336656 3.283682 -4.963923
-3.049146 1.521115 3.818284
-3.012440 1.503665 3.252341
-3.001452 1.499305 2.518027
-2.981849 1.490828 1.658524
-2.998734 1.499959 1.212961
-2.995002 1.499680 0.184606
-7.893268 3.961199 -2.308098
-7.891835 3.963038 -3.042236
-7.870983 3.956228 -4.097236
-7.951317 3.998439 -4.633192
-2.893149 1.782149 3.678858
-2.867835 1.767268 3.234141
-2.873706 1.772538 2.217754
-2.817265 1.738673 1.620946
-2.840284 1.754072 0.884803
-2.849292 1.760757 0.193700
-7.505204 4.647481 -2.371632
-7.455762 4.619768 -3.165226
-7.439693 4.613366 -4.144833
-7.508733 4.658324 -4.743800
-2.714929 2.026475 3.769923
-2.705316 2.020358 3.152233
-2.689817 2.009931 2.481640
-2.653658 1.984480 1.557355
-2.631271 1.968755 0.956098
-2.699564 2.020754 0.439578
-6.536870 4.897678 -0.725597
-6.909073 5.180436 -1.747059
-6.920285 5.191316 -2.392585
-6.919414 5.193342 -3.091815
-6.884729 5.171066 -4.076238
-6.853063 5.150179 -4.839743
-2.507102 2.253245 2.299666
-2.487112 2.236916 1.413041
-2.500138 2.249616 0.885466
-6.120209 5.514764 -0.946022
-6.285312 5.666569 -1.697198
-6.219693 5.611641 -2.743559
-6.216853 5.611703 -3.396418
-6.231542 5.628145 -4.191391
-6.265596 5.661550 -4.855635
-2.309943 2.482257 3.512257
-2.319477 2.493910 2.824413
-2.303542 2.478230 2.108519
-2.275409 2.449273 1.458507
-2.291173 2.467763 0.712585
-5.379594 5.801814 -0.989679
-5.475495 5.908843 -1.835252
-5.480809 5.917562 -2.533560
-5.453538 5.891576 -3.344821
-5.448288 5.889361 -4.161067
-5.524641 5.974952 -4.890855
-2.067263 2.662311 3.464143
-2.064270 2.659528 2.986131
-2.049582 2.642978 1.923530
-2.061815 2.659660 1.523295
-2.094233 2.703635 0.586063
-4.729587 6.114520 -1.221789
-4.741768 6.133358 -1.892872
-4.754923 6.154192 -2.721379
-4.728346 6.123449 -3.516302
-4.705994 6.098190 -4.323844
-4.748730 6.157295 -5.148423
-1.825150 2.820073 3.573330
-1.870265 2.892160 2.662384
-1.824895 2.823533 2.052357
-1.826717 2.827772 1.495998
-1.851604 2.867926 0.868568
-4.188477 6.498713 -1.180631
-4.208911 6.534617 -1.986838
-4.204730 6.532539 -2.834689
-4.235128 6.583785 -3.608117
-4.264230 6.633564 -4.480972
-4.373894 6.807080 -5.053926
-1.565977 2.993748 2.849616
-1.564726 2.993300 2.199550
-1.573130 3.011962 1.342298
-1.581455 3.029870 0.695426
-3.644821 6.994086 -0.999359
-3.723758 7.150008 -1.710705
-3.717144 7.143654 -2.720384
-3.695872 7.107853 -3.531450
-3.692400 7.105933 -4.295840
-3.749413 7.219426 -4.911655
-1.296438 3.094661 3.609717
-1.304773 3.117310 2.840513
-1.302390 3.113785 2.235958
-1.297646 3.104994 1.523295
-1.297242 3.106846 0.739883
-3.119947 7.486532 -1.046865
-3.190903 7.663598 -1.930859
-3.191519 7.670674 -2.654642
-3.205613 7.710255 -3.394214
-3.192803 7.685545 -4.183253
-3.226752 7.772617 -4.883933
6.155697 -19.403477 3.618442
-1.008308 3.218781 3.188639
-1.003780 3.207786 2.436153
-0.994581 3.181949 1.658524
-0.986545 3.159196 1.011320
-0.974963 3.126475 0.048076
-2.411693 7.744362 -1.026078
-2.521000 8.102543 -1.740283
-2.510290 8.077414 -2.654523
-2.497532 8.044140 -3.421783
-2.501974 8.066356 -4.207302
-2.513257 8.111442 -5.075048
-0.723619 3.284774 3.979265
-0.725289 3.297656 3.152233
-0.722688 3.291186 2.317866
-0.712978 3.250399 1.776688
-0.714200 3.261934 0.848436
-0.709995 3.245353 0.438919
-1.826554 8.388437 -2.240654
-1.823254 8.388422 -3.298321
-1.819373 8.379656 -3.934258
2.585468 -20.163079 3.614040
-0.414191 3.319538 3.700665
-0.419022 3.366381 2.979253
-0.414774 3.338796 2.390662
-0.406338 3.277620 1.775357
-0.403133 3.260381 0.992407
-0.413030 3.348161 0.312163
-1.052186 8.602438 -2.541773
-1.047373 8.585269 -3.420663
-1.050898 8.628979 -4.010257
-1.037898 8.546019 -4.951275
-0.126035 3.355822 3.582427
-0.124743 3.345851 2.911155
-0.122045 3.298096 2.230945
-0.122583 3.348332 1.276628
-0.124341 3.409981 0.923240
-0.299254 8.380466 -1.043948
-0.308232 8.700573 -1.845451
-0.305801 8.716993 -2.821318
-0.302992 8.704013 -3.585649
-0.301870 8.744452 -4.411776
-0.305422 8.909394 -5.119990
0.177368 3.364847 3.225041
0.176738 3.332215 2.425241
0.176255 3.303645 1.666365
0.173362 3.231646 0.954662
0.479680 8.749596 -2.197947
0.483109 8.756831 -3.175799
0.487196 8.789531 -3.914762
0.485355 3.365543 2.888178
0.481012 3.330556 2.381563
0.475472 3.283494 1.466501
0.472439 3.256253 0.801772
0.470608 3.239272 0.338450
1.263095 8.633972 -2.397219
1.261501 8.607735 -3.116910
1.277659 8.698875 -4.020567
1.285193 8.728298 -5.054014
0.771172 3.264599 2.838393
0.775196 3.276411 1.970469
0.781922 3.301743 1.460692
0.782606 3.300269 0.740437
1.957323 8.227532 -1.171844
2.040235 8.567339 -1.829048
2.036075 8.537359 -2.761507
2.038231 8.538164 -3.378811
2.040251 8.536133 -4.168642
2.069698 8.646988 -5.106123
1.036519 3.190038 3.379708
1.032387 3.175697 3.011179
1.035571 3.182283 2.288853
1.052641 3.230496 1.351406
1.051852 3.225196 0.713119
2.619554 8.011796 -1.265405
2.731061 8.347534 -1.806718
2.736033 8.355411 -2.539394
2.734183 8.341396 -3.378811
2.729044 8.315702 -4.390640
2.767970 8.427695 -5.071070
1.360283 3.113830 2.915503
1.345308 3.078009 2.463446
1.334369 3.050518 1.740332
1.330408 3.038075 0.747861
1.324145 3.021954 0.211572
3.509519 7.989002 -2.397219
3.521074 8.009755 -3.120924
3.531455 8.024702 -4.253229
3.539005 8.036294 -4.984111
1.570921 2.910303 3.347420
1.575484 2.916922 2.706980
1.582772 2.927709 1.767599
1.536628 2.840672 1.163109
4.103495 7.562071 -2.347387
4.118636 7.585625 -3.026615
4.138124 7.616882 -3.752101
1.847062 2.797620 3.397900
1.857732 2.811899 2.647332
1.856392 2.808199 1.979568
1.869615 2.827093 1.542647
1.873452 2.830541 0.612946
4.561881 6.882298 -1.176185
4.697080 7.081766 -2.003923
4.750286 7.159067 -2.536854
4.753154 7.158142 -3.489932
4.722463 7.107347 -4.323279
4.758565 7.157721 -5.056546
2.071454 2.587153 4.176250
2.062042 2.573815 3.438238
2.101429 2.621504 2.774716
2.108762 2.628753 1.915870
2.003215 2.495854 1.279944
5.167889 6.424663 -1.509991
5.193357 6.452753 -2.265024
5.190352 6.445106 -3.093229
5.222326 6.482071 -3.676495
5.237216 6.497010 -4.429275
5.364171 6.649804 -5.435203
2.322026 2.440877 3.933769
2.335686 2.453430 3.033887
2.312955 2.427874 2.188811
2.262629 2.374173 1.737725
2.264931 2.375321 1.092251
2.311365 2.422506 0.339212
5.525057 5.778778 -2.466413
5.532727 5.784453 -3.029622
5.519018 5.766784 -3.831950
2.505267 2.203660 3.994488
2.499288 2.196854 3.138443
2.538739 2.230400 2.529011
2.534305 2.225291 1.870367
2.461402 2.160247 1.291908
5.750374 5.035667 -1.537650
5.770476 5.051359 -2.053498
5.775215 5.052867 -2.765566
5.756955 5.033573 -3.663374
5.735197 5.011778 -4.417898
5.811847 5.075876 -5.213679
2.691964 1.970757 3.552485
2.700806 1.976173 2.929343
2.757811 2.016231 1.982529
2.777848 2.030065 1.517596
2.741840 2.002124 0.576518
5.862229 4.274500 -1.216576
5.921025 4.315093 -1.902128
5.914136 4.306912 -2.851895
5.903676 4.296821 -3.598960
5.924943 4.310701 -4.084917
5.920724 4.304710 -4.972349
-17.435747 -10.458952 3.624588
2.860343 1.702774 3.846126
2.921821 1.737828 2.897287
2.907036 1.727809 2.135830
2.845053 1.690204 1.648198
2.825779 1.677663 0.956098
2.836699 1.683139 0.320542
6.270003 3.716262 -0.922526
6.571566 3.892602 -1.671094
6.484907 3.838313 -2.590829
6.492952 3.841330 -3.137225
6.509421 3.848305 -4.006975
6.495017 3.837257 -4.804296
3.011795 1.444310 3.746129
3.065841 1.468912 2.897287
3.027195 1.449795 2.499834
2.993611 1.432123 1.448329
2.946995 1.408790 0.755811
3.000177 1.433176 0.075412
6.669566 3.183205 -0.853624
6.988841 3.333430 -1.552024
7.037776 3.353982 -2.443151
6.998608 3.332480 -3.351613
6.980390 3.321557 -4.076989
7.048478 3.351329 -4.932003
3.150633 1.204651 2.913329
3.189875 1.218297 2.009867
3.166142 1.208552 1.551752
3.142908 1.198670 0.867269
7.204208 2.741258 -1.128434
7.436490 2.827504 -1.830435
7.442804 2.827571 -2.589037
7.393367 2.805807 -3.563553
7.448782 2.824854 -4.217756
7.568102 2.868221 -4.842944
3.219121 0.908930 2.947530
3.247272 0.915879 2.254161
3.272194 0.921530 1.305866
3.235516 0.910702 0.958251
7.514696 2.108319 -1.234527
7.781744 2.181509 -1.815686
7.769546 2.176047 -2.492035
7.835045 2.192076 -3.259993
7.797720 2.178857 -4.179616
7.760199 2.165549 -5.123296
3.306401 0.619873 3.527840
3.325454 0.622411 2.794997
3.340420 0.624460 2.264954
3.299427 0.616015 1.705251
3.286627 0.612183 0.675680
7.702488 1.429291 -1.101221
8.047992 1.491498 -1.747558
8.035237 1.487044 -2.446521
8.098482 1.496298 -3.268510
8.159888 1.504920 -4.180540
8.025148 1.477298 -5.105420
-20.200168 -1.978915 3.601630
3.323319 0.314355 3.764313
3.387709 0.319176 2.860852
3.355440 0.315374 2.308766
3.315999 0.310863 1.722154
3.298912 0.308113 0.884139
3.061731 0.284755 -0.060450
7.856433 0.728395 -0.865037
8.271766 0.764085 -1.815955
8.313094 0.766077 -2.426342
8.309557 0.762670 -3.456960
8.305486 0.760631 -4.016001
8.274187 0.755040 -4.934010
-20.398261 -0.234122 3.731274
3.376375 0.025904 3.152233
3.363716 0.024772 2.399761
3.343035 0.023327 1.458507
3.287469 0.022200 0.910710
3.323866 0.021560 0.266257
7.935548 0.047601 -1.042059
8.408207 0.048228 -1.789268
8.434873 0.045848 -2.631839
8.371367 0.043964 -3.143143
8.337946 0.041129 -4.036911
8.330937 0.038968 -4.756358
-20.246476 1.687229 3.510394
3.363538 -0.291435 3.648816
3.366367 -0.292406 3.124926
3.345817 -0.291519 2.472543
3.274419 -0.286486 1.592499
3.267714 -0.286505 1.146707
3.312035 -0.291844 0.093588
8.432903 -0.751112 -2.539144
8.419538 -0.751514 -3.065381
8.354297 -0.748630 -4.042147
3.222571 -0.556674 4.124669
3.250592 -0.562469 3.429158
3.283862 -0.569546 2.479786
3.278564 -0.569603 1.776688
3.180585 -0.553355 1.199356
8.409865 -1.474197 -2.185209
8.297716 -1.457363 -3.105312
8.194930 -1.441909 -3.961148
8.233343 -1.450325 -4.515843
8.581351 -1.514482 -5.480755
3.243779 -0.881269 3.997462
3.262973 -0.887772 3.097617
3.221506 -0.877477 2.397967
3.205230 -0.873780 1.876656
3.196030 -0.872664 0.893224
3.205801 -0.876133 0.329871
8.173650 -2.242532 -2.392266
8.140410 -2.235941 -3.201686
8.118955 -2.232441 -3.971430
3.135664 -1.141936 3.773405
3.155809 -1.149916 3.334225
3.128534 -1.141161 2.516145
3.096828 -1.130505 1.884331
3.040112 -1.111145 0.936534
3.025021 -1.106221 0.519140
7.964314 -2.921727 -2.266342
7.945901 -2.917070 -2.918549
7.858733 -2.888349 -3.945360
7.801599 -2.869743 -4.701043
8.155646 -3.002304 -5.466699
2.987195 -1.419565 4.027848
3.016435 -1.434612 3.268100
2.994847 -1.425213 2.688809
3.007213 -1.432578 1.713064
2.935327 -1.399023 1.245599
2.928676 -1.396824 0.592061
7.572931 -3.621068 -2.072022
7.560372 -3.618200 -3.017556
7.488782 -3.586806 -3.885465
7.487532 -3.588453 -4.572676
7.752148 -3.717955 -5.410609
2.861920 -1.677123 3.946088
2.875976 -1.686332 3.331739
2.872764 -1.685753 2.507055
2.867440 -1.683714 1.822130
2.812779 -1.653037 0.910026
2.799518 -1.646036 0.401664
7.050698 -4.154869 -2.248705
7.102196 -4.188304 -3.153798
7.048769 -4.159079 -3.820788
6.965701 -4.112955 -4.673640
7.304681 -4.315179 -5.319802
2.768396 -1.993823 3.781840
2.739350 -1.973966 3.152233
2.713373 -1.956670 2.307041
2.682536 -1.935489 1.675449
2.665433 -1.924426 0.910710
2.692503 -1.944678 0.493442
6.088339 -4.402421 -0.938321
6.409958 -4.637655 -1.703970
6.412708 -4.642505 -2.513258
6.473711 -4.688964 -3.164336
6.474847 -4.692529 -3.938093
2.555992 -2.196509 3.703423
2.584905 -2.222518 3.072595
2.554347 -2.197612 2.317866
2.510924 -2.161598 1.566440
2.488201 -2.142979 1.037792
2.536277 -2.185629 0.357401
5.555788 -4.792589 -0.974674
5.783259 -4.991236 -1.640301
5.786711 -4.997172 -2.443741
5.778542 -4.992994 -3.227671
5.779136 -4.997107 -4.212668
5.794324 -5.011912 -4.673237
2.348728 -2.418179 3.915569
2.377165 -2.449240 3.027037
2.355444 -2.427935 2.483495
2.315746 -2.388361 1.794865
2.287792 -2.361267 0.901632
2.295383 -2.370650 0.111680
4.894782 -5.059082 -0.886040
5.085032 -5.258521 -1.615975
5.071554 -5.247616 -2.400726
5.070659 -5.249290 -3.075723
5.058894 -5.240731 -4.018477
2.143421 -2.636685 3.678858
2.139116 -2.632923 2.979253
2.127115 -2.619758 2.245060
2.094951 -2.581016 1.840306
2.070711 -2.553128 0.919787
2.076251 -2.560960 0.456751
4.412023 -5.448378 -1.026753
4.587753 -5.667689 -1.574215
4.572386 -5.652391 -2.439778
4.574209 -5.657250 -3.053338
4.545864 -5.626295 -4.023273
1.855702 -2.757911 3.174796
1.891594 -2.813236 2.383343
1.877898 -2.793863 1.979568
1.816888 -2.705353 1.037012
4.234861 -6.322624 -2.214901
4.233598 -6.324332 -2.936300
4.209055 -6.291395 -3.686848
4.186498 -6.261643 -4.491043
4.381879 -6.557544 -5.258307
1.624568 -2.908176 3.359009
1.662831 -2.978404 2.760638
1.648018 -2.953667 2.126726
1.651887 -2.962431 1.488011
1.640277 -2.944259 0.557886
1.531707 -2.751515 -0.241390
3.720582 -6.689159 -1.250168
3.745777 -6.739931 -2.200212
3.744482 -6.741772 -2.923515
3.765124 -6.782594 -3.559811
3.781895 -6.817568 -4.386779
3.888691 -7.013686 -5.023326
1.332709 -3.033718 3.283832
1.345757 -3.065731 2.608979
1.330987 -3.034033 2.031118
1.306879 -2.982089 1.127708
3.199641 -7.325281 -2.071189
3.189316 -7.308970 -3.089775
3.186614 -7.307042 -3.684496
3.193516 -7.328120 -4.420198
3.347544 -7.687787 -5.306108
1.097137 -3.183000 3.951969
1.086482 -3.154777 3.304467
1.091046 -3.171278 2.536219
1.083013 -3.151501 1.685795
1.073671 -3.126646 1.129402
1.061802 -3.094918 0.447334
2.620807 -7.665112 -2.379385
2.617065 -7.661019 -3.141470
2.636359 -7.725461 -4.028993
0.801485 -3.255060 3.637004
0.815023 -3.313576 3.036149
0.801564 -3.262130 2.463446
0.787899 -3.210781 1.711781
0.782092 -3.191309 0.974252
0.790227 -3.228482 0.284433
1.965541 -8.064309 -2.391851
1.967485 -8.082171 -3.180861
1.975299 -8.125146 -4.049991
1.957726 -8.064861 -5.007130
0.504447 -3.303727 3.497934
0.505738 -3.318442 2.811104
0.503894 -3.311513 2.243382
0.508488 -3.347538 1.615487
0.504639 -3.331542 0.603387
1.210089 -8.021526 -0.984505
1.254645 -8.334907 -1.884755
1.246358 -8.299744 -2.870997
1.249954 -8.338385 -3.602209
1.246542 -8.331620 -4.395969
1.264821 -8.468122 -5.116402
-1.320900 20.453370 3.563154
0.221389 -3.615811 3.917196
0.201136 -3.295559 3.401914
0.204679 -3.373816 2.519909
0.203492 -3.370982 1.788452
0.195254 -3.247481 1.200258
0.193943 -3.236420 0.718981
0.209282 -3.517363 -0.308117
0.499166 -8.438003 -1.308174
0.502147 -8.528573 -2.090616
0.496966 -8.489989 -3.048354
0.493838 -8.474701 -3.787685
0.492051 -8.478562 -4.456984
0.505035 -8.753394 -5.456048
-0.100657 -3.507754 4.024446
-0.095549 -3.301235 3.392832
-0.098674 -3.371580 2.610929
-0.099631 -3.370131 1.888568
-0.096738 -3.247080 1.327207
-0.260722 -8.440606 -1.528365
-0.265481 -8.538646 -2.101127
-0.267044 -8.514834 -2.859310
-0.268911 -8.492993 -3.703705
-0.270917 -8.469942 -4.614406
-0.286229 -8.890189 -5.268525
-0.441987 -3.671223 4.131014
-0.398204 -3.297545 3.202058
-0.402653 -3.330193 2.838393
-0.407310 -3.360026 2.090311
-0.395225 -3.251348 1.282834
-0.392870 -3.222889 0.465131
-0.390948 -3.201122 -0.078846
-1.031308 -8.412189 -1.382474
-1.041811 -8.480727 -2.069594
-1.043614 -8.473594 -2.945243
-1.043068 -8.447732 -3.811138
-1.040980 -8.411360 -4.603913
-1.081011 -8.717373 -5.339728
-0.747782 -3.606161 4.250453
-0.675737 -3.252038 3.202058
-0.684100 -3.287391 2.481640
-0.682857 -3.277284 1.868968
-0.668693 -3.205573 1.300982
-0.663249 -3.175183 0.646457
-0.680840 -3.252748 -0.342629
-1.734479 -8.273249 -1.297688
-1.756175 -8.366574 -1.985498
-1.755341 -8.346866 -3.050327
-1.756828 -8.345229 -3.643063
-1.749049 -8.294378 -4.593421
-1.820515 -8.623191 -5.311386
-0.970496 -3.223594 2.692831
-0.968249 -3.213509 2.143330
-0.978756 -3.245427 1.533541
-0.974375 -3.226256 0.566986
-2.400341 -7.930249 -1.051670
-2.466879 -8.142252 -1.804423
-2.466552 -8.130509 -2.825965
-2.472927 -8.143931 -3.556700
-2.453592 -8.072737 -4.280684
-2.514350 -8.266399 -4.901772
-1.271396 -3.140685 3.024782
-1.268453 -3.130374 2.199550
-1.252308 -3.088633 1.676705
-1.246548 -3.071346 0.829629
-1.081899 -2.663433 0.119220
-3.074560 -7.559881 -1.027424
-3.215581 -7.899831 -1.879147
-3.211598 -7.884372 -2.584451
-3.186269 -7.814716 -3.518356
-3.185095 -7.807229 -4.099790
-3.221757 -7.889728 -5.036298
-1.531375 -2.999532 3.491443
-1.532215 -2.999593 2.967932
-1.513843 -2.961405 2.223528
-1.532815 -2.996354 1.514196
-1.546470 -3.020447 0.667586
-3.743531 -7.298068 -1.320510
-3.860266 -7.522102 -1.865006
-3.850530 -7.497448 -2.726165
-3.847465 -7.486502 -3.484648
-3.846379 -7.479075 -4.298868
-3.897979 -7.573185 -5.260208
-1.986897 -3.150986 3.901179
-1.762071 -2.793275 3.392832
-1.781120 -2.821008 2.434333
-1.783187 -2.823203 2.014456
-1.820151 -2.879356 1.114571
-1.802830 -2.850131 0.412275
-1.711133 -2.703908 -0.096894
-4.413970 -6.967542 -1.436980
-4.453113 -7.025714 -2.088880
-4.459236 -7.031696 -2.750445
-4.454435 -7.019873 -3.517411
-4.411962 -6.947233 -4.553360
-4.551549 -7.164122 -5.106537
-2.029426 -2.671317 4.052044
-2.014997 -2.650238 3.120265
-2.045958 -2.689597 2.529011
-2.021528 -2.656366 2.032639
-1.928990 -2.532636 1.043724
-4.929900 -6.460353 -1.338714
-4.936861 -6.465148 -2.235366
-4.921213 -6.440897 -3.016785
-4.913338 -6.427039 -3.758898
-4.868316 -6.363741 -4.685239
-5.050933 -6.599683 -5.295838
-2.264669 -2.488360 3.970167
-2.224136 -2.442663 3.383750
-2.282964 -2.505212 2.392449
-2.249530 -2.467760 2.014456
-2.139369 -2.345533 1.297075
-5.309450 -5.805990 -2.085038
-5.288635 -5.779525 -2.964130
-5.277581 -5.764187 -3.742203
-5.227391 -5.705544 -4.661890
-5.402569 -5.894612 -5.199532
-2.454415 -2.255651 3.074817
-2.472378 -2.271064 2.490737
-2.440809 -2.241205 2.022033
-2.381780 -2.185307 1.081548
-5.635487 -5.157892 -2.134259
-5.609196 -5.130388 -3.049110
-5.607262 -5.126340 -3.658532
-5.593807 -5.110765 -4.537977
-5.829034 -5.323271 -5.206642
-2.641066 -2.020855 4.085384
-2.662955 -2.036416 3.397900
-2.658244 -2.030933 2.307041
-2.627546 -2.006465 1.711781
-2.570483 -1.961775 1.045296
-2.562075 -1.954308 0.419482
-6.113248 -4.653475 -2.250140
-6.118607 -4.654147 -3.221665
-6.228768 -4.735581 -3.899423
-2.826091 -1.786859 4.142990
-2.767793 -1.748879 3.426597
-2.831015 -1.787490 2.608979
-2.819595 -1.779451 2.096277
-2.693735 -1.698353 1.016576
-2.684040 -1.691298 0.409805
-3.067199 -1.931854 -0.088965
-6.702364 -4.216521 -1.548874
-6.694733 -4.209336 -2.253213
-6.718222 -4.221713 -2.961596
-6.829949 -4.289241 -3.756442
-6.842409 -4.294346 -4.556389
-7.067592 -4.432753 -5.428190
-2.906872 -1.492035 3.490109
-2.996848 -1.536938 2.674632
-3.003765 -1.539162 1.824860
-2.961553 -1.516621 1.230230
-2.956058 -1.512742 0.538876
-2.848950 -1.457013 -0.078786
-7.255208 -3.705935 -1.464435
-7.300250 -3.727112 -2.019579
-7.363009 -3.756262 -2.892982
-7.415956 -3.780678 -3.676495
-7.358539 -3.748590 -4.525019
-7.557515 -3.847916 -5.159012
-3.121151 -1.262657 3.500543
-3.128680 -1.264801 2.895126
-3.069985 -1.239867 2.067456
-3.094714 -1.249138 1.585797
-3.143432 -1.267677 0.840602
-7.617917 -3.065860 -1.007929
-7.814526 -3.141750 -2.010503
-7.824904 -3.143807 -2.663283
-7.804351 -3.132626 -3.568453
-7.789268 -3.123721 -4.455952
-7.912914 -3.170928 -5.207683
19.480216 5.952591 3.509116
-3.229098 -0.975403 3.897367
-3.247965 -0.980157 3.245660
-3.218799 -0.970183 2.427055
-3.159119 -0.951367 1.838927
-3.150338 -0.947292 0.829007
-3.206913 -0.963556 0.311929
-8.160468 -2.442800 -2.510926
-8.185060 -2.448019 -3.188964
-8.196191 -2.449137 -3.889668
-8.209262 -2.450560 -4.678906
-3.231507 -0.686112 3.383750
-3.262450 -0.691377 2.452514
-3.253645 -0.688618 1.813042
-3.158888 -0.667721 1.190295
-8.443528 -1.776373 -1.293056
-8.548828 -1.795546 -2.238787
-8.515297 -1.785768 -3.106356
-8.493351 -1.778637 -3.912763
-8.517147 -1.781452 -4.609538
-8.924941 -1.864089 -5.483491
-3.315388 -0.403019 3.967213
-3.358697 -0.407043 3.079409
-3.320488 -0.401363 2.316134
-3.283632 -0.396046 1.684532
-3.202867 -0.385744 1.262786
-8.716811 -1.037816 -2.358009
-8.735391 -1.037535 -3.156680
-8.794418 -1.042270 -3.887994
-3.357347 -0.100999 3.803509
-3.353629 -0.100295 3.370612
-3.336764 -0.098475 2.407059
-3.303217 -0.096580 1.739029
-3.328190 -0.096522 1.166607
-8.782507 -0.243523 -2.231095
-8.805242 -0.241740 -3.008534
-8.869278 -0.241300 -3.718416
20.520486 -1.111264 3.566226
-3.362242 0.193988 3.491443
-3.386470 0.196508 2.685736
-3.340960 0.194961 1.887156
-3.345865 0.196130 1.249343
-3.363881 0.198098 0.594287
-8.696710 0.517386 -0.999999
-8.880890 0.531587 -2.035324
-8.918476 0.535785 -2.655379
-8.940932 0.540164 -3.619332
-8.916717 0.540985 -4.346644
-9.090408 0.554125 -5.188742
-3.338046 0.506397 2.876923
-3.328852 0.505730 2.354265
-3.361044 0.512118 1.296757
-3.324792 0.507169 0.885466
-8.564458 1.312454 -0.903814
-8.872494 1.362964 -1.943586
-8.824021 1.358094 -2.750931
-8.812073 1.358692 -3.519203
-8.861118 1.368638 -4.275041
-8.983956 1.389647 -4.926424
-3.268422 0.787553 3.776216
-3.296921 0.795547 2.988359
-3.298382 0.796829 2.337812
-3.250113 0.786433 1.440321
-3.221931 0.780497 0.811459
-8.346924 2.027772 -0.891537
-8.730561 2.123782 -1.762869
-8.693732 2.117069 -2.453607
-8.679607 2.116425 -3.317514
-8.737889 2.132859 -4.009284
-8.765350 2.142943 -5.058550
-3.146718 1.072902 3.882480
-3.200306 1.092326 3.097617
-3.174326 1.084283 2.527123
-3.123247 1.067856 1.811684
-3.127484 1.070275 1.138485
-3.118246 1.068016 0.511232
-8.417271 2.892950 -2.408031
-8.335266 2.867529 -3.243395
-8.373614 2.882830 -3.887994
-3.376962 1.499552 3.944254
-2.993718 1.330084 3.408448
-3.047963 1.355157 2.763553
-3.082170 1.371752 1.852164
-3.037002 1.352469 1.302936
-3.006252 1.339572 0.765457
-2.922536 1.303373 0.002698
-8.086229 3.610462 -1.226412
-8.193202 3.660881 -1.996730
-8.139491 3.640033 -2.910147
-8.140138 3.643255 -3.765633
-8.167903 3.657927 -4.423779
-8.398702 3.763975 -5.223277
-2.935035 1.639114 3.040723
-2.971659 1.660956 2.173866
-2.952121 1.650807 1.688320
-2.938255 1.644588 0.721684
-7.484931 4.196592 -1.207215
-7.793391 4.371459 -1.749993
-7.777458 4.365286 -2.515719
-7.684279 4.316665 -3.541952
-7.699472 4.328050 -4.346138
-7.830950 4.404819 -5.161670
-2.801155 1.913540 2.979253
-2.783888 1.902909 2.281464
-2.732594 1.868930 1.620946
-2.708424 1.853250 1.101327
-2.743185 1.878698 0.102676
-6.922948 4.744420 -0.750813
-7.228156 4.956973 -1.657568
-7.236647 4.965551 -2.389734
-7.214179 4.953918 -3.397777
-7.203955 4.949285 -4.036542
-7.191620 4.944427 -5.009423
15.837706 -12.737403 3.603487
-2.627251 2.127410 3.833652
-2.615412 2.118831 3.261440
-2.618842 2.123336 2.290565
-2.587613 2.099062 1.694885
-2.571116 2.086992 0.947731
-2.598921 2.110597 0.366495
-6.678442 5.434127 -2.242103
-6.657047 5.419667 -2.991144
-6.642841 5.412040 -3.997371
-6.627314 5.402578 -4.815605
-2.392348 2.325124 3.782496
-2.448036 2.380767 3.008813
-2.421841 2.356901 2.172242
-2.371390 2.308808 1.639114
-2.351089 2.290075 1.092251
-2.379933 2.319632 0.329871
-5.734610 5.594895 -1.002655
-5.997461 5.854769 -1.829973
-6.054631 5.913729 -2.581103
-6.044867 5.906321 -3.086354
-6.029443 5.894479 -3.856160
-6.071792 5.940071 -4.861900
-2.159555 2.550568 3.497934
-2.160384 2.552694 2.956624
-2.132471 2.521284 2.203700
-2.155577 2.550001 1.549431
-2.154097 2.549627 0.902986
-5.113137 6.062004 -1.217919
-5.156476 6.116645 -1.946844
-5.163914 6.128221 -2.561340
-5.128739 6.090743 -3.516473
-5.086117 6.043900 -4.367303
-5.193227 6.174095 -5.040257
-1.959304 2.728573 3.573330
-1.974171 2.751216 2.758580
-1.934704 2.698181 1.913004
-1.947589 2.717227 1.458507
-1.945911 2.716565 0.748422
-4.486090 6.271793 -1.025597
-4.509856 6.308972 -1.841393
-4.501027 6.301417 -2.832818
-4.492880 6.293507 -3.557464
-4.480137 6.278895 -4.231295
-4.508237 6.322138 -5.042078
-1.714915 2.910500 3.391331
-1.719364 2.919854 2.731265
-1.680592 2.855899 2.022033
-1.698901 2.889120 1.249343
-1.707566 2.905751 0.557886
-3.895842 6.640756 -1.395769
-3.927329 6.698515 -2.131037
-3.961981 6.760234 -2.601168
-3.984573 6.804051 -3.540551
-3.988876 6.814915 -4.168139
-4.056441 6.935542 -5.099217
-1.582693 3.326739 4.241267
-1.414737 2.975977 3.465479
-1.430633 3.011600 2.781735
-1.436126 3.026210 1.832590
-1.414540 2.982516 1.265634
-1.411834 2.979408 0.447670
-1.433034 3.026554 -0.297414
-3.430000 7.251722 -1.459639
-3.453298 7.306581 -2.284368
-3.473873 7.354831 -2.977163
-3.494409 7.402192 -3.547639
-3.479690 7.376318 -4.323092
-3.600493 7.638562 -5.239576
7.200503 -19.278230 3.640845
-1.165617 3.155609 3.527840
-1.167172 3.162156 2.940631
-1.156990 3.138629 1.914437
-1.166911 3.168181 1.259380
-1.164285 3.164200 0.475981
-2.766623 7.534690 -1.335205
-2.841222 7.743421 -1.990928
-2.860414 7.803966 -2.948994
-2.861021 7.810160 -3.475615
-2.843941 7.771296 -4.378919
-2.916980 7.976632 -5.064551
-0.894388 3.290238 2.778861
-0.884335 3.256004 2.254161
-0.875470 3.227674 1.431228
-0.866418 3.196960 0.920478
-0.783679 2.895797 0.047679
-2.115619 7.829839 -1.046865
-2.208044 8.182387 -1.960655
-2.204697 8.176325 -2.507673
-2.209011 8.200279 -3.195338
-2.207014 8.202058 -3.989639
-2.208382 8.218077 -4.938555
-0.580139 3.292536 3.718852
-0.582458 3.308819 3.325128
-0.583189 3.321293 2.281464
-0.569239 3.244567 1.929730
-0.566802 3.238814 0.892554
-0.563501 3.224015 0.374745
-1.470714 8.461148 -2.188040
-1.463589 8.438733 -3.233095
-1.462373 8.444895 -3.976335
-0.287611 3.302469 3.964259
-0.292310 3.370621 3.079409
-0.290289 3.360211 2.272363
-0.284087 3.298815 1.611862
-0.282975 3.293413 1.138485
-0.279151 3.260963 0.374745
-0.732871 8.666017 -2.458995
-0.728677 8.641535 -3.146543
-0.717237 8.537235 -4.007889
0.019897 3.321351 3.909742
0.021422 3.383204 3.079409
0.022334 3.367615 2.345166
0.022782 3.305962 1.711781
0.023690 3.308156 1.056738
0.024359 3.296124 0.502152
0.073534 8.699957 -2.406228
0.075549 8.672730 -3.135996
0.078367 8.729115 -3.896672
0.320133 3.401745 3.736278
0.317799 3.367469 3.088513
0.316007 3.340175 2.518027
0.315443 3.321049 1.613071
0.318309 3.343097 1.058323
0.323525 3.384281 0.139341
0.845572 8.762625 -2.359526
0.852695 8.813951 -3.054785
0.859312 8.851153 -4.020270
0.598117 3.317187 3.464143
0.596937 3.307447 3.049821
0.603917 3.340384 2.319599
0.601272 3.318285 1.359496
0.590864 3.257851 0.965900
1.507506 8.277085 -0.950350
1.580177 8.659318 -1.924289
1.584125 8.669163 -2.604537
1.593041 8.703553 -3.438295
1.595315 8.702698 -4.208442
1.599729 8.713869 -4.961881
0.911313 3.246816 2.922430
0.917397 3.265571 2.356025
0.910122 3.235850 1.605181
0.906654 3.218611 0.639308
2.286011 8.096448 -0.960826
2.396913 8.480956 -1.691458
2.399688 8.480438 -2.593953
2.413646 8.521224 -3.342937
2.402469 8.470003 -4.375106
2.418625 8.520144 -4.983075
1.184216 3.166551 3.106720
1.191232 3.181999 2.274062
1.181915 3.153906 1.459600
1.171282 3.123607 0.966624
1.062771 2.831510 0.200819
2.950508 7.850205 -1.023011
3.089549 8.211626 -1.997071
3.096948 8.226235 -2.571129
3.109089 8.250222 -3.510196
3.119154 8.272321 -4.036314
3.114435 8.252489 -4.870866
1.468156 3.025652 3.536938
1.478909 3.045368 2.767684
1.486531 3.059309 2.219412
1.485840 3.055147 1.360514
1.470442 3.022246 0.967349
1.258633 2.584613 0.119220
3.663206 7.513973 -1.095574
3.836689 7.863677 -1.974651
3.847199 7.881615 -2.484898
3.862452 7.906241 -3.423306
3.856811 7.888087 -4.361729
3.875282 7.922248 -4.881453
1.719203 2.885747 2.783814
1.720043 2.885310 2.097846
1.728091 2.896759 1.341294
1.712442 2.868986 0.766606
4.251614 7.111891 -1.041229
4.444367 7.429760 -1.811444
4.456127 7.443648 -2.775498
4.454212 7.436208 -3.486142
4.434065 7.397092 -4.408169
4.479025 7.467712 -5.157244
1.978073 2.717402 3.555134
1.983428 2.723361 2.958832
1.956964 2.685437 2.268967
1.986434 2.723793 1.386798
1.999427 2.740055 0.731331
4.826842 6.604489 -1.225942
4.967572 6.792390 -2.146705
5.041394 6.891107 -2.586125
5.065680 6.918690 -3.679330
5.077304 6.931674 -4.244669
5.127318 6.995932 -5.034650
2.215201 2.535501 3.500543
2.226674 2.547147 2.794997
2.201789 2.516888 1.932623
2.206534 2.520956 1.285723
2.216353 2.531236 0.839973
5.326606 6.073431 -1.285040
5.474775 6.239445 -1.941304
5.475595 6.236603 -2.779990
5.434540 6.186329 -3.562691
5.453773 6.205029 -4.282184
5.523303 6.279715 -5.281762
2.418145 2.310796 4.133896
2.406031 2.297372 3.147532
2.443676 2.332160 2.547217
2.416550 2.305250 2.005364
2.372364 2.261637 1.219310
5.811499 5.526451 -2.051813
5.784912 5.497325 -3.017278
5.747338 5.458173 -3.888993
5.721425 5.430502 -4.669948
5.945239 5.640900 -5.216232
2.652782 2.121859 3.687966
2.670511 2.134742 2.963248
2.637488 2.107046 2.226856
2.590820 2.068538 1.521015
2.609115 2.082039 0.893894
2.636153 2.102805 0.439578
5.720147 4.558035 -0.902793
5.997551 4.776727 -1.569487
5.988575 4.766934 -2.310264
5.948897 4.731668 -3.348602
5.944536 4.726124 -3.937868
2.840053 1.867030 2.906395
2.826895 1.857089 2.126726
2.819748 1.851090 1.341294
2.789042 1.830319 0.966624
6.008083 3.935766 -1.143150
6.156681 4.031162 -1.750594
6.166377 4.035230 -2.456501
6.152545 4.023344 -3.336612
6.178720 4.038177 -4.049582
6.135625 4.007252 -4.911277
-18.062925 -9.826297 3.667879
2.980208 1.607213 3.557784
2.995755 1.614003 2.549119
2.957002 1.592436 2.106943
3.014619 1.622225 1.334187
2.990843 1.608157 0.530982
6.569506 3.526854 -1.182245
6.667656 3.576677 -2.099280
6.675130 3.578623 -2.758244
6.666687 3.571811 -3.489822
6.707340 3.591162 -4.271429
6.831758 3.655600 -4.977011
3.064471 1.338215 3.479748
3.071389 1.339878 2.572600
3.055744 1.332356 2.105367
3.134636 1.365718 1.434444
3.134575 1.364489 0.649859
2.888435 1.256261 -0.114829
7.058578 3.065815 -1.488293
7.121276 3.090983 -2.161932
7.150741 3.101731 -2.826254
7.136104 3.092965 -3.613672
7.134598 3.090054 -4.352993
7.325696 3.170536 -5.113290
-19.492044 -6.589611 3.701313
3.167630 1.058461 3.967213
3.148101 1.050885 3.229318
3.201768 1.067852 2.583625
3.170504 1.056539 1.968995
3.035117 1.010524 1.316159
7.565772 2.509899 -1.478432
7.575878 2.510791 -2.288738
7.554454 2.501583 -2.984245
7.539798 2.494470 -3.733820
7.600719 2.512219 -4.537114
7.851247 2.592967 -5.236816
3.211716 0.761782 3.870505
3.209979 0.760759 3.429158
3.289878 0.778378 2.510805
3.265143 0.771426 1.732540
3.166662 0.747419 1.191190
7.880927 1.849878 -2.045466
7.838598 1.836870 -3.075104
7.818565 1.829854 -3.857712
7.863857 1.838339 -4.577157
8.224699 1.920837 -5.229091
3.324681 0.480152 4.015657
3.309572 0.476892 3.231730
3.306838 0.475308 2.370691
3.290011 0.472171 1.849394
3.299289 0.472416 1.066621
3.291239 0.470003 0.157204
8.140101 1.154587 -2.449719
8.145781 1.153553 -3.068352
8.164050 1.153485 -3.963866
3.374530 0.183830 3.842755
3.357465 0.182155 3.297835
3.327375 0.179420 2.488876
3.327161 0.178319 1.694885
3.328209 0.177511 1.066621
3.294967 0.174511 0.166167
8.314091 0.432611 -2.393409
8.398485 0.435264 -2.977618
