1.446766 -0.126381 0.501528
1.549934 -0.150300 0.922964
1.720796 -0.189558 3.893563
1.596849 -0.160636 4.580336
1.916612 -0.234940 4.798266
2.365621 -0.339256 5.241036
2.241677 -0.310361 5.761631
2.208153 -0.302500 6.189347
1.987494 -0.251130 6.652655
1.853596 -0.219944 7.021815
1.929887 -0.237615 7.437907
1.994462 -0.252575 7.771665
2.000772 -0.253961 8.288570
1.977749 -0.248554 8.643735
1.995836 -0.252677 9.162958
2.095294 -0.275735 9.577296
2.053137 -0.265837 10.204298
1.882538 -0.226099 10.699018
1.357164 0.018196 0.818734
1.869201 -0.052753 1.474549
1.779811 -0.040310 1.733834
1.696206 -0.028656 2.076557
1.636480 -0.020265 2.750122
1.688252 -0.027346 3.427808
1.734507 -0.033687 3.930428
1.760651 -0.037275 4.186458
1.738469 -0.034093 4.864100
1.956797 -0.064366 5.012468
2.122044 -0.087221 5.497193
1.987374 -0.068466 5.943199
1.885192 -0.054193 6.556420
1.943456 -0.062226 6.892970
2.004715 -0.070675 7.228977
1.987882 -0.068272 7.665360
1.959075 -0.064220 8.021453
2.084171 -0.081490 8.601323
2.044978 -0.076009 8.875954
1.950687 -0.062855 9.338115
2.020979 -0.072503 10.023106
1.896572 -0.055194 10.327731
1.462115 0.005193 10.989910
1.258063 0.140913 1.171319
1.567840 0.125214 1.501300
1.577600 0.124757 1.756567
1.597413 0.123813 2.176484
1.527583 0.127441 2.685049
1.564169 0.125657 3.187897
1.599880 0.123906 3.607875
1.748053 0.116447 4.099319
1.784521 0.114644 4.435260
1.714920 0.118223 4.700914
1.789294 0.114530 5.283034
1.860372 0.110993 5.782167
1.727669 0.117807 6.230431
1.755703 0.116408 6.402517
1.939963 0.107114 6.884363
2.048075 0.101705 7.462733
1.983806 0.105002 7.652943
2.006181 0.103955 8.251663
1.964019 0.106140 8.525592
2.117034 0.098461 9.184630
2.102029 0.099278 9.541436
2.015108 0.103768 10.005928
1.750260 0.250061 1.399531
1.559593 0.245161 1.662258
1.491854 0.243508 2.335914
1.512667 0.244099 2.675058
1.536519 0.244768 3.014001
1.577592 0.245909 3.517477
1.700588 0.249133 3.764027
1.751639 0.250532 4.265249
1.690300 0.248995 4.612392
1.752488 0.250682 5.112395
1.710599 0.249663 5.543788
1.661121 0.248434 5.894551
1.852580 0.253481 6.460304
2.023029 0.257957 6.858780
2.001288 0.257460 7.291658
2.001110 0.257533 7.807299
2.036313 0.258471 7.977734
2.082231 0.259764 8.657201
2.042931 0.258788 8.931255
2.045350 0.258917 9.368998
1.998556 0.257800 9.995748
1.917078 0.255760 10.462986
1.553116 0.246414 11.015935
1.628083 0.367602 1.411116
1.537812 0.358663 1.670949
1.371201 0.342193 2.350647
1.386718 0.343776 2.608276
1.422252 0.347388 3.113822
1.449936 0.350194 3.453688
1.694718 0.374616 3.938442
1.738727 0.379058 4.357789
1.688616 0.374139 4.788769
1.742065 0.379520 5.208132
1.678347 0.373223 5.477095
1.679167 0.373408 6.157970
1.818579 0.387312 6.397055
2.016924 0.407127 6.960177
1.981188 0.403627 7.313289
1.932620 0.398837 7.586069
1.936821 0.399334 8.104592
1.911892 0.396909 8.461230
2.025056 0.408241 8.959216
2.007484 0.406548 9.314018
1.938474 0.399766 9.857606
1.855216 0.391555 10.322943
1.441535 0.350519 11.065446
1.931495 0.578864 6.728067
2.005358 0.593066 7.143455
1.971664 0.586671 7.496103
2.008346 0.593797 8.175310
2.020385 0.596181 8.693067
2.001155 0.592556 9.049421
1.985268 0.589571 9.406805
1.898284 0.572994 9.871617
1.860822 0.565921 10.502836
1.434966 0.484461 10.809731
1.535844 0.635123 1.168330
1.362241 0.587414 1.760407
1.184720 0.538588 2.109294
1.217870 0.547809 2.698576
1.241026 0.554238 3.038654
1.280898 0.565297 3.544129
1.319212 0.575913 3.966308
1.362055 0.587777 4.388017
1.390312 0.595598 4.644150
1.546366 0.638645 5.134391
1.422278 0.604560 5.664161
1.471009 0.618032 6.002222
1.739009 0.691900 6.470844
1.862132 0.725827 6.625284
1.853139 0.723432 7.139854
1.850989 0.722921 7.655809
1.933323 0.745657 8.070832
1.943596 0.748567 8.587986
1.923602 0.743118 8.943647
1.926135 0.743884 9.381707
1.913444 0.740446 9.739447
1.853031 0.723898 10.286941
1.592443 0.652226 10.810497
1.378875 0.737332 1.201536
1.217732 0.676835 1.960624
1.136311 0.646247 2.222459
1.150010 0.651443 2.479522
1.187527 0.665652 3.068117
1.219734 0.677836 3.490437
1.241452 0.686048 3.746869
1.297325 0.707162 4.333798
1.342700 0.724300 4.754734
1.465254 0.770443 4.997579
1.353931 0.728664 5.609063
1.320082 0.716000 6.044552
1.647611 0.839261 6.334109
1.792686 0.893888 6.652019
1.784293 0.890814 7.166595
1.797936 0.896044 7.764029
1.771190 0.886039 8.118286
1.873058 0.924442 8.614660
1.836025 0.910555 8.888986
1.856627 0.918389 9.408394
1.793451 0.894712 9.954065
1.675265 0.850301 10.258137
1.329963 0.720549 11.167060
0.960633 0.677677 1.455385
0.972323 0.683229 1.797612
1.003534 0.698013 2.472551
1.028747 0.709935 2.897447
1.046233 0.718198 3.156511
1.071773 0.730261 3.498469
1.122474 0.754192 4.088950
1.172677 0.777875 4.595719
1.309145 0.842090 5.006384
1.249912 0.814293 5.276625
1.135399 0.760556 5.810718
1.295736 0.836004 6.301166
1.614446 0.985862 6.589939
1.694812 1.023721 7.089228
1.663451 1.009040 7.443645
1.635131 0.995788 7.799239
1.657804 1.006546 8.400989
1.760039 1.054685 8.899475
1.850179 1.097125 9.315283
1.819403 1.082705 9.592526
1.702897 1.027992 9.895815
1.602290 0.980827 10.636447
0.279433 0.393074 0.339207
0.998482 0.800184 1.606836
0.930939 0.762053 2.118252
0.856171 0.719790 2.381772
0.889747 0.738892 2.973570
0.987967 0.794502 3.140607
1.018611 0.811916 3.563976
1.083476 0.848753 4.318479
1.092183 0.853696 4.409408
1.171636 0.898788 5.162065
1.201655 0.915819 5.417904
1.157572 0.890935 5.770554
1.213661 0.922748 6.191591
1.433359 1.047122 6.496356
1.535477 1.105023 7.159119
1.577233 1.128695 7.412086
1.593325 1.137906 8.010938
1.555086 1.116315 8.284908
1.635550 1.161920 8.701025
1.635406 1.161915 9.139412
1.657652 1.174594 9.660285
1.629979 1.158983 9.937834
1.553631 1.115923 10.759008
0.912377 0.891069 1.487101
0.920332 0.896705 1.746022
0.780500 0.798583 2.348208
0.793250 0.807588 2.608204
0.914793 0.893098 3.276582
0.932705 0.905730 3.535440
0.972042 0.933458 4.042962
1.009202 0.959643 4.466994
1.058705 0.994513 4.973185
1.023295 0.969718 5.409621
0.921278 0.898149 5.945431
1.045649 0.985582 6.271263
1.241629 1.123302 6.495911
1.325498 1.182330 7.080113
1.377401 1.218855 7.417316
1.378955 1.220043 7.937481
1.408575 1.240884 8.110641
1.448451 1.269024 8.795356
1.497061 1.303221 9.049647
1.534031 1.329305 9.653289
1.446577 1.267939 10.039031
1.417842 1.247870 10.672844
0.762302 0.908048 1.729957
0.691624 0.848684 1.911729
0.708223 0.862719 2.339735
0.737383 0.887344 2.934179
0.757507 0.904325 3.278174
0.856248 0.987377 3.612938
0.907325 1.030438 4.287086
0.951883 1.067987 4.794527
0.976633 1.088838 5.053272
0.868318 0.997896 5.503006
0.859283 0.990423 6.107581
1.021567 1.126823 6.168380
1.236058 1.307182 6.638161
1.281483 1.345426 6.974536
1.266006 1.332504 7.410922
1.306691 1.366849 8.175772
1.246743 1.316489 8.287510
1.375638 1.424965 9.031815
1.273474 1.339163 9.332496
1.353292 1.406326 9.749928
1.436666 1.476480 10.166172
1.172605 1.254679 10.797990
0.679139 0.958205 1.420245
0.698847 0.977809 2.094192
0.644566 0.924302 2.524157
0.656401 0.936044 2.782124
0.688215 0.967584 3.373160
0.709535 0.988708 3.713904
0.822347 1.100226 4.292911
0.778834 1.057335 4.643580
0.800845 1.079124 4.900224
0.769256 1.048025 5.335723
0.688460 0.968376 5.953894
0.848099 1.126040 6.097367
1.046693 1.322238 6.567818
1.109405 1.384269 7.067945
1.143053 1.417548 7.321396
1.143164 1.417768 7.839646
1.135751 1.410542 8.277273
1.228020 1.501775 8.857213
1.201049 1.475202 9.132742
1.204397 1.478601 9.572630
1.211419 1.485629 10.013514
1.117440 1.392972 10.673563
0.145472 0.473274 1.241447
0.417643 0.781024 1.576864
0.630570 1.021839 2.071107
0.570286 0.953732 2.248483
0.590558 0.976765 2.754444
0.619765 1.009916 3.343235
0.644405 1.037867 3.764927
0.672132 1.069307 4.186181
0.637127 1.029835 4.618497
0.729899 1.134783 4.944273
0.708167 1.110335 5.460547
0.617257 1.007669 5.910305
0.774096 1.185018 6.134548
0.959061 1.394218 6.602480
1.017480 1.460371 7.100285
1.069611 1.519397 7.515105
1.059894 1.508512 7.949307
1.041722 1.488051 8.302863
1.115044 1.571051 8.798864
1.115207 1.571334 9.235462
1.078147 1.529485 9.428020
1.125666 1.583359 10.111728
1.008292 1.450788 10.604721
-0.618621 -0.489831 0.521723
-0.197605 0.077054 0.954619
0.282903 0.723979 1.200401
0.475865 0.983917 1.869340
0.428888 0.920785 2.300929
0.437937 0.933033 2.560646
0.462588 0.966370 3.154460
0.475084 0.983259 3.413773
0.507617 1.027205 4.006517
0.523555 1.048727 4.265298
0.552029 1.087167 4.690327
0.589784 1.138122 5.197867
0.440287 0.936966 5.580495
0.536455 1.066533 5.991946
0.752947 1.358071 6.368175
0.803977 1.426897 6.870753
0.858992 1.501086 7.372145
0.820341 1.449102 7.563770
0.843246 1.480112 8.249594
0.898121 1.554091 8.668076
0.909407 1.569418 9.190538
0.888341 1.541129 9.468301
0.951301 1.625993 9.885862
0.986058 1.672938 10.491679
0.697834 1.285055 10.990556
-0.569231 -0.545435 0.598952
-0.204095 0.057885 0.944883
0.218416 0.756062 1.527885
0.380620 1.024127 1.860536
0.335217 0.949197 2.125115
0.344987 0.965437 2.468858
0.365655 0.999757 3.063097
0.387228 1.035545 3.573202
0.395493 1.049252 3.749190
0.421798 1.092858 4.258464
0.462140 1.159702 4.933324
0.479247 1.188039 5.191702
0.349407 0.973650 5.574616
0.439494 1.122623 6.069658
0.635021 1.445776 6.527887
0.672805 1.508319 6.948513
0.689111 1.535309 7.121923
0.696333 1.547417 7.724918
0.699414 1.552661 8.247028
0.696604 1.548147 8.688189
0.746853 1.631284 9.107349
0.799520 1.718413 9.525400
0.782589 1.690526 9.804105
0.789261 1.701677 10.247280
0.585795 1.365786 11.074481
-0.573632 -0.672305 0.732904
0.307379 1.050488 1.905534
0.265680 0.969027 2.087202
0.324188 1.083579 2.592568
0.292050 1.020893 3.026547
0.314057 1.064116 3.617858
0.328631 1.092722 3.958322
0.352906 1.140349 4.465033
0.375536 1.184733 4.887857
0.390300 1.213682 5.144004
0.286503 1.010938 5.691510
0.360332 1.155412 6.100541
0.532266 1.491700 6.556212
0.565444 1.556703 6.974534
0.600732 1.625832 7.392021
0.593496 1.611831 7.828532
0.580589 1.586716 8.184135
0.630376 1.684218 8.683116
0.612406 1.649178 8.958140
0.622659 1.669397 9.480146
0.626510 1.677072 9.921177
0.588762 1.603429 10.389326
0.443708 1.320084 11.107948
0.272330 1.247456 1.531232
0.239302 1.163884 1.794360
0.175058 1.001329 2.314652
0.186683 1.030993 2.826130
0.154675 0.949974 3.010393
0.206286 1.080945 3.513871
0.226882 1.133373 4.107447
0.270166 1.243107 4.273166
0.291379 1.297062 4.781001
0.246435 1.183446 5.397908
0.155157 0.952340 5.783628
0.256292 1.208780 6.263994
0.426787 1.640899 6.621734
0.423389 1.632504 7.141824
0.404988 1.585997 7.416628
0.435438 1.663321 7.837190
0.461189 1.728702 8.174876
0.452027 1.705637 8.531365
0.472476 1.757732 9.216765
0.474495 1.763028 9.657404
0.478411 1.773134 10.099028
0.457182 1.719576 10.650193
0.218579 1.115305 11.289973
0.132446 1.090090 1.984439
0.107433 1.011757 2.331643
0.115338 1.036782 2.757566
0.120841 1.054182 3.016104
0.133228 1.093316 3.524956
0.175371 1.225791 3.940045
0.188698 1.267833 4.363374
0.167335 1.200916 4.631824
0.159439 1.176436 5.234671
0.120694 1.055098 5.770499
0.162381 1.186060 6.013734
0.280888 1.558273 6.553637
0.268678 1.520127 6.908191
0.257478 1.485153 7.263967
0.316763 1.671468 7.746736
0.302760 1.627654 8.021024
0.300193 1.619817 8.460861
0.334540 1.727867 8.961343
0.347607 1.769184 9.566242
0.350533 1.778589 10.008211
0.312249 1.658582 10.313280
0.185960 1.262589 11.059695
-0.279331 -0.308843 0.431735
0.034404 1.082289 1.616919
0.040213 1.108442 2.209371
0.024851 1.040722 2.724587
0.028786 1.058338 2.983467
0.034583 1.084263 3.325721
0.042734 1.120678 3.751145
0.053852 1.170296 4.259441
0.064288 1.216836 4.683827
0.053911 1.171153 5.119830
0.025429 1.045303 5.654946
0.052761 1.166536 5.814971
0.138035 1.544798 6.356579
0.153575 1.613955 6.775924
0.145153 1.576877 7.130385
0.148127 1.590469 7.733298
0.184785 1.753139 8.049359
0.186959 1.763133 8.569796
0.182268 1.742588 8.927384
0.208496 1.859166 9.426104
0.188905 1.772666 9.891727
0.165721 1.670193 10.278292
0.106040 1.406080 10.803794
-0.071818 0.993321 1.894993
-0.070195 1.005575 2.152569
-0.064829 1.045884 2.828088
-0.060637 1.077259 3.252331
-0.056813 1.105827 3.592760
-0.051482 1.145593 4.016286
-0.035746 1.261757 4.179039
-0.040278 1.229034 4.778711
-0.043538 1.205684 5.380353
-0.062152 1.069007 5.831846
-0.041957 1.218215 6.156771
0.006978 1.579287 6.529175
0.003443 1.553726 6.964889
0.011706 1.615005 7.300894
0.022556 1.695447 7.718500
0.016267 1.649406 7.991468
0.028146 1.737427 8.408648
0.030082 1.752281 8.929307
0.038448 1.814710 9.614868
0.036899 1.803705 9.974619
0.019869 1.678533 10.279255
-0.026442 1.337933 10.914682
-0.131445 1.262910 1.309909
-0.141868 1.085462 1.909121
-0.146215 1.012146 2.424430
-0.145619 1.022829 2.600492
-0.143981 1.052087 3.027200
-0.141241 1.100698 3.620466
-0.139414 1.132968 3.962881
-0.131114 1.276598 4.377324
-0.133518 1.236670 4.896302
-0.141271 1.104914 5.430681
-0.149303 0.968143 5.885693
-0.134809 1.217895 6.198041
-0.107106 1.694840 6.637778
-0.108576 1.670746 7.074732
-0.111563 1.620146 7.348482
-0.106852 1.702161 7.768231
-0.110175 1.646941 8.475640
-0.113638 1.587966 8.670650
-0.100161 1.820894 9.231476
-0.103397 1.765843 9.427633
-0.099277 1.838401 10.116289
-0.242105 1.346374 1.289472
-0.228710 0.861710 1.734237
-0.226973 0.795439 2.421654
-0.238876 1.221753 2.824705
-0.250747 1.607293 10.468872
-0.337034 1.230862 1.512087
-0.318174 1.053204 2.029430
-0.310093 0.976784 2.461998
-0.311867 0.993050 2.722302
-0.314498 1.017237 3.066034
-0.319819 1.066298 3.659902
-0.325172 1.115781 4.169619
-0.329178 1.152877 4.512185
-0.334613 1.203251 4.937545
-0.332515 1.182700 5.542204
-0.303740 0.912458 5.761050
-0.323958 1.101288 6.340318
-0.371818 1.549852 6.615745
-0.378150 1.608757 6.954296
-0.379457 1.620161 7.557668
-0.383130 1.654365 7.731335
-0.383870 1.660561 8.253765
-0.385380 1.673972 8.777367
-0.385550 1.674936 9.219966
-0.386273 1.681076 9.663610
-0.379627 1.617942 10.215998
-0.361177 1.444159 10.716190
-0.459175 1.292806 1.419270
-0.404581 1.011008 1.774445
-0.391263 0.941857 2.375751
-0.396464 0.968331 2.805235
-0.405209 1.012951 3.401382
-0.408171 1.028082 3.579722
-0.415926 1.067731 4.007494
-0.422832 1.103063 4.351517
-0.417252 1.073807 4.957089
-0.425785 1.117536 5.301018
-0.397221 0.969947 5.672902
-0.430729 1.142339 6.169121
-0.505692 1.528449 6.710323
-0.520110 1.602456 7.132195
-0.507654 1.538076 7.325654
-0.511113 1.555428 7.931700
-0.512962 1.564544 8.456684
-0.520382 1.602662 8.631707
-0.531636 1.660147 9.321912
-0.537181 1.688315 9.848822
-0.513144 1.564125 10.156246
-0.475518 1.369777 10.574789
-0.097753 -0.404839 0.422601
-0.317454 0.369650 0.853015
-0.429999 0.766237 1.360766
-0.460631 0.874062 1.703395
-0.467187 0.896898 2.216295
-0.471256 0.911099 2.478005
-0.480637 0.943896 2.990321
-0.489924 0.976404 3.418665
-0.498349 1.005923 3.763201
-0.514889 1.063914 4.357373
-0.528346 1.111131 4.784234
-0.513072 1.057073 5.140329
-0.508457 1.040461 5.747923
-0.492134 0.982747 6.023623
-0.572065 1.264297 6.584639
-0.641984 1.510681 6.891320
-0.632123 1.475708 7.249113
-0.649956 1.538402 7.588818
-0.656025 1.559468 8.194726
-0.659639 1.571919 8.719632
-0.659869 1.572482 9.163515
-0.655928 1.558386 9.526316
-0.690843 1.681227 10.026762
-0.648697 1.532285 10.605432
-0.517250 1.068485 11.107329
-0.488141 0.724497 1.177102
-0.630385 1.106355 1.427391
-0.603923 1.035038 2.021358
-0.573748 0.953895 2.284333
-0.588873 0.994215 2.959246
-0.593462 1.006463 3.133705
-0.608402 1.046359 3.641096
-0.619759 1.076709 3.981620
-0.638630 1.127162 4.487939
-0.628943 1.100888 5.089157
-0.610243 1.050520 5.442765
-0.588436 0.991843 5.714393
-0.645249 1.144225 6.123142
-0.718395 1.340358 6.776696
-0.729068 1.368944 6.949427
-0.772914 1.486392 7.615789
-0.750720 1.426711 7.807603
-0.787329 1.524798 8.308615
-0.785686 1.520195 8.748502
-0.792738 1.538903 9.271588
-0.802328 1.564427 9.795653
-0.773058 1.485627 10.264487
-0.729846 1.369457 10.571542
-0.073494 -0.322955 0.672056
-0.462575 0.499391 1.176991
-0.595306 0.779867 1.513722
-0.602733 0.795416 1.941742
-0.612202 0.815280 2.369543
-0.618966 0.829487 2.629885
-0.637257 0.867944 3.224277
-0.652841 0.900737 3.651102
-0.674143 0.945589 4.160831
-0.690111 0.979224 4.503406
-0.703070 1.006529 4.762466
-0.721346 1.045042 5.104411
-0.745892 1.096783 5.528933
-0.651118 0.896233 6.081323
-0.776613 1.161332 6.640603
-0.879983 1.379778 6.863361
-0.877583 1.374521 7.384487
-0.898879 1.419449 7.640188
-0.901049 1.423851 8.162310
-0.906316 1.434801 8.685622
-0.906301 1.434612 9.127902
-0.884758 1.388844 9.760035
-0.931465 1.487434 10.179700
-0.827520 1.267605 10.431025
-0.630625 0.851029 11.377294
-0.649250 0.718373 1.057727
-0.853330 1.073055 1.389816
-0.765422 0.920049 1.988840
-0.729430 0.857322 2.503957
-0.737775 0.871750 2.763888
-0.760130 0.910433 3.356897
-0.775158 0.936453 3.699603
-0.800318 0.980038 4.208254
-0.760255 0.910333 4.395106
-0.800518 0.980123 5.070331
-0.828962 1.029443 5.495228
-0.859769 1.082871 5.919463
-0.781196 0.946186 6.208764
-0.766820 0.921060 6.650738
-0.958746 1.254575 7.105280
-0.990552 1.309767 7.444266
-0.975003 1.282626 7.802457
-1.027446 1.373642 8.305408
-1.034639 1.385986 8.829312
-1.035528 1.387397 9.272230
-1.018432 1.357593 9.551988
-0.986077 1.301176 10.104506
-0.932758 1.208257 10.852287
-0.189496 -0.085646 0.494202
-0.190015 -0.084924 0.591325
-0.651249 0.579415 1.098054
-0.886470 0.918173 1.515008
-0.841683 0.853515 2.029162
-0.800866 0.794574 2.545658
-0.810615 0.808550 2.806873
-0.825033 0.829230 3.151278
-0.858575 0.877370 3.828290
-0.873321 0.898546 4.088785
-0.854055 0.870630 4.692927
-0.866279 0.888192 4.870319
-0.917205 0.961379 5.545783
-1.002005 1.083458 5.872572
-0.919470 0.964456 6.244352
-0.951464 1.010456 6.585933
-1.049775 1.151980 6.991944
-1.103607 1.229398 7.495996
-1.086133 1.204128 7.854551
-1.167093 1.320586 8.521756
-1.110557 1.239014 8.986654
-1.101196 1.225431 9.348739
-1.160982 1.311449 9.769382
-1.100792 1.224634 10.158174
-1.040456 1.137512 10.906429
-0.182214 -0.100327 0.528363
-0.248631 -0.019435 0.879225
-0.698888 0.529422 1.296159
-0.961795 0.849862 1.709361
-0.905610 0.781297 1.972581
-0.859655 0.725146 2.487342
-0.881361 0.751487 2.997008
-0.898390 0.772168 3.339657
-0.917369 0.795225 3.682052
-1.017838 0.917579 4.262810
-0.916086 0.793434 4.626623
-0.955879 0.841829 5.134917
-1.173503 1.107086 5.435075
-1.157423 1.087357 5.952990
-1.111925 1.031840 6.142588
-1.004589 0.900783 6.946132
-1.015088 0.913562 7.038414
-1.209973 1.151035 7.588496
-1.150679 1.078613 8.131538
-1.220095 1.163125 8.634596
-1.171352 1.103670 8.748180
-1.184332 1.119370 9.274180
-1.263409 1.215661 9.776431
-1.210276 1.150768 10.246827
-1.038686 0.941438 10.774043
-0.597529 0.320198 1.055658
-0.741865 0.468311 1.315180
-0.824637 0.553171 1.826663
-0.839242 0.568070 2.257143
-0.861102 0.590399 2.770953
-0.883099 0.612887 3.200788
-0.903269 0.633516 3.546798
-0.989492 0.721976 3.799697
-0.956323 0.687812 4.320285
-1.052772 0.786750 4.652657
-1.297018 1.037401 5.039979
-1.353002 1.094744 5.625849
-1.337302 1.078514 6.144180
-1.238279 0.976780 6.516299
-1.131656 0.867261 6.808735
-1.217921 0.955672 7.480572
-1.356793 1.098127 7.965419
-1.326319 1.066783 8.243178
-1.322929 1.063207 8.686264
-1.350688 1.091570 9.294669
-1.341453 1.082011 9.657839
-1.364884 1.105949 10.186107
-1.211317 0.948230 10.521926
-0.824144 0.550639 11.136862
-0.160034 -0.132791 0.494872
-0.623886 0.254560 0.838688
-0.865492 0.456238 1.430647
-1.031446 0.594763 1.851277
-0.971013 0.544203 2.283681
-0.995244 0.564340 2.794824
-1.009636 0.576308 3.055597
-0.965335 0.539204 3.574832
-1.130595 0.677202 3.733858
-0.940747 0.518530 4.273971
-1.145547 0.689471 4.844506
-1.619305 1.085143 4.945228
-1.603702 1.071993 5.540448
-1.499853 0.985168 5.989358
-1.410695 0.910595 6.524163
-1.142233 0.686306 6.850247
-1.201358 0.735604 7.275245
-1.427286 0.924212 7.742565
-1.405647 0.906067 8.101956
-1.400578 0.901746 8.544700
-1.503942 0.987962 9.129750
-1.402441 0.903126 9.433539
-1.425721 0.922466 9.961677
-1.362953 0.869947 10.432540
-1.027541 0.589672 11.098872
-0.974941 0.434637 1.108311
-1.228455 0.612604 1.443868
-1.078495 0.507215 1.878271
-1.017980 0.464624 2.389918
-1.035317 0.476735 2.730019
-0.978775 0.436949 3.160986
-1.020193 0.465925 3.751797
-1.442556 0.762331 4.805422
-1.738740 0.970239 5.264717
-1.695991 0.940155 5.611231
-1.655875 0.911919 5.959076
-1.479171 0.787729 6.504900
-1.228447 0.611553 7.075315
-1.186627 0.582135 7.348724
-1.455143 0.770582 7.977331
-1.447786 0.765334 8.415873
-1.539882 0.829915 8.915208
-1.509000 0.808177 9.190781
-1.479762 0.787594 9.467253
-1.478235 0.786374 10.263203
-1.335110 0.685773 10.760711
-0.565920 0.096617 0.186041
-0.654154 0.148621 0.615762
-0.838136 0.257098 1.292879
-1.192232 0.466046 1.621112
-1.118590 0.422518 1.965427
-1.060357 0.388041 2.561621
-1.070051 0.393732 2.735881
-1.108037 0.416049 3.326645
-1.232668 0.489525 3.823958
-1.098280 0.410124 4.267250
-1.310437 0.535280 4.667498
-1.858785 0.858898 4.930054
-1.811238 0.830772 5.276177
-1.787222 0.816507 5.786827
-1.684241 0.755628 6.315254
-1.575248 0.691216 6.765765
-1.216937 0.479632 7.274815
-1.259085 0.504464 7.532406
-1.529740 0.664123 8.079478
-1.507851 0.651139 8.438047
-1.505166 0.649477 8.879994
-1.556673 0.679834 9.135282
-1.596657 0.703328 9.742466
-1.523953 0.660331 10.212143
-1.310243 0.534080 10.821253
-1.027657 0.286194 1.079596
-1.304292 0.424783 1.412796
-1.226201 0.385586 1.757052
-1.065460 0.304951 2.191444
-1.087608 0.315979 2.617324
-1.036368 0.290197 3.217426
-1.253608 0.398991 3.708575
-1.290852 0.417585 4.132018
-1.412692 0.478593 4.460942
-1.794453 0.669891 4.669736
-1.949279 0.747391 5.235997
-1.835596 0.690326 5.761340
-1.770509 0.657673 5.948222
-1.565416 0.554804 6.414023
-1.466637 0.505207 6.950716
-1.462475 0.503032 7.472518
-1.552309 0.547970 7.975404
-1.512873 0.528159 8.251568
-1.595338 0.569418 8.671503
-1.594993 0.569170 9.113462
-1.617652 0.580437 9.638599
-1.560455 0.551677 10.190301
-1.510459 0.526525 10.745378
-1.047042 0.200293 1.046965
-1.333890 0.315517 1.380429
-1.259149 0.285397 1.890701
-1.098155 0.220611 2.409143
-1.118098 0.228570 2.751513
-1.135072 0.235349 3.010353
-1.279437 0.293258 3.676158
-1.225485 0.271505 4.110214
-1.452694 0.362750 4.511915
-1.941325 0.559089 4.708417
-2.010648 0.586854 5.286796
-1.870889 0.530629 5.649483
-1.837951 0.517321 6.081623
-1.639646 0.437536 6.630719
-1.667557 0.448724 6.803922
-1.387928 0.336252 7.379338
-1.358223 0.324256 7.738560
-1.652641 0.442487 8.284239
-1.665517 0.447577 8.807510
-1.666706 0.447982 9.249787
-1.672718 0.450326 9.693106
-1.593877 0.418564 10.162994
-0.870311 0.053217 1.108550
-1.070821 0.114733 1.446972
-1.277584 0.178157 1.864751
-1.198015 0.153669 2.211232
-1.121467 0.130108 2.559340
-1.167403 0.144106 3.235228
-1.247148 0.168977 0.821057
-1.313063 0.188740 3.826550
-1.466487 0.235760 4.404798
-1.969365 0.390146 4.602789
-1.923896 0.376116 5.031586
-2.011515 0.402916 5.692239
-1.847131 0.352407 5.893947
-1.653334 0.292798 6.524163
-1.672982 0.298638 7.737752
-1.662227 0.295266 8.177716
-1.674070 0.298820 8.701024
-1.637054 0.287409 8.978946
-1.659476 0.294211 9.504170
-1.637947 0.287486 10.220173
-1.562884 0.264361 10.692928
-0.988367 0.087874 11.140786
-0.471481 -0.105124 0.484405
-0.674094 -0.060371 1.001912
-0.875685 -0.015804 1.262050
-1.280080 0.073615 1.676593
-1.193359 0.054384 1.940712
-1.214890 0.059082 2.367256
-1.143666 0.043255 2.800360
-1.271913 0.071568 3.219471
-1.582576 0.140515 1.901712
-1.956778 0.222819 5.101673
-1.893661 0.208811 5.370109
-1.856028 0.200416 5.803249
-1.630512 0.150443 6.269766
-1.493003 0.119957 6.642541
-1.292540 0.075512 7.202176
-1.371502 0.092919 7.627257
-1.567506 0.136214 8.113510
-1.621162 0.148047 8.370873
-1.636160 0.151284 8.896705
-1.772871 0.181444 9.481747
-1.761510 0.178873 9.844338
-1.680718 0.160923 10.315848
-1.323673 0.081831 10.871588
-0.861932 -0.091072 0.850062
-1.655087 0.013548 10.573312
-1.248771 -0.040869 10.964259
-0.347423 -0.186801 0.439648
-0.850546 -0.160830 0.780514
-1.166525 -0.144588 1.450504
-1.279144 -0.138814 1.787546
-1.199593 -0.142994 2.216108
-1.229977 -0.141500 2.723369
-1.148394 -0.145760 2.988219
-1.487516 -0.128292 3.470142
-1.327585 -0.136631 3.910473
-2.113813 -0.096081 4.671318
-1.868936 -0.108815 5.124301
-1.937895 -0.105324 5.622388
-1.765626 -0.114265 5.823202
-1.575541 -0.124205 6.535935
-1.437105 -0.131423 6.908260
-1.204148 -0.143532 7.301916
-1.123050 -0.147822 7.931381
-1.406766 -0.133206 8.314067
-1.675790 -0.119336 8.609237
-1.655262 -0.120452 8.968347
-1.755165 -0.115348 9.386955
-1.742052 -0.116081 9.747273
-1.605278 -0.123256 10.406812
-1.264259 -0.140992 11.045092
-0.730218 -0.228360 0.430108
-0.832726 -0.231735 0.691280
-0.942841 -0.235395 1.202327
-1.250330 -0.245436 1.453352
-1.174800 -0.243070 2.049322
-1.203086 -0.244067 2.558335
-1.231961 -0.245071 2.983816
-1.159031 -0.242752 3.334127
-1.682988 -0.259984 4.564273
-1.943001 -0.268515 5.040507
-1.691840 -0.260506 6.104411
-1.423141 -0.251889 6.920536
-1.438816 -0.252572 8.058512
-1.528764 -0.255562 8.479729
-1.661764 -0.259977 9.064356
-1.742699 -0.262662 9.401050
-1.729787 -0.262296 9.761692
-1.764033 -0.263490 10.287306
-1.447870 -0.253260 10.647768
1.470641 0.509319 2.303376
1.339565 0.505482 2.867850
1.326987 0.504412 3.257259
1.378566 0.504057 3.925835
1.492941 0.505166 4.503016
1.700392 0.508062 5.127205
2.016659 0.513535 5.573913
1.755013 0.507293 6.023197
1.857133 0.508469 6.449726
2.138027 0.513069 6.970915
2.114550 0.511636 7.428445
2.005519 0.508114 8.055750
2.083065 0.508637 8.556218
2.252771 0.511391 8.882976
2.165991 0.508334 9.503340
2.211552 0.508498 9.866226
2.129550 0.505991 10.270021
1.779243 0.498312 10.548184
1.469929 0.491634 10.744332
1.032119 0.482251 10.989102
1.322409 0.642708 2.440278
1.279868 0.637036 2.688057
1.100620 0.613966 3.339104
1.346021 0.642518 3.885714
1.565295 0.668211 4.288699
1.495416 0.658289 4.982715
1.537227 0.662258 5.500710
1.769864 0.689590 5.893277
1.908241 0.705157 6.454712
2.053529 0.721569 7.011630
2.077311 0.723664 7.383058
2.058981 0.720486 7.838472
2.045671 0.717460 8.509458
2.169070 0.731985 8.705031
2.080664 0.719975 9.325642
2.042608 0.714243 9.859437
2.001675 0.708617 10.177852
1.743589 0.676702 10.497694
1.346138 0.628269 10.651446
0.833264 0.565297 11.073978
1.131007 0.742502 2.447976
0.977542 0.707442 2.873387
1.076150 0.728127 3.459528
1.181955 0.750422 4.041575
1.449774 0.809334 4.359044
1.381228 0.792589 5.055218
1.337871 0.781935 5.524786
1.566036 0.831858 5.919355
1.824870 0.887848 6.667050
1.884066 0.899929 7.176064
1.908165 0.904491 7.549060
1.977582 0.918857 8.052943
1.923075 0.905570 8.593313
2.088705 0.941722 8.920908
2.045304 0.930915 9.457011
2.001187 0.920412 9.777333
1.919985 0.901474 10.182866
1.626844 0.835372 10.590617
1.413695 0.787433 10.829221
0.858693 0.663305 11.124368
1.008369 0.843937 2.328143
0.991635 0.837456 2.720820
1.085428 0.867629 3.307340
1.083857 0.865431 4.064066
1.243882 0.918035 4.554924
1.278169 0.928384 5.077594
1.284439 0.929643 5.460337
1.411288 0.970947 6.028075
1.792999 1.097443 6.738089
1.768157 1.088093 7.198151
1.791847 1.095217 7.571133
1.859650 1.116852 8.074977
1.932686 1.140729 8.359020
2.009237 1.165311 8.857698
2.006449 1.163380 9.308542
1.883882 1.121175 9.799353
1.767107 1.080913 10.290581
1.558464 1.010393 10.526638
1.277201 0.915121 10.938357
0.738991 0.733899 11.235064
0.873732 0.919923 2.403663
0.859007 0.912380 2.795347
0.873855 0.917858 3.327135
0.922759 0.938384 3.996514
1.058911 0.998166 4.712936
1.235277 1.077136 4.973911
1.056606 0.994852 5.703183
1.317041 1.111648 6.009155
1.561126 1.220057 6.755241
1.495474 1.189184 7.301155
1.599919 1.235340 7.721476
1.707966 1.283128 8.139111
1.658541 1.259589 8.679268
1.853435 1.346962 8.920908
1.813289 1.327620 9.456678
1.697398 1.274207 9.947642
1.696864 1.273428 10.181863
1.423432 1.149131 10.589270
1.035325 0.972980 11.047533
0.385869 0.679667 11.179384
0.827372 1.030909 2.316875
0.764082 0.993232 2.795347
0.778686 1.000376 3.326451
0.872433 1.053066 3.907790
0.955533 1.099077 4.710894
1.123517 1.195381 4.971203
0.922787 1.078124 5.562546
1.116602 1.188474 6.178267
1.475981 1.394674 6.664705
1.453647 1.380677 7.123882
1.472328 1.390029 7.714773
1.577177 1.450050 7.913277
1.605327 1.464880 8.498774
1.600400 1.460945 8.950393
1.599783 1.459502 9.400404
1.603452 1.460535 9.848752
1.454584 1.373760 10.210142
1.229872 1.243316 10.531315
0.973762 1.094537 10.942724
0.469674 0.803466 11.022852
0.629589 1.047343 2.298768
0.524204 0.969620 2.866976
0.493797 0.946014 3.487787
0.626830 1.040996 3.982639
0.763872 1.138888 4.473921
0.821316 1.178744 5.135638
0.646572 1.051348 5.505271
0.827340 1.180552 6.123370
1.304681 1.524436 6.708953
1.245914 1.480502 7.255116
1.375907 1.573699 7.589533
1.290253 1.510098 8.217616
1.461806 1.633602 8.461392
1.386939 1.577818 9.085073
1.421262 1.601710 9.450507
1.391742 1.578968 9.985425
1.359112 1.554531 10.304975
1.075591 1.348656 10.585004
0.730879 1.098040 11.044569
0.184663 0.702693 11.088673
0.443894 1.036420 2.092939
0.410502 1.006046 2.343346
0.335545 0.937446 3.054105
0.350965 0.949658 3.586190
0.475051 1.058544 4.079956
0.627731 1.192459 4.709102
0.657476 1.217431 5.231012
0.702222 1.256368 5.525778
0.767432 1.312486 6.179460
1.042139 1.554998 6.752220
1.124505 1.627009 7.174535
1.041217 1.551231 7.804782
1.098125 1.600395 8.307244
1.157933 1.652753 8.589494
1.221658 1.707989 9.086745
1.191370 1.679574 9.622432
1.227065 1.710279 9.985091
1.040200 1.542727 10.519233
0.877471 1.397458 10.755749
0.618587 1.166604 11.041155
0.057873 0.667713 11.262063
0.241534 0.970101 2.310256
0.192198 0.915028 2.792366
0.241633 0.967342 3.238176
0.314796 1.044998 3.822350
0.392902 1.128036 4.402370
0.452703 1.191635 4.839564
0.422242 1.157093 5.311279
0.513128 1.254043 5.881019
0.786375 1.548614 6.592718
0.828174 1.592435 7.103036
0.936516 1.709068 7.438200
0.863873 1.628226 8.068193
0.977135 1.750218 8.398209
1.033263 1.809636 8.897258
1.032543 1.807458 9.348761
1.007377 1.778471 9.884315
1.041178 1.814063 10.246742
0.839025 1.593248 10.653971
0.577744 1.308327 11.025063
0.157631 0.851521 11.195538
0.332244 1.243146 2.012298
0.185699 1.046436 2.383907
0.193067 1.054393 2.919550
0.171382 1.023309 3.540755
0.270542 1.153809 4.035734
0.341167 1.245966 4.614552
0.364355 1.275059 5.138319
0.369430 1.280489 5.521912
0.555879 1.526784 6.189104
0.723749 1.748803 6.713869
0.677833 1.684898 7.481557
0.749718 1.780054 7.682388
0.794322 1.837773 8.186422
0.788971 1.829050 8.641804
0.789569 1.827509 9.311843
0.866302 1.929153 9.505991
0.869611 1.931997 9.955665
0.743129 1.761770 10.404872
0.486902 1.418507 10.861139
0.169269 0.994226 11.069847
-0.180489 0.527527 11.158134
0.072179 1.051684 2.398695
0.078679 1.060336 2.934677
-0.011567 0.907265 3.591663
0.129258 1.140655 3.911294
0.206308 1.266137 4.630614
0.155622 1.179385 5.191623
0.064050 1.024698 5.702198
0.276137 1.376148 6.194535
0.461957 1.682589 6.989847
0.519936 1.777493 7.412844
0.534435 1.800137 7.786276
0.573461 1.863124 8.290452
0.547315 1.817346 8.832230
0.636231 1.964199 9.159028
0.659340 2.001235 9.522042
0.621422 1.935528 10.140418
0.555495 1.824539 10.415629
0.376634 1.525321 10.695482
0.151603 1.149303 10.939714
-0.167440 0.616909 11.111195
-0.125728 0.855672 2.368489
-0.096033 0.916307 2.817218
-0.088055 0.930568 3.351955
-0.044295 1.022110 3.566911
0.018595 1.151656 4.286736
0.049349 1.213486 4.949047
0.031623 1.173679 5.418828
0.090625 1.295744 5.986162
0.285360 1.704749 6.608254
0.312752 1.760220 7.116525
0.323195 1.779419 7.708023
0.337197 1.807237 8.077622
0.371977 1.878381 8.577484
0.389198 1.913026 8.943416
0.407774 1.950548 9.307818
0.392610 1.915842 9.842386
0.337084 1.797001 10.118160
0.265477 1.643705 10.481407
0.123280 1.340381 10.979725
-0.085832 0.897319 11.100176
-0.501061 0.017533 11.340660
-0.122068 1.086622 2.331663
-0.164717 0.963239 2.901458
-0.186422 0.899255 3.382331
-0.159599 0.971846 3.826248
-0.102590 1.128937 4.319672
-0.095670 1.143680 5.072426
-0.179919 0.905514 5.306949
-0.104858 1.112523 5.928584
0.119982 1.738873 6.786561
0.141944 1.797394 7.296519
0.196353 1.948171 7.631338
0.176882 1.890070 8.175069
0.129844 1.754812 8.672211
0.143422 1.790655 9.041325
0.190783 1.919803 9.668653
0.220805 2.002413 9.947315
0.146752 1.792886 10.182863
0.033735 1.472243 10.681363
-0.038853 1.266797 10.922740
-0.246997 0.680922 11.095270
-0.244634 1.029914 2.391129
-0.287118 0.847835 3.051225
-0.289068 0.836227 3.445543
-0.274951 0.888749 4.119869
-0.201861 1.187786 4.577020
-0.180439 1.272706 5.015733
-0.242655 1.010569 5.476945
-0.054464 1.762568 8.664449
-0.043550 1.802578 9.252268
-0.011630 1.931279 9.664285
-0.000072 1.975940 10.030494
-0.029988 1.849412 10.306453
-0.108049 1.521254 10.802037
-0.201255 1.133305 10.959946
-0.363978 0.455338 11.310555
-0.342614 1.018659 2.181561
-0.352072 0.943330 2.664122
-0.353253 0.928860 3.057550
-0.361358 0.863287 3.538154
-0.344980 0.972171 4.121914
-0.329679 1.069925 4.928283
-0.333153 1.041205 5.174726
-0.307113 1.221072 5.658575
-0.263747 1.519370 6.546680
-0.229479 1.759871 6.933487
-0.231754 1.736512 7.394345
-0.239415 1.673136 7.940275
-0.240152 1.660879 8.398245
-0.216161 1.828378 8.726862
-0.208973 1.871177 9.311282
-0.207671 1.873681 9.762782
-0.223639 1.751375 10.256389
-0.240860 1.623321 10.535553
-0.270455 1.406907 10.774579
-0.343081 0.881589 10.982835
-0.471730 -0.045629 11.132239
-0.443184 0.939042 2.425872
-0.448957 0.754262 3.083709
-0.446570 0.799523 3.387164
-0.443043 0.854298 4.059155
-0.435707 1.004958 4.777684
-0.427649 1.199041 5.038293
-0.431812 1.068712 5.459289
-0.418465 1.377425 6.127114
-0.404631 1.687183 7.008418
-0.399662 1.804637 7.210272
-0.399493 1.784146 7.669608
-0.402234 1.679192 8.300228
-0.400091 1.714538 8.670186
-0.395747 1.799762 9.169386
-0.389751 1.932505 9.579331
-0.388597 1.937985 10.029152
-0.395812 1.727195 10.479345
-0.402430 1.548031 10.630391
-0.421548 1.031249 11.051560
-0.450129 0.280566 11.276958
-0.530588 0.761626 2.436458
-0.530165 0.772286 2.974572
-0.528517 0.759879 3.368867
-0.526877 0.759271 4.131604
-0.542598 1.014141 4.676420
-0.543954 1.051323 5.202588
-0.534483 0.921616 5.626521
-0.547925 1.144427 6.246524
-0.579947 1.645418 6.783522
-0.579677 1.660298 7.381519
-0.577410 1.640677 7.843303
-0.581762 1.715566 8.130853
-0.576969 1.660403 8.675923
-0.584488 1.787213 9.091299
-0.571855 1.614697 9.672024
-0.571382 1.621836 10.122805
-0.574043 1.673545 10.485418
-0.559130 1.455674 10.722618
-0.524191 0.941001 11.144297
-0.482304 0.306604 11.102268
-0.553105 0.392053 1.464310
-0.620267 0.805704 2.280639
-0.597586 0.676791 2.851060
-0.608559 0.748361 3.297109
-0.620238 0.824133 3.740844
-0.637758 0.936712 4.320359
-0.639072 0.954166 5.071054
-0.611399 0.791612 5.353599
-0.638225 0.961681 6.060140
-0.733911 1.543639 6.644066
-0.743037 1.604919 7.152956
-0.746526 1.630612 7.525378
-0.742918 1.614770 7.982679
-0.739842 1.604890 8.656689
-0.767379 1.774375 8.982377
-0.744626 1.644051 9.475609
-0.729803 1.560233 9.882766
-0.722469 1.520285 10.203246
-0.680667 1.276163 10.742589
-0.629646 0.972361 10.941771
-0.548783 0.488407 11.064723
-0.568781 0.253306 1.587580
-0.632703 0.497858 3.223510
-0.705085 0.765632 3.913804
-0.728916 0.858357 4.720683
-0.766013 0.995552 5.069068
-0.693961 0.738021 5.528227
-0.742385 0.917319 6.010085
-0.871709 1.392018 6.769212
-0.887388 1.452859 7.279256
-0.881260 1.434270 7.739464
-0.888617 1.463863 8.111648
-0.908548 1.540054 8.614186
-0.918503 1.580746 9.199699
-0.905432 1.535907 9.522139
-0.905869 1.541043 9.973618
-0.883577 1.463455 10.381326
-0.803463 1.176334 10.793642
-0.731536 0.916534 10.906804
-0.541501 0.228815 11.040155
-0.661996 0.376349 1.475809
-0.739959 0.582829 2.411956
-0.733651 0.568833 2.804446
-0.718653 0.533751 3.425847
-0.735504 0.578952 3.727173
-0.756096 0.635929 4.395854
-0.849140 0.879004 4.935009
-0.782438 0.709928 5.443580
-0.929290 1.091501 5.936415
-1.059784 1.431361 6.511044
-1.080501 1.487737 7.020476
-1.103392 1.549705 7.526910
-1.048083 1.409940 8.023507
-1.075356 1.483181 8.525209
-1.120761 1.602657 8.936365
-1.104338 1.563407 9.472346
-1.088008 1.523139 9.791378
-1.042985 1.409874 10.282712
-0.948886 1.169064 10.604891
-0.851410 0.918315 10.714382
-0.715293 0.346201 1.413051
-0.839721 0.595399 2.258952
-0.806207 0.531546 2.737176
-0.788020 0.498557 3.356097
-0.721585 0.369551 3.779463
-0.821762 0.568890 4.181477
-0.914167 0.753946 4.807550
-0.869967 0.669391 5.364530
-0.835506 0.602986 5.694971
-0.976687 0.884362 6.357564
-1.179537 1.288115 7.194806
-1.233551 1.395508 7.392646
-1.225152 1.381057 7.847870
-1.158580 1.252109 8.342123
-1.215145 1.365522 8.753807
-1.253982 1.444369 9.248738
-1.235835 1.411068 9.782967
-1.198388 1.339118 10.186909
-1.121735 1.189688 10.549095
-0.987591 0.927146 10.959257
-0.722080 0.226037 1.485177
-0.841060 0.411917 2.421618
-0.831923 0.399423 2.814456
-0.840352 0.414379 3.347814
-0.822503 0.389403 3.966992
-0.885301 0.487838 4.546549
-0.980427 0.635451 5.034017
-1.011854 0.684734 5.329763
-0.961609 0.609888 5.887399
-1.133010 0.875037 6.550392
-1.309207 1.147504 7.205610
-1.348240 1.208407 7.492341
-1.338170 1.194731 7.950303
-1.257927 1.073692 8.447638
-1.255186 1.072072 9.121184
-1.324520 1.179044 9.314992
-1.280066 1.113325 9.939536
-1.329060 1.189452 10.216583
-1.164650 0.939123 10.626976
-1.024615 0.725812 10.951120
-0.685627 0.207079 11.119575
-0.413864 -0.256003 0.652435
-1.094566 0.593316 2.080005
-0.905741 0.360562 2.536768
-0.861404 0.307149 3.015304
-0.820431 0.257905 3.492906
-0.923782 0.387777 3.985406
-1.017473 0.506409 4.701464
-1.020581 0.511540 5.083747
-1.016368 0.508337 5.690317
-1.134128 0.656035 6.167589
-1.309633 0.875528 6.689588
-1.488475 1.099144 7.206568
-1.391568 0.980563 7.702276
-1.410872 1.005746 8.071448
-1.432417 1.034431 8.657363
-1.459085 1.069461 9.239796
-1.486786 1.105041 9.602864
-1.459865 1.072702 9.921364
-1.383792 0.979954 10.412420
-1.189670 0.739751 10.606376
-0.946848 0.439724 10.979685
-0.451405 -0.173938 11.292119
-0.730361 0.060038 1.531688
-0.982081 0.320934 2.434819
-0.832587 0.169145 2.950617
-0.961139 0.301806 3.219577
-0.975272 0.317896 3.751169
-1.016201 0.361881 4.419953
-1.173214 0.524131 4.821106
-1.285249 0.641174 5.531224
-1.257614 0.614233 5.999418
-1.355458 0.716282 6.563653
-1.585657 0.953700 6.998588
-1.507654 0.874930 7.411224
-1.399109 0.765753 8.130525
-1.453346 0.822236 8.415156
-1.510135 0.881987 8.916350
-1.600654 0.976066 9.328103
-1.601967 0.978767 9.779602
-1.515273 0.891326 10.273262
-1.361337 0.734147 10.510837
-1.180887 0.550042 10.837993
-0.719470 0.077547 11.097353
-1.265981 0.411343 2.121000
-0.966660 0.168940 2.525394
-0.954304 0.159950 2.918695
-0.901588 0.118363 3.399250
-0.985216 0.187969 3.983340
-1.207402 0.370557 4.666169
-1.436671 0.558886 5.341554
-1.538590 0.643329 5.909642
-1.270196 0.426089 6.315236
-1.389001 0.523653 6.655718
-1.640482 0.729997 7.310679
-1.589215 0.689765 7.856811
-1.613002 0.710119 8.228653
-1.640260 0.733286 8.596652
-1.739310 0.814971 9.007913
-1.706235 0.789512 9.544307
-1.640429 0.737075 9.950015
-1.515615 0.637101 10.528783
-1.275863 0.442595 10.724667
-0.976457 0.200046 11.100150
-0.412452 -0.258988 11.017517
-0.465934 -0.268226 0.397489
-1.009831 0.105537 2.465799
-0.997356 0.098073 2.857011
-0.849989 -0.000123 3.512276
-0.960905 0.075924 3.865198
-1.410434 0.382632 4.702050
-1.769649 0.627640 5.338951
-1.551059 0.480664 5.788946
-1.449547 0.412931 6.203917
-1.134443 0.200105 6.473905
-1.336067 0.337698 6.859971
-1.604756 0.521959 7.731349
-1.592905 0.515085 8.188389
-1.659022 0.561150 8.689087
-1.801148 0.658275 9.014298
-1.765914 0.635758 9.551035
-1.695707 0.589213 9.957095
-1.662300 0.567385 10.276637
-1.339414 0.349535 10.645221
-1.051446 0.155140 10.932231
-0.569160 -0.171436 11.016089
-0.663496 -0.193837 0.550213
-1.023649 0.002594 2.451340
-1.009745 -0.003885 2.843579
-0.949810 -0.034687 3.322974
-0.846591 -0.088346 3.889904
-1.861697 0.456332 5.466882
-1.794247 0.421166 5.794641
-1.608904 0.323263 6.159306
-1.349465 0.185765 6.477253
-1.396062 0.212339 7.212002
-1.652843 0.350396 7.727291
-1.639825 0.344546 8.185345
-1.709953 0.383106 8.687062
-1.744125 0.402188 9.054813
-1.823226 0.445517 9.551035
-1.748067 0.406431 9.958107
-1.561061 0.307849 10.409766
-1.403751 0.224372 10.558355
-1.096973 0.061569 10.842892
-0.447107 -0.283698 11.281155
-0.692403 -0.236755 0.645949
-0.738359 -0.215547 1.640624
-1.104660 -0.062938 2.309679
-0.907052 -0.143287 2.822742
-0.950547 -0.123822 3.496069
-0.945531 -0.125012 3.884165
-2.057256 0.336927 5.371657
-1.860675 0.256656 5.732032
-1.747395 0.210862 6.143913
-1.512516 0.114997 6.594215
-1.127191 -0.043639 6.728649
-1.186547 -0.017999 7.239686
-1.660766 0.179285 7.979505
-1.692180 0.193572 8.566805
-1.768187 0.225558 8.846841
-1.771731 0.228532 9.514719
-1.815210 0.247287 9.877227
-1.815492 0.247929 10.109402
-1.464802 0.104591 10.690884
-1.144182 -0.027015 10.976066
-0.726910 -0.199058 11.009209
-0.199694 -0.444548 0.644704
-1.265800 -0.126399 2.216656
-0.898578 -0.233925 2.619552
-0.832244 -0.252461 3.098920
-0.986657 -0.205797 3.594455
-1.339782 -0.099947 4.330534
-1.834468 0.047597 5.022704
-2.006364 0.099389 5.502966
-1.886269 0.064835 5.914801
-1.593028 -0.020560 6.451026
-1.398300 -0.077246 6.816689
-0.998935 -0.194840 6.954133
-1.772166 0.036157 8.208409
-1.721901 0.022499 8.749194
-1.719363 0.022738 9.201972
-1.807956 0.049970 9.696508
-1.767679 0.038778 10.016119
-1.768505 0.039529 10.248966
-1.444122 -0.055146 10.745311
-1.023874 -0.178668 10.991380
-0.178641 -0.427584 11.266067
-0.669754 -0.362980 1.654846
-1.059450 -0.288082 2.324105
-0.987928 -0.300546 2.803302
-1.059454 -0.286116 3.246877
-0.944356 -0.306614 3.811432
-1.938214 -0.115802 5.423538
-1.778669 -0.145293 5.699874
-1.742955 -0.151040 6.163152
-1.540728 -0.188391 6.527674
-1.294998 -0.233753 6.981432
-1.013412 -0.286157 7.303169
-1.260577 -0.238749 7.683062
-1.728025 -0.148871 8.503291
-1.723030 -0.148847 8.956532
-1.936264 -0.108140 9.193632
-1.816333 -0.129244 9.901146
-1.687887 -0.152872 10.177551
-1.511512 -0.185809 10.326114
-1.180289 -0.247192 10.825950
-0.788182 -0.320776 10.986548
-0.736605 -0.422114 1.671841
-1.048459 -0.395322 2.285986
-0.975575 -0.400276 2.765114
-1.216129 -0.379448 3.315852
-0.815777 -0.411634 3.579577
-2.039509 -0.308127 5.214608
-1.825795 -0.324844 5.576207
-1.689810 -0.334629 6.212119
-1.485236 -0.350593 6.576895
-1.331534 -0.362576 6.856221
-0.741025 -0.410774 6.899621
-1.810025 -0.320426 8.294535
-1.891259 -0.312735 8.793570
-1.888952 -0.311975 9.245040
-1.850222 -0.314017 9.780948
-1.759610 -0.321027 9.971257
-1.549457 -0.337267 10.421970
-1.162455 -0.368134 10.793424
-0.764371 -0.400350 10.954390
-0.620200 -0.492517 0.708965
-0.754479 -0.493544 1.221022
-0.943146 -0.494828 2.016769
-1.006984 -0.494886 2.465725
-0.878437 -0.491686 3.034471
-0.867697 -0.490699 3.426101
-1.830308 -0.502632 4.914670
-1.698095 -0.499694 5.330782
-1.520112 -0.495858 5.834008
-1.719054 -0.498432 6.089935
-1.414749 -0.492545 6.629887
-1.347640 -0.490806 6.959358
-0.571726 -0.478307 7.135220
-1.783619 -0.494424 8.487155
-1.866473 -0.494673 8.987080
-1.823343 -0.492871 9.525806
-1.820380 -0.492331 9.761436
-1.658374 -0.488591 10.338084
-1.400787 -0.483891 10.659604
-1.015595 -0.477091 11.031651
-0.395997 -0.467045 11.203156
-0.196452 -0.509872 0.720618
-0.835958 -0.582806 2.642774
-1.045422 -0.607153 3.054454
-0.673182 -0.561485 3.461096
-1.873886 -0.702109 5.320499
-1.355176 -0.639039 5.617495
-1.381463 -0.641879 5.771514
-1.520278 -0.657405 6.333840
-1.231404 -0.621963 6.649862
-0.938598 -0.585570 7.192512
-0.258295 -0.503195 7.419757
-1.607174 -0.662845 8.715420
-1.736297 -0.677524 9.125621
-1.614995 -0.660938 10.066744
-1.407384 -0.634996 10.516946
-1.191649 -0.608525 10.754009
-0.426366 -0.591354 0.827270
-0.721195 -0.656821 1.450130
-1.047295 -0.729079 2.210161
-0.810671 -0.674668 2.580835
-0.742067 -0.658093 3.060995
-0.732431 -0.655071 3.451942
-1.891283 -0.914422 4.956169
-1.434703 -0.808408 6.148812
-1.365935 -0.792121 6.477470
-1.035498 -0.716375 6.884429
-0.668696 -0.632670 7.160964
-0.953802 -0.696160 7.678353
-1.461794 -0.809215 8.633078
-1.541650 -0.826703 8.915338
-1.458463 -0.806510 9.542013
-1.592155 -0.835926 9.950352
-1.552723 -0.826303 10.271237
-1.222917 -0.750504 10.769473
-0.833029 -0.661818 10.929481
-0.264420 -0.532797 11.014694
-0.297778 -0.606891 0.757175
-1.035022 -0.847793 2.110078
-0.803662 -0.770441 2.480488
-0.895715 -0.799596 3.068498
-0.701093 -0.734083 3.581370
-1.653415 -1.045542 5.202827
-1.215768 -0.898128 6.399405
-1.113261 -0.863791 6.593297
-0.876164 -0.784350 7.050478
-0.477054 -0.651519 7.415101
-0.717643 -0.730270 7.794564
-1.425934 -0.962952 8.531326
-1.506876 -0.988630 9.029189
-1.428558 -0.961348 9.652766
-1.599388 -1.017155 9.972088
-1.399869 -0.950164 10.420871
-1.155689 -0.868676 10.743950
-0.703486 -0.718349 11.077766
0.096104 -0.453431 11.263958
-0.402889 -0.708855 0.666696
-0.505821 -0.754004 1.032755
-0.784095 -0.876910 1.652917
-0.810768 -0.887271 2.331986
-0.590839 -0.788160 2.702706
-0.760293 -0.862403 3.342522
-0.626546 -0.801675 3.766316
-1.517630 -1.196409 5.243803
-1.164333 -1.037960 5.506463
-0.858199 -0.900771 5.686624
-0.815978 -0.880321 6.378961
-0.957967 -0.942982 6.718072
-0.824029 -0.880065 8.059690
-1.344703 -1.111217 8.703265
-1.346481 -1.110474 9.374051
-1.470526 -1.164959 9.782294
-1.395803 -1.130643 10.188595
-1.195103 -1.040433 10.424682
-0.888574 -0.902334 10.925133
-0.440654 -0.701932 11.047091
-0.224187 -0.687585 0.312453
-0.357113 -0.762667 0.971112
-0.569513 -0.883468 1.680229
-0.717758 -0.967413 2.327533
-0.630956 -0.916529 2.664766
-0.621787 -0.909400 3.426619
-0.589839 -0.890373 3.674802
-1.418227 -1.364078 5.378208
-1.021783 -1.135433 5.366677
-0.837198 -1.028074 5.734390
-0.915512 -1.071669 6.387274
-0.856566 -1.036873 6.716707
-0.613235 -0.893172 8.101485
-1.030743 -1.132548 8.699828
-1.225004 -1.242970 9.374388
-1.378488 -1.330721 9.696880
-1.272270 -1.268266 10.188258
-1.126648 -1.183392 10.551804
-0.859521 -1.028837 10.747867
-0.334151 -0.724871 11.132263
-0.373059 -0.866007 0.796956
-0.551185 -0.993547 1.361768
-0.660530 -1.070466 2.239910
-0.511623 -0.961901 2.521020
-0.569101 -1.002378 2.965245
-0.334528 -0.831314 3.424120
-1.355012 -1.565761 5.200881
-1.181735 -1.439339 5.562405
-0.911076 -1.242869 5.739260
-0.781809 -1.148532 6.018500
-0.827147 -1.180038 6.532352
-0.625373 -1.032736 6.987439
-1.161140 -1.415618 8.969881
-1.166688 -1.417911 9.637547
-1.172973 -1.421302 10.086501
-1.068332 -1.344805 10.363418
-0.859614 -1.192815 10.686804
-0.578874 -0.988762 10.972979
0.209007 -0.417573 11.206328
-0.516826 -1.105130 1.227399
-0.553099 -1.135118 2.051272
-0.434323 -1.028171 2.475681
-0.360907 -0.961856 2.812594
-0.415929 -1.009604 3.256496
-1.261494 -1.758032 4.849886
-1.291804 -1.783578 5.364741
-0.929175 -1.459480 5.797078
-0.652465 -1.212978 5.839415
-0.692685 -1.247346 6.354582
-0.606339 -1.169298 6.770637
-0.391436 -0.977046 7.092358
-0.043105 -0.665612 7.548967
-0.995655 -1.509652 9.016380
-0.996392 -1.509042 9.468193
-1.000823 -1.511726 9.918331
-0.971117 -1.484380 10.238170
-0.875376 -1.398353 10.515921
-0.586544 -1.140136 10.887191
-0.025737 -0.640178 11.106321
0.095146 -0.610813 0.531697
-0.275994 -1.012698 1.325820
-0.484426 -1.237865 1.943983
-0.337061 -1.075728 2.456800
-0.327094 -1.063656 2.848774
-0.130007 -0.847511 3.309541
-1.072170 -1.868552 5.058428
-1.076999 -1.872642 5.436841
-0.841202 -1.614517 5.834727
-0.549148 -1.295240 6.188403
-0.563027 -1.309203 6.562648
-0.396155 -1.126001 7.014841
-0.175973 -0.885549 7.199635
-0.165164 -0.872342 7.661668
-0.970596 -1.745460 9.074143
-0.940338 -1.711515 9.391047
-0.917191 -1.684650 9.923006
-0.979905 -1.752133 10.195388
-0.752584 -1.502958 10.685382
-0.483721 -1.209568 10.837993
-0.038953 -0.724221 11.092492
-0.135982 -0.983790 0.538577
-0.094556 -0.926576 1.169573
-0.194114 -1.056535 1.821120
-0.248370 -1.126536 2.412537
-0.188843 -1.046302 2.749983
-0.148447 -0.990984 3.229220
