0.900287 4.807618 6.326510
0.905492 4.821484 7.142209
0.914008 4.844158 8.026573
0.870712 4.729088 8.512042
2.306403 6.747870 1.013218
1.325762 4.711778 2.170989
1.323851 4.707829 2.695773
1.303543 4.665679 3.206670
1.313223 4.685808 4.137074
1.288082 4.633622 4.566699
1.294143 4.646232 5.328075
1.313020 4.685448 5.999512
1.312731 4.684868 6.626977
1.331453 4.723772 7.549082
1.329867 4.720501 8.260616
1.724041 4.584364 2.267006
1.710116 4.560838 2.801798
1.701654 4.546547 3.364023
1.714475 4.568248 4.276839
1.726994 4.589431 4.971904
1.727031 4.589516 5.744130
1.694608 4.534713 6.164411
1.691260 4.529069 6.740345
1.706839 4.555431 7.585066
1.711906 4.564016 8.239819
2.175803 4.465225 2.753181
2.183295 4.475614 3.390328
2.157271 4.439586 3.796737
2.138039 4.412970 4.521284
2.133376 4.406526 5.114550
2.163675 4.448508 6.040639
2.166392 4.452286 6.692833
2.146950 4.425375 7.212004
2.125486 4.395664 7.799693
2.095740 4.354494 8.727689
2.605977 4.324434 2.905857
2.615475 4.335462 3.524079
2.612377 4.331882 4.075244
2.563770 4.275515 4.591831
2.588434 4.304142 5.523054
2.543261 4.251757 5.923640
2.511577 4.215021 6.574964
2.541025 4.249191 7.250941
2.588268 4.304004 7.988232
3.005796 4.143767 2.250665
3.007421 4.145375 2.875788
3.018732 4.156498 3.518560
3.048229 4.185485 4.291173
2.996912 4.135092 4.798032
2.980491 4.118975 5.426166
2.997259 4.135458 6.113456
3.000562 4.138718 6.897100
3.027596 4.165286 7.626390
3.009628 4.147650 8.229304
3.603792 4.036171 2.739553
3.615302 4.045570 3.402086
3.609367 4.040740 3.938227
3.591507 4.026187 4.712523
3.588909 4.024079 5.305809
3.588041 4.023381 5.840296
3.537971 3.982554 6.396788
3.526652 3.973337 7.172272
3.556643 3.997811 7.872072
3.527947 3.974420 8.621690
4.372206 4.024776 1.496234
4.117935 3.850643 2.249950
4.088575 3.830541 2.610166
4.137314 3.863938 3.573628
4.125608 3.855928 4.003775
4.132435 3.860618 4.812439
4.151635 3.873777 5.397782
4.141296 3.866707 6.008164
4.110760 3.845803 6.556655
4.135689 3.862893 7.530368
4.099430 3.838069 8.047297
4.833138 3.666896 1.528558
4.782571 3.638725 2.262322
4.804034 3.650696 2.817932
4.789619 3.642671 3.359728
4.785763 3.640535 4.199648
4.763325 3.628037 4.670846
4.766001 3.629542 5.492429
4.791490 3.643762 6.341496
4.772590 3.633233 6.657420
4.772008 3.632920 7.329277
4.805542 3.651621 7.998170
5.247056 3.291956 1.769886
5.235295 3.286673 2.222667
5.213919 3.277069 2.828046
5.249669 3.293162 3.759475
5.226611 3.282796 4.040213
5.226137 3.282597 4.964113
5.193972 3.268139 5.463285
5.203394 3.272388 6.199402
5.216113 3.278118 6.861983
5.219584 3.279692 7.653666
5.189050 3.265969 8.311889
4.925483 2.604506 2.466110
4.966483 2.618710 3.268558
4.959115 2.616168 3.826892
4.925996 2.604714 4.510877
4.918207 2.602027 5.091905
4.831029 2.571857 5.539376
4.861294 2.582348 6.560740
4.794997 2.559405 6.882426
4.847739 2.577675 7.815230
4.831844 2.572181 8.321776
4.566717 2.056330 2.576778
4.595629 2.063799 3.141885
4.596275 2.063976 3.840702
4.552259 2.052627 4.432576
4.532334 2.047496 5.140220
4.571629 2.057648 5.985871
4.508916 2.041471 6.379573
4.560078 2.054687 7.385524
4.578618 2.059480 7.979538
4.354468 2.001649 8.552648
6.775206 1.972488 1.053478
4.341369 1.573372 1.932999
4.338689 1.572942 2.594345
4.323093 1.570393 3.231294
4.325047 1.570724 3.931089
4.336440 1.572601 4.578911
4.320526 1.570002 5.304097
4.324654 1.570690 6.058085
4.296409 1.566067 6.668487
4.288698 1.564814 7.462699
4.249674 1.558422 8.022099
4.142780 1.161653 2.091829
4.135581 1.161129 3.081362
4.175069 1.164085 3.668127
4.159136 1.162906 4.350056
4.101689 1.158627 4.986168
4.065843 1.155959 5.506398
4.062434 1.155714 6.189202
4.114398 1.159606 7.105533
4.102113 1.158697 7.707681
4.054159 1.155127 8.331716
3.948866 0.793772 1.866356
3.943443 0.793858 2.504073
3.950391 0.793768 3.142259
3.912207 0.794321 3.685855
3.908225 0.794389 4.491782
3.935498 0.794010 5.188605
3.908469 0.794406 5.932312
3.936550 0.794017 6.755821
3.902713 0.794507 7.280447
3.758176 0.464204 1.998141
3.768434 0.463143 2.341515
3.774736 0.462498 3.029247
3.861318 0.453515 3.920652
3.863109 0.453341 4.729607
3.790951 0.460844 5.194765
3.783915 0.461588 6.078334
3.780195 0.461985 6.847643
3.787662 0.461218 7.452392
3.721913 0.468057 8.019652
3.615885 0.167820 2.129674
3.632470 0.164625 2.601944
3.637405 0.163681 3.184300
3.616310 0.167764 3.934347
3.579059 0.174964 4.607136
3.626658 0.165791 5.652076
3.627462 0.165644 6.189375
3.597529 0.171432 6.940175
3.584591 0.173937 7.430666
3.625161 0.166118 8.273124
3.594410 -0.123276 2.166754
3.545083 -0.109461 2.779237
3.505455 -0.098361 3.375690
3.545168 -0.109468 3.931434
3.609455 -0.127447 4.879853
3.551747 -0.111285 5.625661
3.550959 -0.111054 6.322639
3.586398 -0.120962 7.008098
3.535712 -0.106768 7.553819
3.586118 -0.120863 8.434318
3.426366 -0.383850 2.052499
3.473085 -0.401461 2.736044
3.434974 -0.387077 3.351586
3.413267 -0.378879 4.042233
3.479259 -0.403759 4.772404
3.494992 -0.409682 5.546965
3.462154 -0.397284 6.361438
3.365456 -0.360803 6.818770
3.458996 -0.396071 7.782541
3.474009 -0.401723 8.473830
6.815327 -2.343043 0.859871
3.337888 -0.665978 2.209284
3.351246 -0.672414 2.611580
3.398345 -0.695114 3.534154
3.362811 -0.677969 3.996549
3.343843 -0.668809 4.819679
3.365456 -0.679219 5.642183
3.367591 -0.680238 6.359964
3.339258 -0.666562 7.088292
3.347316 -0.670437 7.815359
3.303631 -0.649357 8.560762
3.223668 -0.935454 2.862108
3.246505 -0.949082 3.687626
3.237867 -0.943910 4.444588
3.229100 -0.938663 5.056786
3.213958 -0.929607 5.719537
3.236161 -0.942856 6.576750
3.269418 -0.962710 7.248142
3.251104 -0.951759 7.934905
3.070971 -0.844149 8.399769
3.371261 -1.359676 1.720412
3.163946 -1.211849 2.466273
3.161675 -1.210221 2.952361
3.181705 -1.224489 3.722334
3.160572 -1.209411 4.304933
3.138368 -1.193568 5.011000
3.145744 -1.198812 5.875231
3.122300 -1.182088 6.366096
3.184103 -1.226135 7.408089
3.079700 -1.533673 1.687151
3.053421 -1.510996 2.309874
3.066570 -1.522320 3.206998
3.072500 -1.527419 4.005686
3.066632 -1.522346 4.716460
3.051663 -1.509425 5.209418
3.042532 -1.501537 5.890061
3.080529 -1.534291 6.865290
3.052383 -1.510006 7.371515
3.089865 -1.542318 8.263958
3.013634 -1.871984 2.159137
3.030701 -1.889467 2.787135
2.987636 -1.845307 3.448613
2.969476 -1.826678 4.083581
2.994527 -1.852341 4.945581
2.986613 -1.844213 5.668732
2.929864 -1.786028 6.164341
2.940438 -1.796853 6.892691
2.996583 -1.854392 7.745520
3.008334 -1.866421 8.559591
2.999653 -2.340386 1.663350
2.921510 -2.244304 2.581670
2.920787 -2.243405 3.063435
2.934717 -2.260513 3.763033
2.943949 -2.271846 4.492172
2.927815 -2.251997 5.173581
2.945101 -2.273229 5.953520
2.912974 -2.233724 6.452566
2.918555 -2.240565 7.385025
2.916404 -2.237905 8.016671
2.725519 -2.003238 8.633987
2.813658 -2.634276 1.725743
2.823873 -2.649322 2.401973
2.813540 -2.634069 3.071547
2.826321 -2.652889 4.075964
2.814781 -2.635864 4.396110
2.824949 -2.650832 5.444240
2.819861 -2.643316 5.932154
2.845134 -2.680558 6.857771
2.786284 -2.593774 7.267189
2.797666 -2.610535 8.145002
2.707428 -3.146588 1.908407
2.697595 -3.128746 2.750436
2.695718 -3.125322 3.522455
2.704754 -3.141679 4.069790
2.686774 -3.109080 4.714481
2.683917 -3.103881 5.504920
2.705608 -3.143160 6.338458
2.697422 -3.128308 6.993807
2.683749 -3.103517 7.526499
2.699715 -3.132421 8.424634
2.594649 -3.744079 2.323061
2.572342 -3.693882 2.794306
2.555440 -3.655839 3.364734
2.566108 -3.679805 4.297720
2.589838 -3.733159 5.069056
2.576261 -3.702599 5.594005
2.565883 -3.679225 6.438253
2.566403 -3.680368 7.175919
2.558178 -3.661850 7.601616
2.557192 -3.659606 8.322515
2.445826 -4.418025 2.383507
2.420493 -4.345573 2.892512
2.413722 -4.326195 3.374634
2.432908 -4.381008 4.360469
2.421042 -4.347063 4.733835
2.439397 -4.399498 5.761229
2.429780 -4.371984 6.237065
2.419506 -4.342578 6.949800
2.420263 -4.344713 7.626411
2.430277 -4.373314 8.366242
2.208640 -5.211571 2.180951
2.212392 -5.226211 3.050755
2.199707 -5.176531 3.413550
2.206655 -5.203679 4.321420
2.211159 -5.221275 4.940195
2.209742 -5.215688 5.660129
2.197388 -5.167294 6.164702
2.189292 -5.135570 6.723148
2.201939 -5.185025 7.651205
2.220986 -5.259545 8.464641
1.872437 -6.287473 1.283001
1.840906 -6.091446 1.491819
1.844399 -6.113082 2.373903
1.840390 -6.088115 2.892230
1.846810 -6.127941 3.809208
1.856814 -6.190071 4.457046
1.854594 -6.176242 4.778017
1.849409 -6.143961 5.313853
1.846985 -6.128827 6.063615
1.842209 -6.099088 6.633504
1.857931 -6.196732 7.658139
1.847998 -6.134948 8.072291
1.300011 -6.103434 1.551623
1.293405 -6.013275 2.030740
1.292515 -6.000970 2.921641
1.292307 -5.998061 3.275429
1.296242 -6.051534 4.216075
1.290404 -5.971858 4.648400
1.291547 -5.987265 5.559043
1.292971 -6.006559 6.182634
1.292517 -6.000254 6.736239
1.293652 -6.015612 7.350269
0.780664 -5.753921 2.736653
0.780503 -5.768028 3.382321
0.780721 -5.750480 3.801522
0.781090 -5.720441 4.291921
0.780938 -5.734017 5.080958
0.780991 -5.730260 5.616908
0.780899 -5.738710 6.327755
0.781470 -5.692111 6.930836
0.780359 -5.784943 7.661454
0.779463 -5.860096 8.461363
0.277181 -5.542948 2.535528
0.276099 -5.553427 3.194996
0.272257 -5.590407 3.999748
0.271930 -5.593657 4.767022
0.276056 -5.554096 5.066271
0.274645 -5.567748 5.900092
0.271164 -5.601253 6.577962
0.268703 -5.624971 7.261308
0.277189 -5.543582 7.739891
0.291191 -5.409275 8.407105
-0.172087 -5.379803 2.663449
-0.172560 -5.382296 3.163289
-0.174157 -5.390629 3.940414
-0.165707 -5.346872 4.517500
-0.165187 -5.344222 5.145633
-0.169608 -5.367181 5.694181
-0.174066 -5.390359 6.642028
-0.167646 -5.357131 7.288061
-0.166633 -5.351924 7.889277
-0.132478 -5.174920 8.463083
-0.601728 -5.198354 2.635986
-0.609050 -5.224016 3.500733
-0.611376 -5.232188 4.195147
-0.601221 -5.196692 4.801151
-0.604279 -5.207423 5.492646
-0.620542 -5.264360 6.233136
-0.610196 -5.228191 6.762600
-0.590643 -5.159814 7.338657
-0.586412 -5.145039 7.891114
-1.041238 -5.068150 2.404723
-1.046741 -5.082469 3.193180
-1.046046 -5.080689 3.845493
-1.050834 -5.093145 4.516016
-1.041124 -5.067954 4.948152
-1.027613 -5.032905 5.630843
-1.019398 -5.011605 6.316768
-1.036363 -5.055683 7.165635
-1.015224 -5.000816 7.518677
-1.019917 -5.013031 8.304084
-1.442803 -4.945578 2.466300
-1.436400 -4.932332 3.153048
-1.440985 -4.941860 3.962277
-1.420209 -4.898826 4.509155
-1.388647 -4.833441 4.983252
-1.398998 -4.854913 5.740298
-1.408447 -4.874515 6.376838
-1.410453 -4.878696 7.127483
-1.427638 -4.914329 7.840809
-1.391880 -4.840255 8.514051
-1.854612 -4.788725 2.657921
-1.840163 -4.764400 3.067905
-1.859443 -4.796896 3.927638
-1.846515 -4.775137 4.454550
-1.832610 -4.751741 5.301443
-1.835931 -4.757350 5.892914
-1.853082 -4.786256 6.580842
-1.856185 -4.791502 7.313555
-1.862461 -4.802089 7.878976
-1.772210 -4.650106 8.693305
-2.308188 -4.631359 2.422026
-2.300860 -4.621270 3.160149
-2.299758 -4.619766 3.821625
-2.293226 -4.610775 4.503940
-2.280306 -4.592968 4.980052
-2.296427 -4.615220 5.760740
-2.291461 -4.608390 6.516041
-2.313343 -4.638582 7.152349
-2.355279 -4.696437 8.010262
-2.255476 -4.558813 8.621278
-2.791305 -4.531543 2.407523
-2.782899 -4.521828 3.142169
-2.776805 -4.514786 3.714383
-2.750601 -4.484467 4.378762
-2.756749 -4.491600 5.129123
-2.738043 -4.469962 5.845003
-2.728112 -4.458477 6.395833
-2.763534 -4.499498 7.133828
-2.795428 -4.536434 7.885873
-2.722382 -4.451894 8.644639
-3.296215 -4.397340 2.417822
-3.299789 -4.400832 3.027006
-3.301386 -4.402403 3.766856
-3.288098 -4.389471 4.381792
-3.334052 -4.434252 5.354707
-3.311539 -4.412333 5.847658
-3.254214 -4.356505 6.307769
-3.330254 -4.430591 7.323175
-3.301889 -4.402969 7.633765
-3.305642 -4.406645 8.692850
-3.880817 -4.243391 2.594800
-3.870117 -4.234721 3.243216
-3.887539 -4.248868 3.865169
-3.877408 -4.240660 4.509331
-3.927483 -4.281305 5.448846
-3.926440 -4.280468 5.959792
-3.915042 -4.271230 6.493048
-3.953295 -4.302284 7.439694
-3.924147 -4.278643 7.871905
-3.779038 -4.160920 8.521523
-4.561377 -4.118204 1.804391
-4.555006 -4.113896 2.383724
-4.555683 -4.114364 2.921641
-4.586301 -4.135129 3.795078
-4.603898 -4.147063 4.291415
-4.603749 -4.146974 4.961052
-4.572748 -4.125975 5.622568
-4.545763 -4.107695 6.073606
-4.548808 -4.109769 6.694303
-4.611929 -4.152563 7.609883
-4.548769 -4.109765 7.968189
-5.279538 -3.897060 1.514550
-5.217992 -3.862964 1.805513
-5.235737 -3.872806 2.451827
-5.241859 -3.876208 3.066021
-5.249416 -3.880408 3.848123
-5.217763 -3.862877 4.261107
-5.267330 -3.890355 5.177868
-5.289667 -3.902743 5.883213
-5.269430 -3.891538 6.362408
-5.227595 -3.868366 6.806572
-5.246741 -3.878984 7.438719
-5.313217 -3.915831 8.358917
-5.472459 -3.368494 2.122771
-5.142292 -3.221416 2.495948
-5.172919 -3.235075 3.488793
-5.176221 -3.236551 3.843432
-5.168815 -3.233263 4.530861
-5.212403 -3.252693 5.334101
-5.215363 -3.254023 6.044526
-5.141349 -3.221055 6.324837
-5.187448 -3.241604 7.165758
-5.201157 -3.247720 7.739492
-5.197649 -3.246170 8.516276
-4.924345 -2.569560 2.638098
-4.915513 -2.566572 3.341968
-4.941567 -2.575427 4.001995
-4.946576 -2.577140 4.786954
-4.935551 -2.573407 5.491446
-4.910321 -2.564849 6.001633
-4.893412 -2.559119 6.663439
-4.864625 -2.549353 7.191018
-4.892451 -2.558812 7.960756
-4.649962 -2.065561 2.703633
-4.633831 -2.061448 3.287931
-4.609029 -2.055120 3.936274
-4.660849 -2.068373 4.728659
-4.660139 -2.068201 5.344812
-4.643678 -2.064006 6.108616
-4.612462 -2.056038 6.684502
-4.586552 -2.049425 7.236930
-4.607162 -2.054702 7.974320
-6.779996 -1.956353 1.029078
-4.420609 -1.575219 1.992736
-4.447030 -1.579498 2.721634
-4.456184 -1.580985 3.319892
-4.441615 -1.578638 3.797571
-4.400359 -1.571983 4.439215
-4.422671 -1.575602 5.487928
-4.395222 -1.571173 5.832228
-4.424379 -1.575897 6.809919
-4.381933 -1.569047 7.271806
-4.383648 -1.569333 7.920722
-4.265131 -1.168564 2.682875
-4.233683 -1.166238 3.040053
-4.251319 -1.167559 3.983548
-4.261106 -1.168293 4.608737
-4.214974 -1.164880 5.089961
-4.229635 -1.165979 5.954966
-4.225961 -1.165718 6.728600
-4.178644 -1.162217 7.176568
-4.196706 -1.163566 7.920001
-4.102811 -0.776851 1.916777
-4.098714 -0.776933 2.560529
-4.061325 -0.777612 3.270408
-4.070458 -0.777460 4.051915
-4.043618 -0.777947 4.559771
-4.032154 -0.778160 5.131760
-4.009641 -0.778571 5.735423
-4.073275 -0.777448 6.797487
-4.059661 -0.777699 7.288875
-4.086164 -0.777237 8.185268
-3.920246 -0.443526 2.399190
-3.931926 -0.442311 3.155727
-3.948608 -0.440570 3.759645
-3.909969 -0.444629 4.188558
-3.946057 -0.440859 5.230606
-3.921690 -0.443420 5.626754
-3.913227 -0.444322 6.584362
-3.870251 -0.448838 7.213073
-3.870844 -0.448786 7.876246
-3.723047 -0.464301 8.730037
-3.873622 -0.131044 2.501116
-3.822757 -0.140691 2.991744
-3.764779 -0.151689 3.630627
-3.849621 -0.135619 4.351017
-3.817509 -0.141715 4.993203
-3.772186 -0.150317 5.816301
-3.758287 -0.152959 6.400718
-3.760387 -0.152572 7.163216
-3.735915 -0.157220 7.833685
-3.630707 -0.177172 8.652396
-3.917651 0.236848 1.517528
-3.695703 0.173326 2.354096
-3.710214 0.177466 3.188839
-3.701632 0.175002 3.781154
-3.666493 0.164936 4.497142
-3.702489 0.175225 5.282322
-3.623681 0.152669 5.624830
-3.660220 0.163113 6.407211
-3.667404 0.165159 7.058673
-3.667480 0.165169 7.866579
-3.379749 0.082826 8.509640
-3.486630 0.421752 1.603974
-3.532513 0.439264 2.514150
-3.573986 0.455098 2.931368
-3.541715 0.442762 3.581715
-3.572401 0.454468 4.540957
-3.594972 0.463082 4.997954
-3.549668 0.445766 5.807651
-3.495527 0.425077 6.439631
-3.517007 0.433268 7.316942
-3.309827 0.673391 2.145990
-3.459136 0.746454 2.597119
-3.492578 0.762810 3.297993
-3.510258 0.771448 4.202220
-3.452346 0.743100 4.575821
-3.436993 0.735575 5.315977
-3.430455 0.732364 6.012917
-3.428905 0.731596 6.657192
-3.503551 0.768111 7.685586
-3.468734 0.751061 8.366821
-3.257860 0.969034 2.035516
-3.389261 1.048126 2.797446
-3.363966 1.032885 3.557976
-3.369060 1.035940 4.245448
-3.375704 1.039927 5.045796
-3.333584 1.014563 5.468122
-3.383499 1.044597 6.408422
-3.361516 1.031356 6.870956
-3.394798 1.051375 7.900339
-3.353284 1.026373 8.519416
-3.383755 1.389317 1.611122
-3.311625 1.337361 2.140205
-3.397076 1.398887 2.891146
-3.397261 1.399007 3.683361
-3.317083 1.341255 4.295452
-3.334894 1.354066 5.203707
-3.375665 1.383414 5.964203
-3.323882 1.346111 6.541001
-3.255006 1.296499 7.089160
-3.327127 1.348422 8.082293
-3.077675 1.168765 8.558525
-3.287774 1.714438 1.710123
-3.251459 1.683082 2.619018
-3.260207 1.690619 3.300710
-3.225767 1.660891 3.723451
-3.210019 1.647289 4.356742
-3.226210 1.661244 5.246120
-3.193030 1.632599 5.871315
-3.168761 1.611643 6.499466
-3.204357 1.642349 7.221585
-3.206344 1.644051 7.899552
-3.178379 2.052585 1.853535
-3.172750 2.046777 2.432805
-3.191635 2.066203 3.419217
-3.154063 2.027509 3.713912
-3.126971 1.999599 4.419712
-3.135255 2.008113 5.215875
-3.113269 1.985460 5.929891
-3.118159 1.990480 6.633885
-3.134114 2.006891 7.480076
-3.117303 1.989571 8.002570
-5.160699 5.030993 0.827503
-3.088781 2.468308 1.831970
-3.091270 2.471368 2.704900
-3.044245 2.413193 3.178246
-3.052537 2.423430 4.037754
-3.059425 2.431936 4.672916
-3.051392 2.421987 5.221755
-3.068034 2.442550 6.153701
-3.016800 2.379171 6.600547
-3.004525 2.363972 7.357485
-3.039900 2.407707 8.152724
-4.646854 5.378223 0.850691
-2.963239 2.878233 2.087807
-2.993430 2.923043 2.828380
-2.989723 2.917521 3.536742
-2.952482 2.862212 3.964646
-2.965862 2.882055 4.955963
-2.938396 2.841261 5.379602
-2.936400 2.838275 6.247764
-2.962222 2.876598 6.984866
-2.930102 2.828895 7.365339
-2.947175 2.854224 8.272574
-2.830343 3.368670 2.728368
-2.822865 3.355104 3.334302
-2.826071 3.360892 4.065529
-2.829574 3.367214 4.880122
-2.794442 3.303552 5.321185
-2.795253 3.304995 6.227366
-2.798636 3.311104 6.883427
-2.779184 3.275848 7.359252
-2.800081 3.313684 8.201957
-2.687612 3.976343 2.270416
-2.696440 3.996274 3.225751
-2.677089 3.952495 3.616263
-2.679790 3.958572 4.525525
-2.691943 3.986035 5.223064
-2.687619 3.976231 5.884413
-2.646464 3.883140 6.213828
-2.664436 3.923752 7.209381
-2.657141 3.907239 7.640824
-2.665130 3.925274 8.563844
-2.483922 4.658859 2.573324
-2.478486 4.642863 3.188416
-2.483683 4.658093 4.046211
-2.470264 4.618645 4.634301
-2.446783 4.549648 5.089609
-2.454460 4.572167 5.826358
-2.459717 4.587580 6.568260
-2.472746 4.625818 7.346381
-2.480079 4.647338 7.835900
-2.461586 4.592989 8.391409
-2.327749 5.922907 1.525115
-2.220007 5.483511 2.409458
-2.212179 5.451569 2.783629
-2.214810 5.462241 3.700129
-2.216611 5.469551 4.330174
-2.216051 5.467227 4.980879
-2.211990 5.450632 5.611229
-2.208049 5.434527 6.167627
-2.227590 5.514156 7.067893
-2.218781 5.478216 7.399516
-2.214886 5.462293 8.047467
-1.858282 6.243705 1.655917
-1.827861 6.053246 1.992529
-1.826798 6.046549 2.510252
-1.834255 6.093148 3.335019
-1.834868 6.096932 3.996669
-1.835828 6.102890 4.550998
-1.832616 6.082722 5.212359
-1.830625 6.070221 5.664154
-1.829583 6.063627 6.417001
-1.837242 6.111487 7.355869
-1.836430 6.106362 7.817387
-1.832429 6.081268 8.383316
-1.302797 6.181795 1.742453
-1.282096 5.897610 2.295100
-1.279551 5.862616 2.650806
-1.280313 5.872886 3.605777
-1.279836 5.866237 4.107009
-1.279116 5.856246 4.729831
-1.277263 5.830695 5.332266
-1.275422 5.805325 5.861028
-1.277179 5.829315 6.480415
-1.276624 5.821571 7.135388
-1.276492 5.819620 7.874061
-1.265578 5.669692 8.673838
-0.750059 5.616604 2.359805
-0.750600 5.586621 2.805107
-0.750310 5.603434 3.471406
-0.750017 5.620292 3.984491
-0.750673 5.583957 4.624955
-0.749722 5.638114 5.648064
-0.749768 5.636054 6.293044
-0.749935 5.627115 6.829287
-0.751169 5.558243 7.274618
-0.749969 5.626406 8.319992
-0.283036 5.428296 2.110982
-0.281293 5.444974 3.047101
-0.281606 5.442091 3.719518
-0.285747 5.402836 4.129372
-0.282117 5.437438 5.133146
-0.279312 5.464140 5.705702
-0.282877 5.430380 6.307769
-0.287052 5.390840 7.093498
-0.294432 5.320847 7.643207
-0.285778 5.403130 8.490004
0.137554 5.230864 2.627350
0.143229 5.260500 3.179789
0.139914 5.243250 3.640706
0.130483 5.194114 4.219568
0.125125 5.166226 4.896235
0.123858 5.159673 5.627370
0.120859 5.144087 6.356080
0.113974 5.108238 7.022948
0.111025 5.092902 7.601654
0.130912 5.196676 8.558214
0.566529 5.039910 2.304440
0.582895 5.096787 3.031764
0.586378 5.108930 3.901657
0.555225 5.000755 4.314530
0.559979 5.017316 5.342626
0.537472 4.939167 5.672574
0.571532 5.057508 6.623935
0.578417 5.081454 7.318300
0.579655 5.085789 7.967332
0.538102 4.941496 8.446921
1.726045 6.893832 0.964364
0.951322 4.867861 1.828963
0.941151 4.841291 2.519042
0.963047 4.898577 3.205885
0.965393 4.904743 3.957994
0.940394 4.839391 4.536123
0.955406 4.878687 5.512396
0.941331 4.841896 5.944754
0.937202 4.831126 6.662203
0.936166 4.828449 7.474431
0.944353 4.849889 8.197517
1.349818 4.671943 2.635796
1.383363 4.740197 3.498410
1.386388 4.746370 4.182465
1.365277 4.703451 4.698505
1.354763 4.682087 5.339127
1.358071 4.688845 6.265389
1.334325 4.640564 6.705358
1.334532 4.641006 7.401473
1.363114 4.699164 8.208247
1.733391 4.511262 2.505750
1.763007 4.560278 3.133666
1.781447 4.590801 3.648506
1.778309 4.585631 4.422749
1.757706 4.551559 4.974849
1.727393 4.501419 5.506339
1.754024 4.545509 6.517986
1.743162 4.527549 6.980788
1.745584 4.531577 7.668649
1.755660 4.548266 8.358799
2.159816 4.438861 2.623662
2.162539 4.442641 3.174197
2.169978 4.452953 4.005907
2.141891 4.414111 4.547463
2.117946 4.381000 5.073922
2.144511 4.417770 5.965893
2.149598 4.424820 6.501037
2.126176 4.392434 7.138059
2.157973 4.436446 8.162647
2.003913 4.223335 8.589428
2.599603 4.294754 2.828968
2.604959 4.300941 3.378174
2.585365 4.278361 3.957994
2.582379 4.274939 4.899216
2.573315 4.264503 5.582050
2.594522 4.288967 6.146199
2.576278 4.267941 6.597303
2.550565 4.238311 7.360223
2.567101 4.257398 8.336913
3.052306 4.119481 2.979776
3.046962 4.114340 3.267285
3.049284 4.116596 4.235404
3.052627 4.119825 4.760544
3.055863 4.122958 5.596192
3.008594 4.077447 6.013141
3.010321 4.079128 6.940685
3.016896 4.085471 7.523568
3.035265 4.103172 8.133950
3.528085 3.949221 2.356790
3.557611 3.973133 3.123400
3.538789 3.957906 3.505681
3.521673 3.944064 4.141051
3.545689 3.963520 5.114308
3.555755 3.971679 5.770156
3.548406 3.965742 6.362347
3.530098 3.950937 7.094731
3.497173 3.924296 7.532481
3.522020 3.944420 8.283025
4.035524 3.769708 2.468169
4.073167 3.795292 2.894453
4.055730 3.783458 3.694355
4.054887 3.782895 4.245960
4.091869 3.808037 5.097341
4.064522 3.789465 5.605986
4.065552 3.790176 6.279094
4.079874 3.799919 6.962637
4.020251 3.759415 7.384170
4.069103 3.792623 8.265423
4.668743 3.553248 2.428371
4.670609 3.554289 2.979540
4.645503 3.540416 3.653385
4.608126 3.519752 4.032650
4.632506 3.533247 4.783726
4.658415 3.547585 5.416644
4.678685 3.558805 6.087552
4.758147 3.602764 7.046351
4.682660 3.561025 7.387529
4.724255 3.584040 8.207985
5.484582 3.377532 1.723527
5.352473 3.318601 1.968172
5.362285 3.322992 2.853345
5.348299 3.316761 3.398720
5.360499 3.322211 3.876200
5.360532 3.322237 4.625971
5.361923 3.322868 5.252273
5.356245 3.320347 6.071109
5.370595 3.326760 6.755122
5.350333 3.317729 7.304037
5.417384 3.347654 8.124947
5.229583 3.263884 8.773693
5.067943 2.621107 2.043267
5.082256 2.625988 2.979751
5.101046 2.632387 3.635856
5.085454 2.627091 4.031014
5.067601 2.621032 4.815161
5.026627 2.607107 5.278573
5.055704 2.617005 6.021358
5.075358 2.623699 6.752364
5.068138 2.621255 7.511894
5.090612 2.628907 8.218298
4.714734 2.037400 2.675246
4.742977 2.044373 3.559995
4.754968 2.047338 4.282522
4.717322 2.038066 4.636502
4.723088 2.039500 5.506161
4.711702 2.036705 6.278126
4.690905 2.031587 6.754018
4.664487 2.025084 7.297016
4.732604 2.041885 8.249860
4.471034 1.538794 2.351956
4.496190 1.542623 2.913368
4.452174 1.535945 3.409368
4.487042 1.541255 4.414117
4.449208 1.535514 4.764302
4.466532 1.538156 5.519719
4.490883 1.541866 6.367882
4.436249 1.533578 6.937258
4.391603 1.526806 7.509979
4.383360 1.525564 8.209109
4.229945 1.158712 2.391363
4.225329 1.158390 3.281075
4.256347 1.160648 4.019003
4.276373 1.162108 4.732771
4.252235 1.160369 5.373776
4.209831 1.157303 5.804125
4.221888 1.158189 6.693113
4.192592 1.156077 7.376582
7.119706 0.726239 0.916082
4.010231 0.780389 2.205607
4.011376 0.780378 2.842379
4.003759 0.780520 3.534982
3.994606 0.780687 4.049516
4.025358 0.780163 4.860396
4.020512 0.780259 5.633540
3.966922 0.781196 5.969997
4.002079 0.780596 6.828084
4.019570 0.780305 7.742013
4.010336 0.780475 8.426477
3.926247 0.431712 1.580212
3.821490 0.443017 2.384859
3.821234 0.443053 2.936252
3.863791 0.438479 3.929661
3.852977 0.439651 4.366651
3.837723 0.441307 5.152676
3.823252 0.442876 5.814922
3.793152 0.446130 6.456144
3.823064 0.442918 7.361916
3.837824 0.441337 8.080611
3.566581 0.470587 8.594254
3.684075 0.159168 1.919040
3.684858 0.159029 2.681392
3.680964 0.159782 3.090634
3.719193 0.152465 3.989484
3.706498 0.154908 4.648697
3.677902 0.160400 5.276322
3.625357 0.170483 5.828018
3.620373 0.171450 6.627879
3.637667 0.168146 7.448682
3.589419 0.177405 7.977245
3.566926 -0.147586 2.085617
3.584400 -0.152637 2.604085
3.546179 -0.141563 3.272269
3.532124 -0.137487 3.776625
3.575668 -0.150077 4.800765
3.538360 -0.139269 5.331116
3.535143 -0.138324 6.222482
3.498890 -0.127822 6.779801
3.547284 -0.141822 7.353361
3.606765 -0.159029 8.182281
3.420465 -0.402064 1.888102
3.468771 -0.420589 2.690448
3.498226 -0.431883 3.273837
3.516773 -0.438987 4.188531
3.486166 -0.427232 4.863562
3.428767 -0.405194 5.602356
3.467219 -0.419940 6.248195
3.455809 -0.415555 6.652115
3.414180 -0.399569 7.412655
3.427719 -0.404751 8.254826
3.377195 -0.712573 2.189479
3.349410 -0.698909 2.693844
3.364480 -0.706304 3.435433
3.380163 -0.713998 4.279705
3.336998 -0.692776 4.801392
3.332640 -0.690625 5.404519
3.298380 -0.673777 6.052716
3.303464 -0.676260 7.037718
3.332213 -0.690380 7.627694
3.360457 -0.704250 8.287410
6.457501 -2.907947 0.931682
3.254276 -0.972812 1.934903
3.236892 -0.962296 2.778485
3.229357 -0.957732 3.486260
3.206354 -0.943825 4.105739
3.242407 -0.965594 4.794929
3.215938 -0.949594 5.392459
3.189795 -0.933786 6.265276
3.217623 -0.950586 6.936999
3.253959 -0.972527 7.591110
3.273263 -0.984172 8.568302
3.154772 -1.268079 2.081247
3.130113 -1.249906 2.632030
3.123429 -1.244969 3.394702
3.116177 -1.239617 3.947892
3.176983 -1.284390 4.975073
3.137618 -1.255382 5.603036
3.103326 -1.230111 6.197398
3.162899 -1.273978 7.115724
3.161465 -1.272912 7.655128
3.125043 -1.246071 8.312142
3.056569 -1.552907 2.226789
3.035025 -1.533977 2.768146
3.015359 -1.516698 3.210024
3.041503 -1.539636 4.311754
3.046860 -1.544331 4.874533
3.042675 -1.540641 5.654630
3.027167 -1.527008 6.385910
3.015843 -1.517054 6.914467
3.018531 -1.519403 7.499615
3.009256 -1.511245 8.206268
3.223993 -2.112603 1.734762
3.011541 -1.892769 2.441338
3.001585 -1.882452 3.172115
2.996679 -1.877363 3.794841
2.967720 -1.847392 4.193026
2.980312 -1.860403 5.094248
2.972043 -1.851832 5.790619
2.961784 -1.841203 6.538647
2.974511 -1.854356 7.239435
2.986874 -1.867133 7.992240
2.849007 -1.724476 8.386711
3.019541 -2.389613 1.410074
2.839120 -2.165912 2.122009
2.849073 -2.178230 3.078200
2.857899 -2.189159 3.670823
2.890485 -2.229539 4.545008
2.874429 -2.209618 5.218873
2.809940 -2.129653 5.787200
2.796323 -2.112757 6.330260
2.818322 -2.140011 7.289623
2.811587 -2.131647 7.896167
2.704467 -1.998825 8.542450
2.745054 -2.574964 2.053027
2.767725 -2.608847 2.522190
2.754701 -2.589361 3.066802
2.755224 -2.590117 4.111827
2.716322 -2.531949 4.437828
2.738207 -2.564647 5.249046
2.763055 -2.601777 5.960908
2.732896 -2.556669 6.747516
2.688965 -2.490973 7.444052
2.711830 -2.525138 8.161701
4.110481 -5.705125 1.053376
2.643366 -3.039613 1.884296
2.634523 -3.023520 2.783361
2.656463 -3.063359 3.536774
2.653976 -3.058825 4.096518
2.639131 -3.031833 4.796995
2.640756 -3.034760 5.643636
2.653782 -3.058406 6.345059
2.638037 -3.029787 6.764795
2.633169 -3.020924 7.415136
2.663774 -3.076498 8.467707
2.541525 -3.625939 2.185765
2.519937 -3.577341 2.738435
2.521118 -3.579968 3.602209
2.533261 -3.607270 4.251729
2.534899 -3.610938 4.779813
2.525458 -3.589671 5.421330
2.524427 -3.587320 6.281805
2.509643 -3.554028 6.972250
2.525066 -3.588709 7.709769
2.506047 -3.545892 8.219724
2.318100 -4.216322 2.585562
2.319696 -4.221015 3.524975
2.324904 -4.236445 4.034434
2.327573 -4.244328 4.855403
2.333853 -4.262929 5.607884
2.325089 -4.236895 6.273239
2.293863 -4.144231 6.604087
2.296008 -4.150561 7.345610
2.309687 -4.191112 8.177159
2.100729 -5.009745 1.990860
2.101109 -5.011258 2.703992
2.109303 -5.044694 3.640372
2.105121 -5.027562 4.290014
2.097517 -4.996456 4.701149
2.092672 -4.976613 5.357354
2.102079 -5.015008 6.307769
2.090526 -4.967754 6.766637
2.097188 -4.994948 7.455091
2.093584 -4.980185 7.995770
1.783473 -6.058737 1.634074
1.770128 -5.971144 2.128993
1.767892 -5.956401 2.925753
1.775770 -6.008014 3.678029
1.774945 -6.002554 4.175273
1.775456 -6.005836 4.893414
1.775698 -6.007356 5.658357
1.776018 -6.009408 6.162538
1.777775 -6.020874 6.814194
1.776904 -6.015100 7.439148
1.246667 -6.290199 1.433127
1.237865 -6.149894 1.977169
1.240133 -6.185805 2.861684
1.237860 -6.149477 3.458980
1.237062 -6.136657 3.914011
1.237923 -6.150177 4.773545
1.239267 -6.171453 5.339022
1.238988 -6.166862 5.996026
1.235842 -6.116656 6.458987
1.240830 -6.195887 7.420789
1.241722 -6.209944 8.080513
1.232099 -6.056594 8.415149
0.731385 -6.283844 2.100879
0.739690 -5.845356 2.944274
0.739668 -5.846830 3.360099
0.740320 -5.812761 3.881949
0.739905 -5.835423 4.837158
0.740422 -5.808337 5.227127
0.739777 -5.843021 5.999114
0.739611 -5.852195 6.518456
0.739967 -5.833849 7.115756
0.740126 -5.825977 7.830734
0.743340 -5.656731 8.771214
0.250237 -5.624922 2.677231
0.252146 -5.607239 3.242966
0.250547 -5.622225 4.065721
0.253120 -5.598363 4.576503
0.234154 -5.774907 5.591455
0.241027 -5.711010 5.843708
0.251955 -5.609469 6.620617
0.253664 -5.593672 7.356231
0.251110 -5.617521 8.081413
-0.215045 -5.430481 2.721153
-0.213345 -5.421997 3.410668
-0.207750 -5.393952 3.991958
-0.209294 -5.401746 4.580943
-0.212276 -5.416770 5.336896
-0.214423 -5.427591 5.948213
-0.222296 -5.467177 6.804956
-0.204615 -5.378452 7.274710
-0.217413 -5.442763 8.201756
-0.646741 -5.234131 2.435347
-0.644863 -5.227737 2.833266
-0.643304 -5.222450 3.535245
-0.648751 -5.241091 4.333134
-0.651631 -5.250959 4.890294
-0.662597 -5.288445 5.585841
-0.662620 -5.288566 6.414007
-0.648203 -5.239355 6.991288
-0.633031 -5.187555 7.377080
-0.644178 -5.225667 8.179542
-1.043569 -5.011644 2.250665
-1.044902 -5.015083 2.901787
-1.060389 -5.054787 3.559995
-1.070231 -5.080037 4.429557
-1.051341 -5.031666 5.084009
-1.038810 -4.999579 5.590967
-1.069028 -5.077040 6.615699
-1.058410 -5.049852 7.022559
-1.081113 -5.108050 7.854842
-1.059966 -5.053889 8.293141
-1.471960 -4.942291 2.587504
-1.458469 -4.914733 2.971111
-1.472646 -4.943734 3.795657
-1.494591 -4.988607 4.585166
-1.474638 -4.947851 5.265830
-1.461871 -4.921777 5.790305
-1.484654 -4.968364 6.598403
-1.495346 -4.990236 7.290681
-1.479489 -4.957845 7.747566
-1.446818 -4.891100 8.462533
-1.896221 -4.790070 2.466300
-1.889173 -4.778404 3.170372
-1.901181 -4.798333 3.830280
-1.900291 -4.796877 4.599171
-1.873570 -4.752583 5.026379
-1.879329 -4.762150 5.686325
-1.900323 -4.796984 6.593961
-1.898383 -4.793783 7.139666
-1.921768 -4.832577 7.877291
-1.877286 -4.758835 8.304084
-2.341079 -4.642062 2.412399
-2.362712 -4.671667 3.138197
-2.358404 -4.665789 3.737666
-2.330929 -4.628227 4.334424
-2.300608 -4.586769 4.795201
-2.316189 -4.608101 5.778054
-2.307367 -4.596050 6.338760
-2.278009 -4.555909 6.793040
-2.321777 -4.615790 7.712954
-2.383722 -4.700530 8.541201
-2.764534 -4.437016 2.515076
-2.749874 -4.420330 3.061961
-2.728114 -4.395561 3.672488
-2.748646 -4.418958 4.306016
-2.802917 -4.480790 5.249850
-2.788481 -4.464357 5.647989
-2.739230 -4.408277 6.322087
-2.740213 -4.409416 7.195590
-2.757667 -4.429309 7.837563
-2.782399 -4.457490 8.472181
-3.289523 -4.319572 2.609604
-3.269693 -4.300629 3.041484
-3.286028 -4.316254 3.721535
-3.326045 -4.354514 4.572878
-3.283887 -4.314231 4.944378
-3.309043 -4.338292 5.944463
-3.250773 -4.282610 6.238473
-3.306970 -4.336336 7.251883
-3.329557 -4.357935 7.906089
-3.257777 -4.289343 8.269680
-3.837388 -4.148089 2.582315
-3.858917 -4.165277 3.469573
-3.866754 -4.171536 3.905668
-3.899046 -4.197308 4.803764
-3.919804 -4.213876 5.413203
-3.872602 -4.176236 5.872936
-3.832921 -4.144595 6.352274
-3.905746 -4.202699 7.416996
-3.877154 -4.179904 7.974808
-3.740664 -4.071050 8.561501
-4.803986 -4.248216 1.474679
-4.421683 -3.991627 2.171292
-4.442513 -4.005618 2.770018
-4.455286 -4.014208 3.742561
-4.444064 -4.006683 4.151518
-4.462030 -4.018753 4.822497
-4.471550 -4.025154 5.497389
-4.446214 -4.008157 5.975310
-4.494376 -4.040499 6.909970
-4.514369 -4.053930 7.551511
-4.520462 -4.058030 8.174757
-5.100377 -3.772893 1.833614
-5.116870 -3.781966 2.433156
-5.076304 -3.759682 3.003428
-5.109410 -3.777889 3.855148
-5.131922 -3.790269 4.381908
-5.128862 -3.788598 5.006198
-5.137022 -3.793092 5.631931
-5.142172 -3.795933 6.312862
-5.156006 -3.803549 7.100116
-5.207495 -3.831857 7.876115
-5.203647 -3.829753 8.523828
-5.379798 -3.306068 1.534026
-5.351134 -3.293417 2.302721
-5.392198 -3.311565 2.751978
-5.389257 -3.310277 3.488599
-5.398801 -3.314505 4.184625
-5.415536 -3.321907 4.814755
-5.383110 -3.307590 5.327314
-5.375076 -3.304051 5.958782
-5.438735 -3.332187 6.812715
-5.426484 -3.326782 7.272657
-5.498452 -3.358592 8.230125
-5.107468 -2.628656 2.450407
-5.067944 -2.615270 3.100293
-5.056424 -2.611373 3.639793
-5.062426 -2.613417 4.273875
-5.065915 -2.614610 4.988246
-5.144412 -2.641230 5.955112
-5.111440 -2.630061 6.369905
-5.100373 -2.626320 7.020366
-5.139660 -2.639648 7.860200
-5.050652 -2.609486 8.246344
-4.790503 -2.036359 2.567995
-4.774529 -2.032495 3.193180
-4.779133 -2.033622 3.923320
-4.784752 -2.034993 4.507371
-4.757844 -2.028477 5.141529
-4.789655 -2.036202 5.930106
-4.821042 -2.043825 6.749680
-4.788024 -2.035824 7.121789
-4.578566 -1.552554 2.549481
-4.572147 -1.551594 3.339484
-4.558000 -1.549464 4.106673
-4.549494 -1.548183 4.531685
-4.548269 -1.548007 5.179297
-4.580921 -1.552961 6.138177
-4.505827 -1.541603 6.455561
-4.497736 -1.540389 7.134639
-4.530993 -1.545433 7.947693
-6.889968 -1.277915 0.947364
-4.352078 -1.120927 1.900573
-4.355510 -1.121151 2.714756
-4.359025 -1.121381 3.592909
-4.345230 -1.120534 4.038992
-4.356784 -1.121261 4.895318
-4.367714 -1.121947 5.585169
-4.344031 -1.120491 6.283980
-4.315075 -1.118708 6.870703
-4.340260 -1.120278 7.681227
-4.292850 -1.117350 8.069358
-4.157575 -0.770521 2.067195
-4.141263 -0.770846 2.907392
-4.171490 -0.770278 3.747048
-4.180291 -0.770119 4.410780
-4.137251 -0.770951 4.947370
-4.149473 -0.770729 5.825248
-4.126603 -0.771178 6.504168
-4.118157 -0.771347 7.047555
-4.145272 -0.770837 7.726408
-4.086392 -0.771977 8.531877
-4.007133 -0.423087 1.938115
-3.996681 -0.424220 2.414352
-4.007073 -0.423111 3.142259
-4.021499 -0.421568 4.024799
-4.001767 -0.423703 4.605923
-3.961103 -0.428094 5.137744
-3.953881 -0.428882 5.851468
-3.934623 -0.430968 6.553349
-3.912275 -0.433386 7.159108
-3.999181 -0.424034 8.243577
-3.832987 -0.104023 1.951780
-3.860203 -0.098619 2.736587
-3.861860 -0.098301 3.596194
-3.886247 -0.093457 4.202117
-3.858277 -0.099033 4.906331
-3.830996 -0.104470 5.504800
-3.860010 -0.098708 6.246055
-3.791699 -0.112308 6.757308
-3.838020 -0.103104 7.709874
-3.847754 -0.101179 8.489413
-3.797579 0.219357 1.609155
-3.742890 0.203438 2.352323
-3.762160 0.209030 3.267203
-3.780260 0.214286 3.874713
-3.703256 0.191879 4.383476
-3.669483 0.182046 5.001321
-3.690231 0.188068 5.948018
-3.627283 0.169749 6.514896
-3.608162 0.164177 7.144445
-3.509833 0.442055 1.694729
-3.645999 0.494538 2.463800
-3.611846 0.481359 3.229690
-3.594999 0.474857 3.696204
-3.604817 0.478632 4.399766
-3.636413 0.490798 5.379176
-3.588428 0.472288 6.107631
-3.590512 0.473083 6.609712
-3.616119 0.482942 7.484991
-3.607874 0.479753 8.204374
-3.347998 0.708950 1.998316
-3.484686 0.776608 2.759841
-3.498199 0.783287 3.452616
-3.473526 0.771063 4.067982
-3.446430 0.757641 4.548493
-3.423585 0.746320 5.224824
-3.461055 0.764854 6.268013
-3.476628 0.772552 6.994206
-3.471721 0.770115 7.521825
-3.517873 0.792949 8.401738
-3.277683 0.992918 2.098850
-3.404769 1.069950 2.732546
-3.422534 1.080706 3.516270
-3.404173 1.069564 4.186284
-3.393928 1.063343 4.821671
-3.376267 1.052623 5.683617
-3.335135 1.027679 6.229954
-3.329306 1.024135 6.820428
-3.373975 1.051200 7.667845
-3.338845 1.029892 8.340877
-3.285049 1.373974 1.621534
-3.193235 1.306005 2.134689
-3.343853 1.417475 3.020868
-3.326500 1.404617 3.816236
-3.273196 1.365154 4.215847
-3.270015 1.362784 5.136869
-3.236256 1.337787 5.604919
-3.241801 1.341876 6.516458
-3.254818 1.351499 7.207641
-3.286744 1.375117 7.945846
-3.091608 1.230664 8.723612
-3.327226 1.792438 1.591403
-3.242029 1.717553 2.146383
-3.232964 1.709569 3.037632
-3.212748 1.691788 3.759777
-3.164885 1.649716 4.195382
-3.190813 1.672487 5.018984
-3.207447 1.687088 5.967764
-3.148774 1.635511 6.612686
-3.147709 1.634567 7.053137
-3.187249 1.669301 7.872283
-2.997602 1.502613 8.727293
-3.254730 2.193523 1.526527
-3.115945 2.047324 2.470917
-3.076730 2.006013 2.873007
-3.067631 1.996409 3.821358
-3.039153 1.966405 4.218128
-3.068421 1.997214 5.103996
-3.049210 1.976968 5.679318
-3.026466 1.952993 6.641008
-3.017732 1.943783 7.157946
-3.041799 1.969118 7.876442
-2.860967 1.778634 8.685193
-2.968233 2.324858 2.279102
-2.992859 2.355358 3.128601
-3.007565 2.373567 3.825531
-2.996730 2.360131 4.208961
-2.979160 2.338335 5.134525
-2.961188 2.316050 5.698743
-2.968277 2.324822 6.297387
-2.976245 2.334678 7.131660
-2.966580 2.322687 7.724407
-2.842691 2.169130 8.608782
-2.918707 2.826583 2.861568
-2.917637 2.824968 3.626391
-2.898294 2.796100 4.388113
-2.869055 2.752481 4.847393
-2.852969 2.728473 5.443624
-2.891304 2.785623 6.442585
-2.888395 2.781274 6.867734
-2.911937 2.816358 7.900208
-2.884763 2.775820 8.275762
-2.787420 3.313008 2.179990
-2.780480 3.300335 2.999899
-2.776120 3.292370 3.625575
-2.755226 3.254271 4.292579
-2.736488 3.220102 4.882107
-2.736757 3.220570 5.688044
-2.755005 3.253805 6.447593
-2.773909 3.288233 7.256791
-2.785307 3.308986 8.019043
-2.740918 3.228073 8.420867
-2.634056 3.877486 2.564692
-2.639086 3.888898 3.260076
-2.634165 3.877682 4.074116
-2.611985 3.827235 4.541086
-2.593381 3.784919 5.027828
-2.583530 3.762493 5.802426
-2.589581 3.776219 6.703757
-2.585695 3.767361 7.352128
-2.609780 3.822095 8.147500
-2.498962 3.570110 8.747816
-2.408987 4.432024 2.818985
-2.406311 4.424145 3.491160
-2.391911 4.381887 3.879682
-2.407030 4.426194 4.849975
-2.411381 4.438928 5.554421
-2.412355 4.441753 6.255285
-2.392537 4.383602 6.649520
-2.407896 4.428620 7.458964
-2.409068 4.432031 8.092523
-2.135512 5.249005 2.368321
-2.132285 5.235534 3.094854
-2.123296 5.198089 3.620110
-2.125287 5.206338 4.281289
-2.120742 5.187389 4.801157
-2.115644 5.166133 5.428267
-2.114425 5.161023 6.083253
-2.115688 5.166232 6.864190
-2.121102 5.188715 7.639212
-2.129842 5.225053 8.282963
-1.824045 6.198773 1.358031
-1.794599 6.009332 1.910377
-1.796144 6.019188 2.812984
-1.800809 6.049146 3.305197
-1.806564 6.086092 4.065602
-1.799695 6.041881 4.373069
-1.797777 6.029479 5.127151
-1.797134 6.025295 5.646391
-1.806105 6.082901 6.629578
-1.805124 6.076546 7.139422
-1.810673 6.112177 7.809066
-1.813168 6.128154 8.549754
-1.255408 6.264847 1.583046
-1.239723 6.021291 1.904996
-1.240913 6.039528 2.962117
-1.238502 6.002066 3.166390
-1.239490 6.017218 4.000616
-1.238534 6.002251 4.595270
-1.237367 5.983986 5.270314
-1.235106 5.948784 5.737756
-1.236609 5.971917 6.656740
-1.235396 5.952977 7.103333
-1.238333 5.998389 7.943022
-1.229614 5.862947 8.362649
-0.713756 5.723913 2.432408
-0.713795 5.722799 3.326450
-0.713529 5.734399 4.085852
-0.714699 5.685523 4.356399
-0.713231 5.747640 5.313182
-0.713205 5.749146 6.022972
-0.714122 5.710954 6.412367
-0.713218 5.749362 7.317476
-0.715168 5.667863 7.670007
-0.715247 5.664946 8.356941
-0.228694 5.524639 2.630711
-0.229622 5.516504 2.957089
-0.228779 5.524036 3.781907
-0.229022 5.521992 4.550393
-0.230239 5.511334 5.106666
-0.232856 5.488346 5.685008
-0.235665 5.463654 6.188332
-0.241028 5.416477 6.946984
-0.245130 5.380404 7.550831
-0.233413 5.483785 8.498729
0.209497 5.297957 2.520522
0.212085 5.310742 3.228307
0.214233 5.321343 3.720991
0.212276 5.311766 4.434019
0.208376 5.292632 5.143258
0.193169 5.217850 5.521943
0.197412 5.238789 6.490821
0.193648 5.220319 7.099903
0.180682 5.156565 7.552180
0.199431 5.248864 8.463551
0.625412 5.105042 2.232498
0.623524 5.098716 3.144386
0.622085 5.093886 3.771724
0.615618 5.072082 4.350529
0.608046 5.046547 5.020709
0.619073 5.083804 5.518206
0.626015 5.107284 6.356080
0.604865 5.035911 7.092766
0.601287 5.023859 7.681041
0.598849 5.015661 8.355246
0.986739 4.893231 2.751947
0.986560 4.892787 3.188480
0.988788 4.898558 3.940593
0.973343 4.858775 4.542222
0.983115 4.883993 5.404592
0.961086 4.827230 5.696991
0.962787 4.831640 6.392313
0.965774 4.839370 7.163782
0.974846 4.862780 7.929008
0.942235 4.778766 8.783123
1.389007 4.698983 2.887814
1.396771 4.714605 3.552564
1.384865 4.690700 4.134773
1.378122 4.677169 4.727445
1.397823 4.716785 5.679547
1.381276 4.683551 6.113065
1.367626 4.656142 6.701111
1.365244 4.651380 7.497666
1.365676 4.652272 8.236462
1.757026 4.523034 2.373609
1.793465 4.582944 3.254260
1.788953 4.575544 3.816229
1.758352 4.525264 4.279250
1.749161 4.510179 5.041964
1.772271 4.548186 5.934667
1.765197 4.536574 6.491777
1.774212 4.551412 7.299884
1.793886 4.583765 7.991690
1.769780 4.544160 8.477861
3.510328 6.180509 0.834452
2.224924 4.441121 2.125111
2.213158 4.425217 2.858998
2.211037 4.422356 3.226492
2.199086 4.406201 3.955791
2.186300 4.388917 4.750871
2.221072 4.435988 5.434010
2.228567 4.446148 6.214862
2.185989 4.388544 6.701342
2.160618 4.354225 7.304581
2.176542 4.375794 8.182055
2.606347 4.238803 2.386351
2.627489 4.262779 3.047756
2.622451 4.257082 3.668823
2.636981 4.273567 4.464815
2.648183 4.286271 4.849975
2.614923 4.248588 5.456817
2.570068 4.197767 6.205216
2.563651 4.190512 7.041684
2.587131 4.217137 7.622648
2.667234 4.307940 8.424716
3.043088 4.045491 2.678785
3.072435 4.073238 3.373002
3.109851 4.108605 3.726400
3.067358 4.068462 4.457116
3.002752 4.007417 5.012313
3.031627 4.034722 5.874192
3.034746 4.037679 6.389556
3.052643 4.054609 7.244948
3.034047 4.037050 8.000381
2.964869 3.971685 8.606211
3.518018 3.901676 2.539910
3.561106 3.936143 3.116325
3.567418 3.941205 3.903911
3.565217 3.939458 4.643382
3.558110 3.933788 5.396366
3.548336 3.925984 6.013813
3.546847 3.924804 6.624650
3.552375 3.929238 7.354050
3.522916 3.905691 7.918726
3.474261 3.866797 8.667668
4.030388 3.698118 2.393101
4.068258 3.723292 3.258121
4.072741 3.726282 3.972266
4.047749 3.709687 4.441749
4.077304 3.729337 5.375121
4.074125 3.727234 5.881885
4.076453 3.728791 6.530849
4.068405 3.723458 7.310871
4.043118 3.706667 7.789534
4.078466 3.730167 8.769863
4.619135 3.500593 2.499245
4.605772 3.493281 3.155067
4.622323 3.502365 4.041129
4.621895 3.502138 4.537929
4.612260 3.496868 5.089441
4.636331 3.510070 5.837373
4.674912 3.531224 6.577737
4.720802 3.556385 7.399516
4.668445 3.527699 7.729190
4.666610 3.526706 8.520870
5.519237 3.360700 1.407813
5.341914 3.282578 1.835231
5.323107 3.274304 2.672296
5.297304 3.262941 3.067944
5.294265 3.261612 3.715560
5.290713 3.260059 4.467132
5.338988 3.281342 5.317343
5.299355 3.263886 5.724146
5.327809 3.276436 6.542546
5.319128 3.272619 7.045198
5.322976 3.274324 7.696690
5.302982 3.265524 8.289285
5.656826 2.787599 2.251763
5.230481 2.645066 2.835700
5.209010 2.637894 3.287406
5.206094 2.636932 4.165898
5.204348 2.636359 4.851493
5.194852 2.633192 5.369200
5.159223 2.621286 5.815635
5.211164 2.638666 6.764228
5.187107 2.630631 7.304157
5.176646 2.627146 8.103029
4.907902 2.537305 8.761308
4.876497 2.056952 2.270602
4.861406 2.053304 3.014388
4.865416 2.054287 3.785371
4.831932 2.046176 4.240684
4.844094 2.049139 5.244418
4.839572 2.048051 5.763702
4.868195 2.055002 6.590168
4.909071 2.064921 7.241166
4.818774 2.043034 7.546042
4.768659 2.030897 8.379662
4.537197 1.530868 2.621695
4.549577 1.532711 3.297393
4.587618 1.538352 4.104399
4.602436 1.540555 4.747683
4.577592 1.536887 5.371817
4.556141 1.533722 6.106990
4.563721 1.534856 6.915247
4.522686 1.528789 7.375954
4.468879 1.520834 7.989503
4.288766 1.104784 2.212341
4.309513 1.106023 3.187708
4.286180 1.104651 3.580771
4.266711 1.103511 4.242864
4.278360 1.104210 5.057405
4.276826 1.104130 5.814808
4.225296 1.101095 6.312312
4.199144 1.099561 7.056597
4.244361 1.102242 7.821177
4.283296 1.104553 8.704246
7.072752 0.693653 0.956245
4.054206 0.760505 1.828482
4.024122 0.761180 2.492094
4.044905 0.760732 3.352519
4.109028 0.759324 4.165812
4.044139 0.760766 4.532935
4.029327 0.761105 5.286944
4.039895 0.760882 6.097026
4.059619 0.760456 6.846428
4.093339 0.759718 7.449732
4.045993 0.760776 8.101073
3.893929 0.421672 2.869259
3.850901 0.426471 3.405133
3.880098 0.423233 4.373252
3.879087 0.423353 4.846697
3.919641 0.418847 5.590781
3.946202 0.415901 6.459475
3.864677 0.424986 6.880031
3.832507 0.428580 7.668962
3.809272 0.431179 8.417236
3.716553 0.114251 2.172093
3.702391 0.117132 3.007656
3.729048 0.111742 3.788251
3.766512 0.104161 4.496245
3.724713 0.112639 5.031825
3.706887 0.116260 5.687382
3.678952 0.121930 6.357996
3.643328 0.129159 7.053951
3.712931 0.115068 7.961312
3.557566 0.146557 8.421435
3.678941 -0.182475 1.701460
3.556334 -0.146883 2.505048
3.593462 -0.157647 3.260044
3.591354 -0.157030 3.598099
3.589849 -0.156580 4.459141
3.611921 -0.162973 5.340023
3.545696 -0.143748 5.774676
3.556756 -0.146944 6.685507
3.556342 -0.146815 7.266918
3.468448 -0.436466 2.032950
3.432149 -0.422347 2.390353
3.416785 -0.416363 3.105017
3.445031 -0.427333 3.901104
3.427961 -0.420687 4.528638
3.423729 -0.419028 5.379998
3.431364 -0.421988 6.001820
3.424857 -0.419446 6.769805
3.417156 -0.416442 7.440060
3.416708 -0.416257 8.085323
3.392496 -0.736712 2.033592
3.339965 -0.710598 2.529307
3.330945 -0.706103 3.299965
3.332914 -0.707070 4.007791
3.334784 -0.707987 4.810535
3.386511 -0.733683 5.507818
3.361818 -0.721406 5.864831
3.337355 -0.709235 6.682519
3.287387 -0.684391 7.380601
3.352901 -0.716934 8.384008
3.208477 -0.957833 1.945196
3.211945 -0.959931 2.770519
3.242158 -0.978312 3.393053
3.240704 -0.977411 4.314083
3.196688 -0.950611 4.800293
3.191548 -0.947472 5.395574
3.189074 -0.945954 6.114912
3.230680 -0.971264 7.046872
3.234488 -0.973570 7.756163
3.195027 -0.949542 8.280685
3.245231 -1.341329 1.558402
3.141979 -1.265007 2.438824
3.119339 -1.248266 2.926212
3.093108 -1.228868 3.608871
3.098765 -1.233037 4.300413
3.123497 -1.251302 5.075099
3.130023 -1.256109 5.921004
3.093313 -1.228970 6.461595
3.127314 -1.254081 7.444695
3.145181 -1.267274 8.077130
5.750089 -3.960058 1.175482
2.988283 -1.512450 1.981838
3.015173 -1.536262 2.924910
3.016251 -1.537209 3.374753
3.023286 -1.543429 4.147134
3.016569 -1.537459 5.044765
3.022657 -1.542842 5.712834
3.008645 -1.530413 6.285251
2.998763 -1.521643 6.982787
2.980044 -1.505042 7.545532
2.974425 -1.500049 8.271520
3.143420 -2.095766 1.464847
2.932581 -1.872051 2.298213
2.966337 -1.907853 2.871547
2.958961 -1.900014 3.521524
2.917659 -1.856176 4.316226
2.916866 -1.855321 5.027041
2.907750 -1.845634 5.724399
2.887764 -1.824415 6.391214
2.842028 -1.775876 7.060340
2.928282 -1.867368 8.116777
2.776457 -1.706271 8.749232
2.846763 -2.229719 1.984318
2.847676 -2.230857 2.730214
2.846265 -2.229062 3.158551
2.851791 -2.236033 3.979765
2.837224 -2.217591 4.779885
2.802480 -2.173638 5.376643
2.774757 -2.138559 6.153294
2.772525 -2.135721 6.770683
2.802141 -2.173161 7.467203
2.787211 -2.154262 8.239311
2.873464 -2.781020 1.588575
2.726865 -2.560885 2.107992
2.713618 -2.540977 2.788951
2.724058 -2.556633 3.523866
2.726487 -2.560263 4.197704
2.743892 -2.586377 4.989890
2.726665 -2.560496 5.553978
2.741822 -2.583228 6.594600
2.677504 -2.486644 6.958878
2.735944 -2.574366 8.046792
2.702766 -2.524531 8.713955
2.621228 -3.024135 1.795064
