-2.396513 0.607776 5.010066
-2.294299 0.576561 4.983580
-2.475814 0.631930 5.893196
-2.559371 0.657454 5.826185
-2.492831 0.637121 5.970978
-2.624469 0.677283 6.539529
-2.627109 0.678088 6.550390
-2.485881 0.634940 6.778561
-2.467963 0.629444 7.095113
-2.484657 0.634511 7.524885
-2.524750 0.646720 8.011694
-2.538726 0.650961 8.387839
-2.486313 0.634942 8.541646
-2.489287 0.635827 8.864121
-2.477144 0.632099 9.131682
-2.358276 0.595778 9.378195
-2.241511 0.560099 9.626878
-2.183307 0.385432 0.942481
-2.370518 0.428927 0.664984
-2.492158 0.457126 1.345534
-2.414027 0.438957 1.698222
-2.407942 0.437551 1.596393
-2.333181 0.420164 1.951178
-2.365044 0.427534 2.355985
-2.408869 0.437678 2.816421
-2.387465 0.432723 2.602120
-2.483035 0.454856 3.454625
-2.514220 0.462081 3.689064
-2.459452 0.449341 3.994167
-2.426456 0.441648 4.413340
-2.392114 0.433688 4.199133
-2.507982 0.460547 4.882816
-2.489159 0.456145 5.304436
-2.373664 0.429330 5.222483
-2.515926 0.462351 5.437380
-2.651019 0.493679 6.061618
-2.610779 0.484316 6.318138
-2.586898 0.478777 6.217071
-2.799010 0.527975 7.060812
-2.707908 0.506816 7.097811
-2.599814 0.481689 7.440780
-2.524984 0.464304 7.534935
-2.608902 0.483771 7.824567
-2.459104 0.448971 8.005420
-2.562922 0.473033 8.662148
-2.586288 0.478432 9.039979
-2.441020 0.444706 8.915432
-2.356670 0.425092 9.273143
-2.297411 0.411301 9.690397
-2.397187 0.270025 0.795104
-2.507815 0.287999 1.138997
-2.409635 0.272024 1.153709
-2.447127 0.278076 1.838633
-2.473038 0.282266 2.185915
-2.366568 0.264951 2.092038
-2.401032 0.270529 2.496660
-2.460599 0.280180 3.069122
-2.455388 0.279335 3.023516
-2.565978 0.297268 3.874302
-2.422561 0.273956 3.562576
-2.399287 0.270132 4.093679
-2.409667 0.271816 4.160474
-2.378912 0.266783 4.581385
-2.495226 0.285662 5.209890
-2.493506 0.285348 5.689312
-2.604332 0.303376 5.734228
-2.510265 0.288069 5.766358
-2.696475 0.318308 6.558210
-2.604042 0.303297 6.178711
-2.606095 0.303601 6.603816
-2.585549 0.300235 6.919375
-2.647517 0.310275 7.515239
-2.523970 0.290180 7.442477
-2.641417 0.309259 7.844596
-2.594964 0.301665 8.361892
-2.540787 0.292840 8.515862
-2.581622 0.299453 8.950357
-2.609702 0.303994 9.329855
-2.509529 0.287675 9.633580
-2.408984 0.088781 0.730926
-2.407911 0.088692 0.687624
-2.452789 0.092488 1.712704
-2.437125 0.091156 1.444704
-2.465894 0.093604 1.907064
-2.470905 0.094031 1.976141
-2.399868 0.087883 2.334437
-2.416423 0.089297 2.516217
-2.458097 0.092860 2.922624
-2.513301 0.097586 3.384369
-2.494918 0.095960 3.971824
-2.389898 0.086910 3.943512
-2.426632 0.090060 4.181562
-2.494170 0.095853 4.585848
-2.388188 0.086719 4.558069
-2.276653 0.077070 5.056851
-2.479044 0.094481 5.555238
-2.590818 0.104112 5.601393
-2.654994 0.109623 5.891512
-2.707772 0.114127 6.538443
-2.655190 0.109609 6.326846
-2.704019 0.113777 6.919597
-2.610783 0.105737 6.956673
-2.690525 0.112565 7.608114
-2.486254 0.094957 7.619895
-2.556259 0.100975 7.855148
-2.604325 0.105083 8.343354
-2.719344 0.114951 8.999272
-2.594491 0.104172 9.244367
-2.585842 0.103408 9.513154
-2.008853 -0.079835 0.705491
-2.317569 -0.073922 0.993162
-2.415961 -0.072028 0.945862
-2.438840 -0.071624 1.464464
-2.349499 -0.073355 1.651670
-2.510623 -0.070313 2.443718
-2.397091 -0.072485 2.296616
-2.398176 -0.072465 2.309151
-2.425382 -0.071963 2.602998
-2.488315 -0.070794 3.177178
-2.489828 -0.070765 3.189668
-2.508843 -0.070461 4.057018
-2.369717 -0.073117 3.803340
-2.422797 -0.072121 4.153664
-2.362923 -0.073290 4.407530
-2.367898 -0.073236 5.001413
-2.272100 -0.075079 5.032767
-2.523677 -0.070295 5.756949
-2.538940 -0.070006 5.825421
-2.508893 -0.070606 6.140438
-2.665230 -0.067645 6.767602
-2.712956 -0.066740 6.946970
-2.619785 -0.068534 6.985454
-2.668142 -0.067642 7.526772
-2.642218 -0.068159 7.790595
-2.601633 -0.068954 7.999696
-2.580549 -0.069377 8.265662
-2.489323 -0.071134 8.308628
-2.643373 -0.068227 9.080066
-2.593238 -0.069202 9.237602
-2.409469 -0.072739 9.317556
-2.235347 -0.076113 9.715304
-1.591572 -0.196601 -0.006714
-1.903244 -0.211954 0.867446
-2.294723 -0.231137 0.528934
-2.411220 -0.236893 1.102302
-2.319351 -0.232399 1.288234
-2.361032 -0.234492 1.977593
-2.375079 -0.235194 2.159145
-2.405808 -0.236727 2.509405
-2.441284 -0.238492 2.859215
-2.448812 -0.238866 2.927889
-2.462965 -0.239569 3.052678
-2.576119 -0.245180 3.905301
-2.423263 -0.237655 3.539520
-2.365613 -0.234848 3.847362
-2.456207 -0.239333 4.422332
-2.440191 -0.238581 4.901703
-2.333844 -0.233362 4.876309
-2.337886 -0.233598 5.415813
-2.559510 -0.244477 5.499648
-2.538096 -0.243453 5.869151
-2.469182 -0.240082 6.016003
-2.665856 -0.249787 6.811116
-2.611220 -0.247092 6.600546
-2.590734 -0.246109 6.917412
-2.670054 -0.250046 7.570280
-2.577886 -0.245527 7.610926
-2.519045 -0.242651 7.763749
-2.565908 -0.244984 8.253434
-2.679359 -0.250597 8.911058
-2.647948 -0.249070 9.123614
-2.638049 -0.248604 9.391508
-2.218883 -0.228060 9.698927
-1.574810 -0.305221 0.239242
-2.073980 -0.364198 0.476228
-2.277366 -0.388237 0.711430
-2.411887 -0.404186 1.564786
-2.412599 -0.404271 1.577078
-2.443578 -0.407963 2.038626
-2.354368 -0.397435 2.171245
-2.385062 -0.401085 2.521271
-2.402801 -0.403193 2.702267
-2.404052 -0.403342 2.714563
-2.476034 -0.411889 3.344305
-2.379084 -0.400439 3.369263
-2.253728 -0.385671 3.916624
-2.263981 -0.386887 3.985518
-2.397019 -0.402657 4.787104
-2.339948 -0.395894 4.461689
-2.195872 -0.378899 4.791257
-2.186744 -0.377855 5.275854
-2.406635 -0.403834 5.361312
-2.456099 -0.409693 5.598193
-2.666365 -0.434592 6.504330
-2.601071 -0.426861 6.237990
-2.632982 -0.430669 6.774783
-2.488222 -0.413586 7.004555
-2.441111 -0.408036 7.209931
-2.672909 -0.435471 8.002912
-2.513244 -0.416599 7.819737
-2.489902 -0.413861 8.083799
-2.522666 -0.417783 8.828506
-2.451471 -0.409381 8.927706
-2.479193 -0.412682 9.308103
-2.419492 -0.405660 9.724470
-1.752297 -0.448922 0.622187
-2.243893 -0.541065 0.624268
-2.380502 -0.566740 1.590686
-2.363653 -0.563558 1.265952
-2.274408 -0.546844 1.452465
-2.306925 -0.552976 1.972531
-2.334673 -0.558202 2.323004
-2.384393 -0.567558 2.841660
-2.374014 -0.565605 2.741788
-2.301630 -0.552056 2.990237
-2.192558 -0.531663 3.705801
-2.234949 -0.539629 4.001192
-2.236829 -0.539983 4.013774
-2.319780 -0.555568 4.532770
-2.312153 -0.554135 4.487661
-2.169684 -0.527454 4.816268
-2.116988 -0.517596 5.072865
-2.367033 -0.564481 5.327717
-2.475874 -0.584919 5.843790
-2.490812 -0.587724 5.910898
-2.638630 -0.615474 6.535619
-2.560139 -0.600769 6.627137
-2.646071 -0.616926 7.332741
-2.634459 -0.614772 7.649843
-2.593066 -0.607028 7.856784
-2.408393 -0.572419 7.926310
-2.493157 -0.588350 8.528099
-2.349295 -0.561376 8.402024
-2.483559 -0.586593 9.118567
-2.401456 -0.571229 9.477610
-2.297473 -0.717728 0.569142
-2.222575 -0.698368 1.261335
-2.211900 -0.695581 0.991618
-2.267217 -0.709992 2.019634
-2.356636 -0.733157 1.912328
-2.268966 -0.710447 2.043404
-2.287530 -0.715275 2.279903
-2.353345 -0.732381 2.965838
-2.407500 -0.746449 3.425737
-2.327455 -0.725714 3.562357
-2.233009 -0.701240 3.587037
-2.257392 -0.707572 3.767454
-2.238758 -0.702781 4.301360
-2.326029 -0.725436 4.819386
-2.183854 -0.688572 4.566374
-2.139673 -0.677145 4.878223
-2.238171 -0.702709 5.398186
-2.357927 -0.733752 5.501522
-2.407154 -0.746526 5.737034
-2.441359 -0.755434 6.330757
-2.484275 -0.766568 6.509604
-2.406858 -0.746512 6.601219
-2.537212 -0.780357 7.476929
-2.370258 -0.737099 7.599952
-2.329041 -0.726432 7.808055
-2.306274 -0.720552 8.073393
-2.356952 -0.733721 8.564697
-2.286713 -0.715525 8.663596
-2.235227 -0.702193 8.819369
-2.247939 -0.705534 9.460869
-2.148929 -0.841934 0.613455
-2.154720 -0.843884 0.851536
-2.167047 -0.848023 1.202462
-2.190265 -0.855805 1.665989
-2.187705 -0.854948 1.621706
-2.265598 -0.881016 2.647586
-2.277704 -0.885066 2.772083
-2.262573 -0.880005 2.615519
-2.322481 -0.900038 3.189230
-2.229709 -0.869082 3.213379
-2.130244 -0.835943 3.929433
-2.148227 -0.841954 4.054605
-2.141787 -0.839801 4.010242
-2.221914 -0.866578 4.530130
-2.271647 -0.883196 4.823558
-2.117565 -0.831794 5.041827
-2.228795 -0.868955 5.618341
-2.301293 -0.893138 5.497136
-2.305047 -0.894427 5.979829
-2.370420 -0.916263 6.272166
-2.490863 -0.956521 7.159044
-2.402188 -0.926959 7.560710
-2.361773 -0.913488 7.769000
-2.274354 -0.884320 7.809811
-2.444054 -0.940991 8.381953
-2.284768 -0.887847 8.512046
-2.342634 -0.907193 9.005029
-2.176805 -0.851886 9.409749
-2.178137 -1.024809 0.579694
-2.089612 -0.988377 0.763724
-2.100543 -0.992904 1.115133
-2.134850 -1.007081 1.804756
-2.125562 -1.003245 1.648145
-2.168482 -1.020963 2.280563
-2.220028 -1.042229 2.855485
-2.210215 -1.038181 2.755619
-2.211425 -1.038680 2.768132
-2.076477 -0.983158 3.254178
-2.072085 -0.981403 3.958582
-2.123123 -1.002442 4.309953
-2.083546 -0.986128 4.040260
-2.018658 -0.959428 4.238092
-2.129990 -1.005316 4.928964
-2.102567 -0.994054 5.299210
-2.083992 -0.986399 5.198833
-2.263311 -1.060259 5.641352
-2.245359 -1.052897 6.012276
-2.309524 -1.079336 6.304963
-2.376768 -1.107043 6.596840
-2.399353 -1.116378 7.079803
-2.267175 -1.061977 7.312263
-2.195845 -1.032617 7.406857
-2.264370 -1.060875 8.008048
-2.228031 -1.045930 8.217423
-2.193242 -1.031623 8.427731
-2.160012 -1.017958 8.638960
-2.182015 -1.027045 9.020086
-2.122261 -1.002476 9.436195
-1.922133 -1.076863 0.279248
-2.107442 -1.167994 0.684327
-2.020693 -1.125358 0.812485
-2.036412 -1.133122 1.276990
-2.069929 -1.149648 1.910230
-2.057110 -1.143330 1.697491
-2.075284 -1.152287 1.992121
-2.119558 -1.174098 2.567850
-2.046658 -1.138274 2.759605
-2.004653 -1.117661 3.235412
-2.038567 -1.134357 3.530607
-1.979364 -1.105272 3.783176
-2.067978 -1.148885 4.417219
-2.096022 -1.162686 4.598979
-1.983063 -1.107143 4.457467
-1.959477 -1.095581 4.881983
-1.892235 -1.062536 5.024732
-1.964886 -1.098283 5.432532
-2.108568 -1.168940 5.704752
-2.178996 -1.203590 6.052603
-2.193032 -1.210495 6.119416
-2.219621 -1.223609 6.658326
-2.270381 -1.248609 7.254362
-2.187437 -1.207865 7.656265
-2.134307 -1.181757 7.807835
-1.991238 -1.111409 7.621485
-2.030376 -1.130688 8.113188
-2.128522 -1.178989 8.774577
-1.995889 -1.113775 8.647947
-1.914836 -1.073957 9.005923
-1.500540 -1.003584 0.403984
-1.845282 -1.202720 0.184638
-2.023837 -1.305907 0.646520
-1.961077 -1.269712 1.395376
-1.952373 -1.264666 1.182175
-1.993063 -1.288237 1.984417
-1.983424 -1.282656 1.827879
-2.002153 -1.293499 2.121083
-1.976519 -1.278752 2.874618
-1.856744 -1.209529 2.500356
-1.865737 -1.214803 3.486769
-1.873582 -1.219341 3.554939
-1.923791 -1.248379 3.962556
-1.894125 -1.231276 4.385629
-1.848652 -1.204980 4.057194
-1.922521 -1.247696 4.578299
-1.892317 -1.230277 4.947004
-1.799881 -1.176875 4.920201
-1.773888 -1.161890 5.291950
-1.901053 -1.235369 5.510356
-2.153761 -1.381423 6.343651
-2.168099 -1.389712 6.410938
-2.186257 -1.400240 6.894284
-1.983002 -1.282813 6.788255
-1.980286 -1.281275 7.163808
-1.968228 -1.274335 7.484276
-2.064516 -1.330017 8.200091
-1.894366 -1.231699 7.902753
-1.838753 -1.199610 8.370276
-2.038079 -1.314815 9.059637
-1.810373 -1.183259 8.910116
-1.593761 -1.213906 0.261672
-1.593182 -1.213499 0.045540
-1.760893 -1.326256 0.398449
-1.930270 -1.440124 0.633331
-1.852532 -1.387892 0.873818
-1.865714 -1.396787 1.281400
-1.870835 -1.400240 1.406618
-1.881961 -1.407738 1.644620
-1.937191 -1.444934 2.501934
-1.889147 -1.412676 2.918670
-1.691269 -1.279640 2.555022
-1.731739 -1.306882 3.022256
-1.773015 -1.334660 3.431862
-1.833503 -1.375361 3.953724
-1.807639 -1.357959 3.739850
-1.791335 -1.347045 4.276814
-1.726631 -1.303566 4.418912
-1.760772 -1.326535 4.658384
-1.741936 -1.313910 5.086171
-1.647716 -1.250617 5.536287
-1.771471 -1.333819 5.755206
-2.043348 -1.516607 6.285942
-2.023039 -1.502983 6.602313
-2.030971 -1.508351 7.032125
-1.992131 -1.482262 7.239086
-1.928142 -1.439259 7.334559
-1.864425 -1.396439 7.430493
-1.748527 -1.318558 7.668084
-1.771234 -1.333858 8.106344
-1.878955 -1.406298 8.514566
-1.802961 -1.355248 8.872656
-1.842529 -1.381881 9.313802
-1.706163 -1.290233 9.448154
-1.509551 -1.158098 9.674920
-1.507303 -1.318822 -0.011620
-1.667506 -1.443112 0.455167
-1.830293 -1.569391 0.745872
-1.757106 -1.512651 0.986765
-1.760855 -1.515569 1.112046
-1.778915 -1.529617 1.575876
-1.803544 -1.548759 2.039222
-1.743871 -1.502506 2.341864
-1.682615 -1.455019 2.589811
-1.613884 -1.401725 2.725672
-1.624286 -1.409804 2.851809
-1.588606 -1.382175 3.330864
-1.644607 -1.425654 3.855032
-1.779528 -1.530335 4.304885
-1.718051 -1.482667 4.446638
-1.672961 -1.447719 4.702688
-1.674710 -1.449077 4.715091
-1.711750 -1.477872 5.482946
-1.617866 -1.405051 5.402151
-1.502990 -1.315981 5.683680
-1.727265 -1.489992 6.469764
-1.916447 -1.636728 6.602313
-1.721074 -1.485188 6.437949
-1.810704 -1.554776 7.265064
-1.737117 -1.497707 7.303401
-1.701604 -1.470183 7.511846
-1.776053 -1.527982 8.173813
-1.675610 -1.450075 8.101915
-1.645136 -1.426459 8.313518
-1.705235 -1.473119 8.866465
-1.710920 -1.477557 9.193634
-1.580967 -1.376781 9.328558
-1.256194 -1.293662 0.152461
-1.256118 -1.293588 0.107014
-1.406135 -1.429061 0.404564
-1.564854 -1.572416 0.981013
-1.649927 -1.649258 1.328139
-1.578335 -1.584627 1.401607
-1.618245 -1.620736 2.205866
-1.528695 -1.539861 1.942204
-1.475349 -1.491730 2.303300
-1.487438 -1.502663 2.486110
-1.504733 -1.518300 2.725672
-1.454644 -1.473105 3.033087
-1.458694 -1.476839 3.856073
-1.498555 -1.512862 4.209737
-1.486708 -1.502156 4.107939
-1.522008 -1.534055 4.404043
-1.464565 -1.482206 4.546281
-1.632717 -1.634087 5.220680
-1.713387 -1.706969 5.739694
-1.516353 -1.529048 5.453885
-1.446191 -1.465750 5.963400
-1.589511 -1.595184 6.350188
-1.633108 -1.634569 6.588101
-1.584737 -1.590911 6.737580
-1.651987 -1.651696 7.453862
-1.547452 -1.557303 7.322985
-1.479687 -1.496159 7.730832
-1.624496 -1.626962 8.366579
-1.432453 -1.453558 8.211391
-1.473297 -1.490482 8.709914
-1.477203 -1.494040 9.038425
-1.499261 -1.513992 9.424828
-1.303478 -1.520436 0.078585
-1.234023 -1.448503 0.091625
-1.443309 -1.665284 0.331095
-1.453169 -1.675561 0.967726
-1.397905 -1.618371 1.439167
-1.543723 -1.769411 1.610690
-1.477325 -1.700651 1.686092
-1.358682 -1.577815 2.109027
-1.362450 -1.581725 2.177359
-1.369682 -1.589228 2.302632
-1.362095 -1.581458 3.178687
-1.294065 -1.511002 3.201909
-1.335892 -1.554369 3.670284
-1.353789 -1.572924 3.852733
-1.269270 -1.485373 3.706748
-1.369915 -1.589704 4.631953
-1.426075 -1.647857 4.512528
-1.559865 -1.786473 5.015062
-1.568913 -1.795851 5.082625
-1.549642 -1.775929 5.451720
-1.457526 -1.680559 5.787532
-1.359273 -1.578827 6.070071
-1.349818 -1.569072 6.446475
-1.438678 -1.661115 6.547608
-1.476250 -1.700089 7.150928
-1.466400 -1.689920 7.472247
-1.390614 -1.611426 7.454129
-1.406877 -1.628314 7.891490
-1.391068 -1.611968 8.159453
-1.428512 -1.650798 8.655874
-1.445160 -1.668079 9.039604
-1.358082 -1.577918 9.287388
-1.244013 -1.459791 9.422755
-1.138184 -1.350229 9.881784
-1.067597 -1.453612 0.223555
-1.205471 -1.617659 0.946977
-1.284508 -1.711713 1.468486
-1.236578 -1.654757 1.886132
-1.250998 -1.671938 2.184035
-1.260991 -1.683843 2.367808
-1.197617 -1.608477 2.389535
-1.159236 -1.562877 2.812651
-1.168009 -1.573325 2.940164
-1.190168 -1.599710 3.239212
-1.181492 -1.589464 3.894558
-1.199236 -1.610586 4.079048
-1.299317 -1.729646 4.418024
-1.485539 -1.951166 4.904336
-1.529330 -2.003284 5.253670
-1.505507 -1.974986 5.567074
-1.406490 -1.857202 5.318835
-1.352250 -1.792757 5.882247
-1.243404 -1.663374 6.474978
-1.238655 -1.657767 6.854411
-1.284243 -1.711970 6.728490
-1.281867 -1.709185 7.107976
-1.242016 -1.661809 7.261054
-1.276878 -1.703330 7.813975
-1.239681 -1.659109 7.969482
-1.272367 -1.698035 8.467838
-1.213790 -1.628376 8.511432
-1.154352 -1.557728 8.870861
-0.976708 -1.515997 0.195432
-1.037613 -1.598165 0.436776
-1.102523 -1.685753 0.847668
-1.165675 -1.770944 1.027647
-1.133738 -1.727975 1.899719
-1.119315 -1.708479 1.512646
-1.132394 -1.726159 1.867199
-1.097727 -1.679468 2.401144
-1.042148 -1.604521 2.479701
-1.063043 -1.632743 2.835921
-1.078850 -1.654090 3.077220
-1.118008 -1.706962 3.603854
-1.005633 -1.555418 3.700494
-1.105749 -1.690494 4.156715
-1.358068 -2.030865 4.854953
-1.347086 -2.016042 4.754596
-1.367031 -2.042963 4.935274
-1.349357 -2.019170 5.303778
-1.283968 -1.931035 5.751693
-1.297199 -1.948943 6.294266
-1.141575 -1.739085 6.489449
-1.061770 -1.631489 6.777563
-1.063439 -1.633742 6.788527
-1.091678 -1.671848 6.971154
-1.081807 -1.658573 7.294078
-1.084143 -1.661768 7.675477
-1.100192 -1.683465 8.115243
-1.098727 -1.681527 8.441814
-1.122429 -1.713544 8.883672
-1.045320 -1.609543 8.811973
-0.936873 -1.463404 9.804915
-0.753483 -1.415529 0.042251
-0.867924 -1.596956 0.943344
-0.977013 -1.769804 1.063231
-0.951258 -1.729121 1.995910
-0.945273 -1.719618 1.836499
-0.952227 -1.730660 2.020497
-0.909198 -1.662521 2.269923
-0.952345 -1.730986 3.084596
-0.883227 -1.621448 2.821026
-1.039712 -1.869558 4.271052
-1.136395 -2.022717 4.136677
-1.224694 -2.162662 4.524715
-1.275077 -2.242550 5.039032
-1.229597 -2.170507 5.124477
-1.150233 -2.044807 5.399288
-1.151132 -2.046294 5.881984
-1.034704 -1.861827 5.822589
-0.943357 -1.717184 6.414289
-0.894781 -1.640285 6.874837
-0.912242 -1.667964 7.000213
-0.963413 -1.749083 7.354396
-0.957010 -1.738980 7.678158
-0.980743 -1.776646 8.174596
-0.922046 -1.683648 8.157381
-0.980904 -1.776987 8.827930
-0.963206 -1.748976 9.041899
-0.928552 -1.694128 9.461945
-0.656322 -1.464566 0.334901
-0.800532 -1.731652 0.574149
-0.800145 -1.730929 0.529555
-0.762871 -1.662007 1.232455
-0.813095 -1.755031 1.352975
-0.885268 -1.888800 2.156883
-0.832018 -1.790169 2.003510
-0.798192 -1.727582 2.365641
-0.806055 -1.742170 2.548026
-0.781824 -1.697369 3.027809
-0.829592 -1.785828 3.026924
-1.096737 -2.280790 4.779594
-1.078515 -2.247014 4.565473
-1.051766 -2.197517 4.817849
-1.042004 -2.179503 5.240504
-1.018409 -2.135846 5.495984
-0.961543 -2.030598 5.887556
-0.701582 -1.549364 7.023183
-0.770675 -1.677335 7.180808
-0.763914 -1.664863 7.505335
-0.828940 -1.785350 7.974730
-0.768575 -1.673553 7.898960
-0.766009 -1.668850 8.225904
-0.783067 -1.700502 8.668937
-0.757536 -1.653247 8.825554
-0.783108 -1.700715 9.591494
-0.621162 -1.400811 9.529603
-0.555608 -1.505878 0.354622
-0.599077 -1.601390 0.654089
-0.686173 -1.792722 1.005211
-0.694833 -1.811820 1.475190
-0.660775 -1.737076 1.779468
-0.661083 -1.737755 1.790918
-0.675572 -1.769652 2.261851
-0.645310 -1.703246 2.569561
-0.668283 -1.753786 3.098491
-0.633279 -1.676938 3.236680
-0.758959 -1.953073 3.988949
-0.879424 -2.217720 4.534750
-0.921061 -2.309158 4.528879
-0.960274 -2.395361 5.044054
-0.948540 -2.369654 5.410497
-0.894598 -2.251168 5.273463
-0.904773 -2.273614 5.867726
-0.768842 -1.975078 5.774364
-0.546298 -1.486615 7.357931
-0.587578 -1.577267 7.343046
-0.657340 -1.730572 7.931304
-0.648062 -1.710243 8.202082
-0.647550 -1.709173 8.531491
-0.625126 -1.659955 8.689177
-0.643401 -1.700164 9.135930
-0.583325 -1.568264 9.328556
-0.462958 -1.303987 9.706721
-0.451338 -1.538920 0.164435
-0.451355 -1.538967 0.177357
-0.488659 -1.638420 0.652283
-0.560590 -1.830042 0.832721
-0.563443 -1.837688 1.074869
-0.533973 -1.759268 1.436730
-0.537572 -1.768892 1.622056
-0.548831 -1.798973 2.094551
-0.526177 -1.738719 2.518296
-0.540872 -1.777942 2.933757
-0.508654 -1.692146 3.015098
-0.627960 -2.010120 4.058796
-0.755150 -2.348958 4.419481
-0.804212 -2.479676 4.638791
-0.799963 -2.468453 5.116525
-0.782254 -2.421337 5.372457
-0.736667 -2.299892 5.236549
-0.736230 -2.298823 5.718159
-0.642937 -2.050380 5.907214
-0.520818 -1.725491 7.765415
-0.500175 -1.670542 7.920221
-0.544618 -1.788997 8.334590
-0.551320 -1.806924 8.720980
-0.499435 -1.668702 8.590464
-0.467296 -1.583174 8.953302
-0.477155 -1.609512 9.344381
-0.405035 -1.417546 9.955897
-0.316846 -1.470127 0.106093
-0.346373 -1.568773 0.467276
-0.405117 -1.764920 0.707658
-0.434319 -1.862410 0.775590
-0.443268 -1.892468 1.533825
-0.410645 -1.783508 1.264821
-0.417997 -1.808163 1.737931
-0.400540 -1.750025 2.276238
-0.370882 -1.651017 2.239840
-0.365317 -1.632645 3.072758
-0.398087 -1.742061 3.189859
-0.373997 -1.661680 3.329231
-0.260490 -1.282811 3.390237
-0.588121 -2.376663 4.305395
-0.588671 -2.378499 4.317027
-0.595534 -2.401581 5.020153
-0.590038 -2.383211 4.919477
-0.566678 -2.305383 5.532968
-0.504405 -2.097502 5.472531
-0.438387 -1.877226 5.832336
-0.239494 -1.213663 7.219534
-0.369783 -1.648691 7.734903
-0.380457 -1.684351 7.862477
-0.404764 -1.765639 8.480452
-0.368007 -1.642926 8.407150
-0.368385 -1.644268 8.738948
-0.354151 -1.596874 9.219954
-0.354522 -1.598257 9.820654
-0.260500 -1.284479 10.088112
-0.240159 -1.597197 0.853907
-0.284779 -1.794312 0.918834
-0.285299 -1.796633 0.989663
-0.289860 -1.816930 1.463241
-0.295416 -1.841601 1.878914
-0.258414 -1.678296 2.311000
-0.234544 -1.572826 2.216708
-0.242730 -1.609119 2.636234
-0.314400 -1.926034 3.690193
-0.403585 -2.320190 4.353353
-0.402008 -2.313208 4.309953
-0.400277 -2.305732 4.847880
-0.386159 -2.243438 5.048897
-0.345780 -2.065111 5.156738
-0.326370 -1.979553 5.723648
-0.283834 -1.791680 5.779124
-0.087742 -0.925966 7.224861
-0.194876 -1.399280 7.488189
-0.286777 -1.805447 8.199385
-0.270528 -1.733706 8.299877
-0.254357 -1.662306 8.400822
-0.267359 -1.719901 8.907362
-0.243846 -1.616137 9.216332
-0.216559 -1.495684 9.469801
-0.157637 -1.235555 9.910959
-0.082715 -1.302048 0.141682
-0.114283 -1.505218 0.620068
-0.162506 -1.815468 1.087240
-0.146005 -1.709285 0.872848
-0.149736 -1.733537 1.463340
-0.153591 -1.758513 1.880141
-0.140311 -1.673220 2.073513
-0.139153 -1.665731 1.970648
-0.127412 -1.590386 2.281113
-0.136920 -1.651811 2.931859
-0.189871 -1.992750 4.037968
-0.223240 -2.207326 4.134050
-0.247219 -2.361645 4.469613
-0.229470 -2.247500 4.385850
-0.228485 -2.241411 4.925334
-0.222155 -2.200854 5.240198
-0.203224 -2.079324 5.634244
-0.177376 -1.913221 5.803447
-0.136685 -1.651700 5.996205
-0.009375 -0.833943 7.633642
-0.059441 -1.155849 7.684970
-0.102522 -1.432944 7.936251
-0.110100 -1.481891 8.443467
-0.124933 -1.577392 8.745756
-0.131805 -1.621782 9.195045
-0.133465 -1.632606 9.529231
0.005387 -1.305528 0.296420
-0.003219 -1.404468 0.191197
-0.038371 -1.809356 0.662449
-0.030122 -1.714577 0.850501
-0.023023 -1.633277 1.329820
-0.023569 -1.639661 1.458192
-0.017425 -1.569356 1.941032
-0.022515 -1.628503 2.650049
-0.013520 -1.524962 2.614025
-0.033910 -1.759870 2.953811
-0.069417 -2.169157 3.811777
-0.085700 -2.356982 4.374498
-0.074160 -2.224028 4.176560
-0.069795 -2.174054 4.488575
-0.060896 -2.072103 5.048336
-0.056449 -2.021142 5.308019
-0.041663 -1.851122 5.472866
-0.033447 -1.757001 5.986130
0.012175 -1.232324 6.374429
0.039509 -0.918113 6.774515
0.048348 -0.817056 7.576705
0.052285 -0.771606 7.408272
0.025406 -1.081215 7.782605
-0.000385 -1.378252 8.090507
-0.008367 -1.470346 8.393360
-0.011691 -1.508959 8.842521
-0.003769 -1.417832 8.884477
-0.006063 -1.444551 9.277568
0.012862 -1.226998 9.562800
0.092250 -1.418266 1.025997
0.088693 -1.609633 0.741512
0.088424 -1.625982 1.218177
0.088371 -1.629134 1.288834
0.089699 -1.559292 1.829569
0.089616 -1.564069 1.900401
0.090893 -1.496598 2.328093
0.090098 -1.541408 2.806530
0.084055 -1.872338 3.857175
0.078387 -2.179117 3.882533
0.078031 -2.201249 4.647527
0.079448 -2.125135 4.790039
0.082348 -1.971156 5.566380
0.088870 -1.619324 5.834116
0.093542 -1.367529 6.085146
0.097635 -1.150681 7.297741
0.105305 -0.735718 7.293176
0.101089 -0.965550 7.756128
0.096855 -1.194927 7.831459
0.093123 -1.398083 8.167061
0.091122 -1.508940 8.850710
0.091744 -1.476127 9.068714
0.091593 -1.485536 9.404259
0.197036 -1.394645 0.549063
0.209408 -1.613829 1.194170
0.209582 -1.616821 1.262792
0.205241 -1.539114 1.685144
0.201028 -1.463748 2.051924
0.201851 -1.478148 2.237504
0.201900 -1.479018 2.248203
0.203714 -1.510809 2.608341
0.221040 -1.817705 3.543685
0.237380 -2.107478 4.155067
0.235986 -2.082897 3.994734
0.226989 -1.922581 4.264396
0.212985 -1.671867 5.654147
0.203530 -1.503539 5.822570
0.191974 -1.298075 5.816839
0.173723 -0.972022 7.049277
0.162921 -0.779419 7.494275
0.170346 -0.911294 7.598168
0.187545 -1.216233 8.291371
0.202548 -1.482757 8.477159
0.189959 -1.258993 8.430567
0.195484 -1.356442 9.058565
0.195687 -1.360039 9.069312
0.195584 -1.357460 9.672428
0.174666 -0.985349 9.818125
0.289355 -1.378061 0.527141
0.314161 -1.579019 0.652222
0.303217 -1.490119 1.016283
0.294022 -1.415292 1.558045
0.296823 -1.437781 1.920707
0.300225 -1.465148 2.283029
0.299186 -1.456788 2.178994
0.292190 -1.399807 2.667109
0.336231 -1.755981 3.956983
0.358638 -1.937638 3.825717
0.359873 -1.947613 3.895229
0.356738 -1.921927 4.380756
0.327309 -1.682632 5.789441
0.270959 -1.225836 6.025294
0.236680 -0.947477 7.006588
0.209140 -0.724105 7.333427
0.219502 -0.807901 7.645306
0.264471 -1.172017 8.194770
0.262734 -1.157967 8.147581
0.278712 -1.287211 8.570915
0.281498 -1.309564 8.965209
0.284990 -1.337637 9.360442
0.289192 -1.371461 9.756532
0.248952 -1.045206 10.022802
0.382233 -1.360125 0.748860
0.401807 -1.461836 0.875967
0.406508 -1.486052 1.471144
0.388379 -1.391783 1.548011
0.395068 -1.426353 2.086315
0.392085 -1.410929 1.866248
0.401964 -1.462043 2.520564
0.402195 -1.463237 2.533755
0.444154 -1.680967 3.605698
0.494334 -1.941663 4.050025
0.508663 -2.015979 4.519568
0.469997 -1.814975 4.508746
0.427560 -1.594004 5.484768
0.342425 -1.151321 5.773093
0.336554 -1.120676 6.100572
0.305173 -0.957166 7.116525
0.275243 -0.801363 7.682153
0.300372 -0.931959 7.785833
0.325569 -1.062910 7.888415
0.339321 -1.134311 8.136068
0.356944 -1.225810 8.441813
0.375518 -1.322134 9.070456
0.385055 -1.371546 9.523793
0.338513 -1.129632 9.425192
0.287789 -0.865779 9.866054
0.446056 -1.227827 0.376881
0.474536 -1.335735 0.914605
0.478810 -1.351832 1.336342
0.483848 -1.370848 1.699407
0.483146 -1.368198 1.653811
0.496390 -1.418250 2.366324
0.491774 -1.400798 2.145979
0.472881 -1.329030 2.458940
0.536564 -1.570290 3.763325
0.598111 -1.803734 4.034569
0.630525 -1.926669 4.202674
0.587775 -1.764412 4.418074
0.535515 -1.565831 5.506943
0.427173 -1.154659 5.913855
0.399674 -1.050332 5.887963
0.342251 -0.832130 7.107173
0.293424 -0.646749 7.554880
0.331484 -0.791109 7.719919
0.396479 -1.037564 8.238598
0.435559 -1.185795 8.398200
0.474685 -1.334109 8.878998
0.476519 -1.340978 9.214830
0.443278 -1.214875 9.141723
0.443166 -1.214284 9.747881
0.370494 -0.938455 10.133078
0.527507 -1.193391 0.173318
0.593857 -1.389964 0.708104
0.562472 -1.296909 0.780367
0.565623 -1.306184 1.083970
0.577340 -1.340761 1.796056
0.543320 -1.239932 1.696800
0.552578 -1.267284 2.118076
0.563948 -1.300899 2.538847
0.577428 -1.340768 2.959009
0.666920 -1.605919 3.607502
0.709286 -1.731460 3.835409
0.706658 -1.723537 4.436482
0.653619 -1.566261 4.654092
0.568033 -1.312381 5.400677
0.498099 -1.104973 5.824632
0.430282 -0.903840 6.255467
0.373968 -0.736689 7.218976
0.333573 -0.616874 7.521597
0.450087 -0.962153 8.074970
0.434579 -0.916214 7.908732
0.444450 -0.945378 8.363814
0.487171 -1.071929 8.789146
0.501762 -1.115083 9.244528
0.515918 -1.157018 9.373652
0.532160 -0.969926 0.273639
0.608811 -1.154010 0.167816
0.687184 -1.342143 0.529523
0.655318 -1.265515 1.128701
0.661826 -1.281077 1.492137
0.670231 -1.301192 1.855310
0.626526 -1.196281 1.640734
0.644465 -1.239239 2.297691
0.621022 -1.182868 2.729670
0.655396 -1.265430 2.615994
0.738958 -1.465905 3.632757
0.844612 -1.719524 4.135857
0.803972 -1.621938 4.106396
0.757705 -1.510744 4.612975
0.650255 -1.252595 5.305496
0.580169 -1.084186 5.906959
0.499247 -0.889787 6.340061
0.436239 -0.738453 6.517719
0.376598 -0.595122 7.141393
0.321667 -0.463168 7.385771
0.366349 -0.570456 7.433649
0.499354 -0.889754 7.930513
0.527340 -0.956912 8.177850
0.526525 -0.954896 8.513219
0.578655 -1.079999 8.936659
0.566103 -1.049818 9.155259
0.590569 -1.108534 9.342194
0.646579 -1.031210 0.879066
0.688062 -1.114442 0.596012
0.742057 -1.222617 1.250100
0.696595 -1.131458 1.209163
0.716331 -1.170912 1.984104
0.729074 -1.196409 2.348404
0.674605 -1.087224 2.076596
0.645812 -1.029417 2.509840
0.792217 -1.322830 3.639469
0.943663 -1.626486 3.900026
0.959946 -1.659101 4.142577
0.867099 -1.472822 4.722747
0.723155 -1.184095 5.181456
0.591181 -0.919356 5.742018
0.516187 -0.768941 5.913711
0.472981 -0.682093 7.233910
0.402214 -0.540154 7.416519
0.483175 -0.702461 7.701271
0.604700 -0.946068 8.278767
0.582495 -0.901567 8.112899
0.563548 -0.863486 8.656972
0.582053 -0.900574 8.787026
0.638594 -1.013847 9.479988
0.589071 -0.914541 9.465305
0.569756 -0.875689 10.229897
0.658195 -0.889082 0.257242
0.708476 -0.974906 0.151390
0.813923 -1.154775 0.747946
0.763546 -1.068802 0.763088
0.781031 -1.098525 1.596564
0.775099 -1.088432 1.374735
0.797569 -1.126680 2.090188
0.793683 -1.120064 1.985705
0.765603 -1.072066 2.533827
0.739851 -1.028052 3.025275
0.840307 -1.199378 3.809133
0.991327 -1.457108 3.779057
1.031703 -1.525940 4.308930
0.962340 -1.407511 4.699489
0.766298 -1.072863 5.349658
0.644893 -0.865566 6.150789
0.575203 -0.746595 6.444589
0.400970 -0.449275 6.284194
0.297274 -0.272249 6.726861
0.375695 -0.405996 7.344058
0.524173 -0.659339 7.663964
0.591413 -0.774075 7.767965
0.627670 -0.835914 8.017121
0.644217 -0.864090 8.472308
0.693312 -0.947833 8.779472
0.648289 -0.870946 9.149019
0.574760 -0.745437 9.343447
0.646030 -0.866967 10.041297
0.604182 -0.676776 0.191636
0.837653 -1.019468 0.964506
0.840261 -1.023282 1.093717
0.840519 -1.023659 1.105629
0.791920 -0.952266 1.415674
0.815033 -0.986120 2.074302
0.759401 -0.904436 2.093709
0.779224 -0.933488 2.518120
0.795877 -0.957900 2.824320
0.698867 -0.815433 3.093580
0.745091 -0.883220 3.755750
0.900162 -1.110925 3.551919
1.079345 -1.373908 4.347813
1.085724 -1.383266 4.417240
0.682305 -0.790816 5.503351
0.615047 -0.692016 5.912316
0.521075 -0.554021 6.086209
0.403907 -0.381937 6.525314
0.328514 -0.271205 6.825899
0.453577 -0.454768 7.296770
0.536752 -0.576868 7.463201
0.677518 -0.783481 7.984247
0.635270 -0.721438 8.083761
0.654350 -0.749394 8.540637
0.666804 -0.767630 8.939124
0.682533 -0.790675 9.338559
0.666241 -0.766727 9.561101
0.622044 -0.701789 9.937198
0.774515 -0.792782 0.456770
0.837049 -0.872242 0.527117
0.904269 -0.957624 0.890268
0.925888 -0.985010 1.665221
0.869159 -0.912904 1.801604
0.867354 -0.910614 1.755677
0.821406 -0.852182 2.128713
0.799837 -0.824689 2.858473
0.924884 -0.983503 3.708595
1.073971 -1.172930 3.984981
1.163706 -1.286933 4.272040
1.121372 -1.233113 4.474181
1.186225 -1.315460 5.064642
1.012306 -1.094430 5.191412
0.860313 -0.901243 5.496274
0.770914 -0.787603 5.785449
0.614917 -0.589334 6.039616
0.512295 -0.458902 6.215563
0.436311 -0.362301 6.574327
0.321928 -0.216886 7.082194
0.402760 -0.319595 7.190261
0.624016 -0.600702 7.750214
0.685528 -0.678873 7.734540
0.691828 -0.686835 8.130187
0.690300 -0.684855 8.467558
0.822167 -0.852357 9.129933
0.732089 -0.737863 9.323512
0.726793 -0.731101 9.604653
0.567294 -0.528392 9.775332
0.762765 -0.656246 0.022432
0.762752 -0.656224 0.094754
0.902933 -0.808945 0.696434
0.908969 -0.815492 1.003713
0.907915 -0.814348 0.957720
0.935392 -0.844209 1.794256
0.944046 -0.853622 1.983424
0.883123 -0.787207 2.121344
0.822678 -0.721313 2.260181
0.773436 -0.667612 2.577906
0.971297 -0.883173 3.420949
1.263163 -1.201185 4.322559
1.277303 -1.216582 4.450591
1.245483 -1.181869 4.767446
0.984346 -0.897189 5.417921
0.761923 -0.654729 5.804699
0.600145 -0.478374 6.118017
0.422107 -0.284310 6.315367
0.329941 -0.183828 6.614453
0.391498 -0.250880 6.990140
0.554432 -0.428406 7.519252
0.731508 -0.621382 7.716662
0.838972 -0.738451 8.261686
0.752513 -0.644226 8.183548
0.918103 -0.824623 8.963556
0.765990 -0.658839 8.919194
0.776050 -0.669734 9.587976
0.807574 -0.606028 0.505487
0.961160 -0.752343 0.986926
1.033847 -0.821610 0.997040
0.981458 -0.771628 1.602476
0.909747 -0.703287 1.621763
0.923735 -0.716587 1.927623
0.894399 -0.688561 2.655026
0.879474 -0.674360 2.429495
1.047634 -0.834494 3.628479
1.281104 -1.056970 3.773504
1.325523 -1.099260 4.189012
1.261792 -1.038518 4.273010
1.286182 -1.061685 5.053822
1.169619 -0.950583 5.276301
0.925390 -0.717857 5.108835
0.887750 -0.681914 5.867421
0.705352 -0.508070 6.120252
0.534574 -0.345294 6.437033
0.496670 -0.309151 6.651576
0.400488 -0.217465 6.951586
0.516921 -0.328399 7.179706
0.800037 -0.598134 7.855650
0.777846 -0.576997 7.747772
0.850207 -0.645888 8.439473
0.879307 -0.673606 8.568660
0.853610 -0.649098 8.787257
0.803337 -0.601147 9.216248
0.727812 -0.529144 9.529628
0.654800 -0.459535 9.845670
0.613712 -0.355342 0.032944
0.613833 -0.355431 0.165357
0.925439 -0.613908 0.590009
1.014642 -0.687865 1.130180
0.944000 -0.629240 1.323549
0.967636 -0.648800 1.867022
0.971357 -0.651881 1.938221
0.905207 -0.596983 2.134931
0.959735 -0.642150 2.915419
1.086695 -0.747429 3.469987
1.258096 -0.889613 3.631517
1.310510 -0.933053 4.108318
1.392678 -1.001163 4.757288
1.310657 -0.933118 4.728719
1.125788 -0.779714 5.085667
0.984806 -0.662742 5.193592
0.880084 -0.575830 5.539687
0.638112 -0.375043 5.991203
0.584182 -0.330247 6.587800
0.511568 -0.270002 6.623320
0.456222 -0.224036 7.166653
0.619019 -0.359059 7.575032
0.770099 -0.484402 7.534681
0.849857 -0.550538 7.903634
0.832346 -0.535985 8.181461
0.947524 -0.631495 8.667442
0.936026 -0.621931 8.946657
0.807961 -0.515673 9.080748
0.773963 -0.487423 9.572669
0.696788 -0.423367 9.889102
0.960489 -0.547580 0.128836
0.717245 -0.371935 0.022564
0.724177 -0.376878 0.752432
0.968844 -0.553555 0.816507
1.062121 -0.620877 1.238233
0.990811 -0.569359 1.491243
0.991345 -0.569744 1.503697
0.938331 -0.531413 2.054488
0.950160 -0.539939 2.244470
0.890921 -0.497133 2.561689
1.133579 -0.672287 3.462197
1.340107 -0.821394 3.856566
1.348300 -0.827304 3.926910
1.415543 -0.875816 4.461064
1.369323 -0.842416 4.721920
1.254235 -0.759279 5.060679
0.964782 -0.550232 5.324034
0.865811 -0.478726 5.731425
0.703486 -0.361463 6.224609
0.536662 -0.240994 6.220886
0.586705 -0.277072 6.918717
0.431786 -0.165194 6.979025
0.600926 -0.287301 7.388355
0.825910 -0.449747 7.646745
0.939368 -0.531636 8.133244
1.000202 -0.575546 8.381415
0.940483 -0.532412 8.481786
0.973300 -0.556071 8.937886
0.886491 -0.493356 9.249624
0.836289 -0.457066 9.683070
0.680035 -0.344200 10.034739
0.741084 -0.321746 0.050118
0.741559 -0.322025 0.242525
0.837041 -0.381388 0.909937
0.918000 -0.431782 0.741875
0.924254 -0.435653 0.992111
0.953395 -0.453727 1.716354
0.869321 -0.401408 1.735419
0.886951 -0.412353 2.045549
0.903393 -0.422564 2.296067
0.926440 -0.436880 2.605705
0.890100 -0.414220 3.163136
0.921529 -0.433752 3.472896
1.342543 -0.695692 4.136077
1.443403 -0.758447 4.249687
1.338116 -0.692940 4.101726
1.274624 -0.653321 5.412085
0.766921 -0.337375 5.481265
0.654282 -0.267253 5.831923
0.686188 -0.287055 6.464627
0.523096 -0.185560 6.521543
0.460133 -0.146333 7.063663
0.544930 -0.199103 7.050741
0.860248 -0.395272 7.669514
0.877104 -0.405755 7.740344
0.982163 -0.471098 8.166758
0.949424 -0.450706 8.384644
1.063056 -0.521383 8.809644
1.004573 -0.484955 9.237951
0.766603 -0.336859 9.345570
0.679301 -0.282505 9.661393
0.763829 -0.272112 0.471348
0.769478 -0.275092 0.783945
0.859519 -0.322972 0.854590
1.049891 -0.424182 1.276022
0.972599 -0.383056 1.531216
0.904214 -0.346658 1.905602
0.920126 -0.355101 2.155521
0.869097 -0.327923 2.651965
0.865185 -0.325846 2.604771
0.909163 -0.349196 3.092827
0.859933 -0.322984 3.473696
1.063568 -0.431264 3.697420
1.341625 -0.579134 3.786344
1.404205 -0.612377 4.264550
1.422322 -0.622002 4.392926
1.416935 -0.619093 4.945351
0.982899 -0.388214 5.564909
0.596614 -0.182751 5.917573
0.485249 -0.123461 6.720111
0.454535 -0.107105 6.998417
0.569840 -0.168418 7.107241
0.770949 -0.275366 7.189804
0.946986 -0.368928 7.916611
0.996064 -0.395014 8.106655
0.930253 -0.360006 8.206739
1.062774 -0.430445 8.692581
0.998862 -0.396447 8.794425
0.854375 -0.319570 9.256730
0.818480 -0.300440 9.751525
0.546841 -0.155951 10.078744
0.870157 -0.259508 0.311682
0.781076 -0.219649 0.505669
0.887458 -0.267185 1.113155
1.161589 -0.389799 1.115235
1.000463 -0.317693 1.610834
1.004335 -0.319419 1.683729
0.924269 -0.283591 1.881692
0.867060 -0.257965 2.378926
0.872815 -0.260533 2.452210
0.825143 -0.239172 2.952419
0.856823 -0.253318 3.264299
1.039615 -0.335078 3.254686
1.428820 -0.509093 4.167010
1.520924 -0.550290 4.165197
1.502050 -0.541810 4.658897
1.342978 -0.470647 4.823280
0.604135 -0.140093 5.899235
0.525870 -0.105045 6.438549
0.457221 -0.074298 6.982809
0.446658 -0.069577 6.936208
0.666215 -0.167740 7.467899
0.875460 -0.261325 7.548870
0.939555 -0.289975 7.800450
0.918191 -0.280397 8.079582
1.122183 -0.371584 8.803656
1.004613 -0.319003 8.729660
0.995441 -0.314853 9.337170
0.882665 -0.264391 9.592204
0.599994 -0.137932 9.916633
0.791444 -0.165420 0.255601
0.795123 -0.166752 0.567539
0.894331 -0.203284 0.816915
1.004798 -0.243947 1.301553
0.911618 -0.209616 1.319103
0.862557 -0.191481 2.112408
0.876666 -0.196665 2.304229
0.985502 -0.236749 2.487078
0.908672 -0.208428 2.687530
0.976510 -0.233372 3.354236
0.958265 -0.226662 3.189120
1.107910 -0.281760 3.663520
1.341709 -0.367873 4.001308
1.522765 -0.434535 4.581331
1.404917 -0.391128 4.435842
1.318039 -0.359073 5.067599
1.054002 -0.261785 5.194667
0.949097 -0.223100 5.661358
0.723281 -0.139880 5.974816
0.605051 -0.096294 6.331477
0.359334 -0.005750 6.531620
0.409855 -0.024315 7.174651
0.683614 -0.125152 7.497917
0.898305 -0.204244 7.576778
1.007233 -0.244373 7.621354
1.048160 -0.259413 8.134631
1.118577 -0.285338 8.382798
1.191158 -0.312036 8.955281
0.962073 -0.227643 8.851723
0.847293 -0.185311 9.434390
0.751920 -0.150149 9.751014
0.800571 -0.111188 0.206099
0.896345 -0.139252 0.158366
0.805008 -0.112460 0.589485
0.805237 -0.112527 0.601858
1.104270 -0.200107 1.021950
0.917204 -0.145290 1.160347
0.958287 -0.157269 1.945757
0.959104 -0.157508 1.958059
0.905236 -0.141685 2.513615
0.901214 -0.140510 2.466399
0.883097 -0.135144 3.263368
0.884484 -0.135550 3.275704
1.141746 -0.210884 3.796318
1.341168 -0.269308 3.838542
1.383774 -0.281769 4.142011
1.411588 -0.289904 4.328224
1.309798 -0.260040 4.899165
1.197328 -0.227055 5.358356
1.011077 -0.172483 5.407950
0.743934 -0.094170 6.036609
0.652512 -0.067382 6.069121
0.386380 0.010599 6.205088
0.459283 -0.010704 6.966962
0.721650 -0.087553 7.230194
0.802413 -0.111221 7.156420
1.036452 -0.179752 7.677140
1.062175 -0.187255 8.130470
0.973365 -0.161233 8.170095
1.098502 -0.197864 8.595906
1.083087 -0.193328 8.873925
0.966013 -0.158985 9.454438
0.848277 -0.124472 9.710047
0.601071 -0.052033 9.881350
0.708335 -0.034792 0.015368
0.708716 -0.034861 0.223008
0.914036 -0.080037 0.831102
1.012035 -0.101619 0.841977
0.944016 -0.086586 1.570049
0.861074 -0.068301 1.825424
0.861778 -0.068455 1.836609
0.892151 -0.075114 2.265129
0.897801 -0.076353 2.335878
0.862709 -0.068576 3.012310
0.876737 -0.071656 3.142762
1.031474 -0.105701 3.617426
1.290819 -0.162786 4.072691
1.301041 -0.165032 4.142378
1.311438 -0.167317 4.212036
1.262581 -0.156534 4.532356
1.238103 -0.151112 4.972008
0.973267 -0.092771 5.155706
0.743840 -0.042217 5.521967
0.639704 -0.019248 5.993957
0.543476 0.001979 6.470622
0.550061 0.000562 6.927753
0.458026 0.020834 6.963177
0.724986 -0.037942 7.226446
1.058490 -0.111357 7.721560
0.984020 -0.094949 7.819240
1.037307 -0.106671 8.008325
1.086821 -0.117539 8.521999
1.145822 -0.130496 9.036387
0.964036 -0.090455 9.110466
0.768625 -0.047393 9.456044
0.731900 -0.039269 9.952830
0.807911 -0.001251 0.080240
0.710910 0.013292 0.392677
0.612167 0.028076 0.406323
0.729588 0.010549 1.137205
0.826628 -0.003982 1.085949
0.839815 -0.005934 1.396925
0.856495 -0.008410 1.707730
0.889871 -0.013371 2.197158
0.910339 -0.016418 2.447790
0.950685 -0.022427 2.876669
0.853570 -0.007887 2.899275
0.802744 -0.000247 3.340858
0.996408 -0.029189 4.054959
1.177005 -0.056235 3.920273
1.213101 -0.061621 4.168168
1.299938 -0.074583 4.709449
1.138032 -0.050329 4.932944
0.949175 -0.022013 5.534588
0.769676 0.004867 5.646191
0.506097 0.044340 5.839425
0.366382 0.065277 6.136049
0.353839 0.067183 6.535181
0.518446 0.042588 7.214336
0.697866 0.015721 7.116778
1.050306 -0.037002 7.673669
1.120477 -0.047489 7.922582
1.080696 -0.041518 8.140410
1.137212 -0.049965 8.329990
1.080748 -0.041478 8.815925
1.048029 -0.036564 9.036848
0.849714 -0.006851 9.382415
0.739881 0.009634 9.972496
0.922430 0.043799 1.021318
1.026950 0.035305 1.149629
0.947786 0.041776 1.583290
0.955430 0.041163 1.715447
0.856744 0.049192 1.734767
0.900576 0.045670 2.344256
0.917201 0.044331 2.536174
0.841841 0.050479 2.797385
0.775550 0.055894 3.120049
0.842291 0.050504 3.671320
1.073923 0.031677 3.895313
1.226699 0.019274 4.247965
1.305763 0.012877 4.731228
1.170027 0.023904 4.525672
0.993131 0.038344 5.242234
0.811252 0.053147 5.352686
0.543794 0.074917 5.543716
0.412677 0.085608 5.899619
0.410172 0.085844 6.357503
0.429933 0.084273 6.877516
0.701758 0.062180 7.142330
0.928723 0.043723 7.223467
0.995202 0.038332 7.473055
1.183615 0.023052 8.135608
1.074053 0.031963 8.116829
1.089863 0.030705 8.512757
1.150127 0.025839 9.027856
0.990818 0.038831 9.491091
0.765505 0.057156 9.448795
0.655965 0.066109 10.040233
0.700136 0.113548 -0.022130
0.921423 0.112104 1.149654
1.026888 0.111386 1.277470
0.939329 0.112008 1.533111
0.854184 0.112613 1.790468
0.866970 0.112538 1.982686
0.916466 0.112239 2.591750
0.940873 0.112089 2.842986
0.924559 0.112190 2.677767
0.790930 0.113155 3.308860
0.693207 0.113830 3.333964
0.962343 0.112012 3.857525
1.195995 0.110417 4.077289
1.116665 0.110974 4.221736
1.096700 0.111146 4.722205
0.932934 0.112291 4.946252
0.852137 0.112893 5.591081
0.720916 0.113822 5.942503
0.567255 0.114898 6.177092
0.443493 0.115776 6.535279
0.451408 0.115754 6.994397
0.633417 0.114492 6.897576
0.890757 0.112732 7.099726
1.004498 0.111978 7.527535
1.107801 0.111292 7.894418
1.193138 0.110748 8.524920
1.157529 0.111009 8.743528
1.066023 0.111642 8.785638
0.882017 0.112939 9.187616
0.756995 0.113819 9.442481
0.712686 0.114178 10.213779
0.800171 0.167440 0.796550
0.909991 0.174159 1.105250
0.910434 0.174186 1.116875
0.824358 0.168960 1.430976
0.857143 0.170997 1.979657
0.880522 0.172445 2.289334
0.896640 0.173441 2.479658
0.937781 0.175980 2.907792
0.879447 0.172449 3.287575
0.788823 0.166929 3.370751
0.877489 0.172383 4.038968
0.960927 0.177462 3.917403
1.015339 0.180806 4.285073
0.956511 0.177237 4.549855
0.855428 0.171114 5.131682
0.816533 0.168765 5.460504
0.683879 0.160701 5.811296
0.431819 0.145349 6.066270
0.363350 0.141185 6.220741
0.439703 0.145894 6.983045
0.606638 0.156062 6.826136
0.924653 0.175485 7.267159
1.007845 0.180580 7.575730
1.128818 0.187986 8.001486
1.202427 0.192492 8.248834
1.069368 0.184396 8.496117
0.995722 0.179935 8.923829
0.969412 0.178369 9.473926
0.805475 0.168382 9.610691
0.569115 0.153986 9.841814
0.579059 0.194262 0.084328
0.791669 0.221823 0.955965
0.817969 0.225268 1.564826
0.806584 0.223779 1.337682
0.829691 0.226798 1.767163
0.878930 0.233214 2.434530
0.895947 0.235428 2.624765
0.792780 0.222082 2.586026
0.822826 0.225990 2.896244
0.877306 0.233071 3.384842
0.940440 0.241271 3.872380
1.002989 0.249392 4.299430
0.977817 0.246124 4.133087
0.917898 0.238393 4.397536
0.901329 0.236285 4.901630
0.729460 0.214067 5.068048
0.676884 0.207321 5.837548
0.510676 0.185835 6.011199
0.319282 0.161084 6.065073
0.333463 0.162955 6.585029
0.453425 0.178506 7.081859
0.821620 0.226146 7.318802
1.016392 0.251336 7.279132
1.165266 0.270630 7.822482
1.289281 0.286700 8.245487
1.138943 0.267268 8.433270
1.026762 0.252780 8.740303
0.879311 0.233722 8.931069
0.886389 0.234662 9.270918
0.837499 0.228392 10.036495
0.771820 0.274280 0.855138
0.887925 0.297410 1.340949
0.793356 0.278604 1.417916
0.894893 0.298806 1.485019
0.814535 0.282844 1.801188
0.844590 0.288854 2.231145
0.892623 0.298447 2.779560
0.924580 0.304826 3.089346
0.877198 0.295433 3.529966
0.909517 0.301879 3.780445
0.911196 0.302214 3.792984
0.963147 0.312574 4.161826
0.868019 0.293654 4.189272
0.848010 0.289710 4.694155
0.837184 0.287592 5.201085
0.739552 0.268210 5.730112
0.574739 0.235438 5.903702
0.397901 0.200270 6.017291
0.397222 0.200168 6.474708
0.374818 0.195736 6.812399
0.721733 0.264755 6.992853
1.068455 0.333764 7.547952
1.153243 0.350651 7.854241
1.106950 0.341431 7.688658
1.279669 0.375831 8.288091
1.073922 0.334928 8.623835
0.927583 0.305832 8.814370
0.959722 0.312277 9.542330
0.819521 0.284403 9.738944
0.546132 0.230030 9.850523
0.549748 0.271265 0.424197
0.361020 0.220265 0.682844
0.460711 0.247224 0.814911
0.755875 0.327029 0.999373
0.782490 0.334268 1.609823
0.813430 0.342668 2.100300
0.837490 0.349195 2.411499
0.824269 0.345609 2.246042
0.753796 0.326581 2.566188
0.801301 0.339459 3.057044
0.815524 0.343313 3.188869
0.763007 0.329144 3.571488
0.915024 0.370269 3.987469
0.891719 0.364005 4.490430
0.962126 0.383069 4.918453
0.933178 0.375272 5.305067
0.713098 0.315769 5.176079
0.570038 0.277116 5.466263
0.478867 0.252509 6.001295
0.305419 0.205629 6.116825
0.292951 0.202288 6.516186
0.704232 0.313504 7.001271
0.953577 0.380924 7.202262
1.126649 0.427731 7.484294
1.100666 0.420727 7.759394
1.060654 0.409926 7.976576
1.255169 0.462557 8.636195
1.111707 0.423789 8.827373
0.858886 0.355456 8.991996
0.795355 0.338313 9.425536
0.626827 0.292785 9.836133
0.731302 0.377315 0.978836
0.824327 0.409372 0.927610
0.745816 0.382346 1.360540
0.764688 0.388877 1.730339
0.768873 0.390325 1.801654
0.811709 0.405133 2.409405
0.827763 0.410680 2.599656
0.887364 0.431266 3.205823
0.828842 0.411121 3.526712
0.852260 0.419205 3.716809
0.846244 0.417129 3.668952
0.919712 0.442489 4.215120
0.863341 0.423081 4.479749
0.799819 0.401204 4.686241
0.768184 0.390330 5.072967
0.683018 0.361021 5.660454
0.500012 0.297954 5.712174
0.352850 0.247253 5.946037
0.312408 0.233368 6.669010
0.420704 0.270695 6.718222
0.811861 0.405536 7.137421
0.980516 0.463682 7.420220
1.014098 0.475266 7.550030
1.048268 0.487052 7.679668
1.214633 0.544432 8.279388
1.069700 0.494520 8.792371
0.893297 0.433730 8.865407
0.918496 0.442444 9.264453
0.672818 0.357786 9.432190
0.418313 0.270105 9.876116
0.506175 0.341826 0.095148
0.231047 0.225875 0.352465
0.345965 0.274385 1.274328
0.728325 0.435577 1.568789
0.717790 0.431119 1.343280
0.739426 0.440272 1.774388
0.747344 0.443620 1.906975
0.796364 0.464333 2.575706
0.700706 0.424009 2.538414
0.728274 0.435653 2.850316
0.791703 0.462436 3.459742
0.828938 0.478155 3.770460
0.902650 0.509267 4.317955
0.871232 0.496007 4.093911
0.897916 0.507315 4.894370
0.839185 0.482575 5.103486
0.650070 0.402860 5.093309
0.545426 0.358787 5.564228
0.448223 0.317850 6.039963
0.332878 0.269258 6.399189
0.258738 0.238014 6.495763
0.596532 0.380418 6.742121
1.007098 0.553518 7.276530
1.054411 0.573475 7.466575
1.014253 0.556565 7.683356
1.072033 0.580963 8.254123
1.059022 0.575475 8.207426
1.039323 0.567218 8.809644
0.779976 0.457907 8.914318
0.793692 0.463740 9.585925
0.741574 0.441805 10.022981
0.482790 0.381100 0.559898
0.216205 0.244172 0.579509
0.313584 0.294220 0.955669
0.679677 0.482285 1.255570
0.693318 0.489316 1.568090
0.725120 0.505694 2.118928
0.718277 0.502171 2.013665
0.735294 0.510932 2.266060
0.685799 0.485548 2.766134
0.709002 0.497486 3.018834
0.740552 0.513716 3.330862
0.775270 0.531573 3.642464
0.836285 0.562952 4.131696
0.838136 0.563904 4.145603
0.793310 0.540905 4.471855
0.761208 0.524446 4.859320
0.616878 0.450330 5.087696
0.396668 0.337245 5.395116
0.299874 0.287565 5.869770
0.334053 0.305171 6.509019
0.301005 0.288218 6.786104
0.588942 0.436120 6.847072
0.890151 0.590843 6.964320
0.961166 0.627343 7.271227
0.949575 0.621416 7.604028
1.136344 0.717405 8.321289
0.969374 0.631647 8.391327
0.936666 0.614864 8.609525
0.943083 0.618213 9.273957
0.851056 0.570968 9.587281
0.697653 0.492206 9.996877
0.366419 0.359140 0.019706
0.639131 0.523646 1.075449
0.721552 0.573329 0.965746
0.653547 0.532369 1.459894
0.754101 0.593019 1.765142
0.694489 0.557114 2.201814
0.687568 0.552932 2.095643
0.713267 0.568457 2.466167
0.748412 0.589681 2.894785
0.692307 0.555881 3.215412
0.711708 0.567594 3.406245
0.759504 0.596445 3.834775
0.828951 0.638360 4.380923
0.796662 0.618924 4.765091
0.696628 0.558606 4.675069
0.556073 0.473883 4.900471
0.475823 0.425548 5.489762
