1.131701 0.324206 0.633496
1.231038 0.370834 0.955027
1.339165 0.421576 1.390352
1.078704 0.299149 1.614501
1.150650 0.332801 2.617748
1.153491 0.334131 2.649578
1.281019 0.509155 0.762197
1.206140 0.466711 1.148094
1.212151 0.470089 1.297303
1.311539 0.526300 1.557334
1.139474 0.428904 1.601603
1.260629 0.497389 2.152617
1.449319 0.604157 2.341763
1.324076 0.533176 2.915149
1.143888 0.551530 0.279190
1.157084 0.560398 0.954114
1.158057 0.561055 0.986068
1.262650 0.632167 1.537799
1.102102 0.522849 1.640045
1.116781 0.532798 1.906295
1.029386 0.592676 0.983615
1.113634 0.660947 1.187339
1.212230 0.740797 1.680203
1.130629 0.674651 1.601979
1.250236 0.771494 2.325009
1.252437 0.773273 2.356967
0.974398 0.661150 0.646100
0.978721 0.665189 0.854170
1.139220 0.816545 1.345132
1.142677 0.819789 1.435114
1.027099 0.710606 2.063579
1.078299 0.758771 2.828760
1.090104 0.769881 2.977345
1.057403 0.881259 0.689185
0.920413 0.730983 0.550301
1.063799 0.888215 0.985290
1.071384 0.896481 1.249681
1.078524 0.904272 1.455789
1.161728 0.995485 1.829247
1.245224 1.087031 2.141865
1.237877 1.078780 3.047587
0.980100 0.964035 0.619579
0.922609 0.889383 0.829940
0.989561 0.976202 1.092151
0.995319 0.983626 1.299227
1.006276 0.997770 1.622520
1.036717 1.037116 2.293954
1.108911 1.130753 2.490526
0.910724 1.043860 0.970283
0.921644 1.060368 1.408757
0.928131 1.070188 1.614344
0.961010 1.120027 2.400479
0.968585 1.131518 2.547510
0.935593 1.081206 2.937169
0.817855 0.902044 2.814846
0.868775 1.205178 1.001480
0.888755 1.241716 1.786730
0.848214 1.167046 1.999804
0.841312 1.154404 1.799404
0.920084 1.299135 2.576271
0.876851 1.219545 2.675900
0.694317 0.883578 2.866204
0.656144 0.813042 3.839042
0.722818 1.174603 0.785851
0.733189 1.197927 1.400577
0.735208 1.202477 1.491457
0.760026 1.258515 2.337476
0.761202 1.261172 2.370112
0.741015 1.215173 2.877233
0.624866 0.951496 3.001425
0.643437 0.993513 3.386688
0.660917 1.033076 3.712701
0.671805 1.337688 1.263740
0.669644 1.331630 1.122206
0.647562 1.268848 1.740602
0.648285 1.270882 1.773069
0.659366 1.302069 2.212109
0.685278 1.375100 2.998062
0.609690 1.161186 2.761502
0.595516 1.120840 3.272758
0.554749 1.372884 0.861476
0.607461 1.573529 1.060160
0.564928 1.411194 1.680643
0.538255 1.309650 1.603670
0.571339 1.435414 2.035658
0.552909 1.365037 2.366486
0.519931 1.239054 3.058892
0.441498 0.939927 3.793663
0.432861 1.307716 0.726715
0.490769 1.620537 1.210307
0.457561 1.440671 1.541038
0.443246 1.362995 1.869318
0.465040 1.480667 2.125374
0.451067 1.404883 2.397307
0.313408 1.254396 1.140336
0.333838 1.459976 1.279363
0.337984 1.500785 1.948179
0.327109 1.391435 1.813024
0.328613 1.406297 2.019090
0.343277 1.553222 2.563411
0.326958 1.388352 2.905386
0.290056 1.016299 3.158098
0.225559 1.594870 1.536092
0.225274 1.583943 1.336753
0.223912 1.522325 1.952701
0.221742 1.429440 2.049944
0.222165 1.446206 2.255868
0.218665 1.294277 2.772219
0.215583 1.159702 3.353692
0.096581 1.528820 1.857514
0.102895 1.423480 1.780788
0.100080 1.471815 2.393908
0.104221 1.403626 2.726420
0.102157 1.438763 3.049509
-0.012252 1.495267 1.230002
-0.000685 1.409898 1.499863
0.009992 1.331180 1.829894
0.002725 1.385701 2.503448
0.026660 1.208700 2.730851
0.075174 0.849826 3.101866
-0.142655 1.572096 0.815522
-0.150081 1.607501 1.599213
-0.130458 1.515415 1.695574
-0.115303 1.444510 2.083064
-0.122068 1.476539 2.463696
-0.111902 1.429142 2.970763
-0.067266 1.219447 2.850083
-0.248552 1.474451 1.228643
-0.255462 1.497566 1.666843
-0.257149 1.503204 1.757327
-0.267980 1.539342 2.252786
-0.251030 1.483383 2.699895
-0.173056 1.225102 2.997614
-0.360534 1.424412 2.327502
-0.324961 1.334395 2.368124
-0.260957 1.172514 2.652554
-0.294125 1.256764 3.445348
-0.468559 1.398459 2.390055
-0.406165 1.269874 2.965498
-0.235987 0.918690 3.074543
-0.694910 1.549368 2.640019
-0.586796 1.365930 2.517838
-0.526153 1.263262 3.268775
-0.829248 1.521920 1.887648
-0.743131 1.398225 2.487141
-0.933738 1.421300 1.360414
-0.835479 1.302893 2.072044
-0.715977 1.158731 2.236607
-0.618750 1.041525 2.755114
-1.046365 1.338927 1.335474
-1.061718 1.354703 1.712576
-0.936895 1.227116 2.021871
-0.847991 1.136361 2.826593
-0.803988 1.091430 3.161354
-1.131244 1.245559 0.953148
-1.137469 1.251074 1.158165
-1.014801 1.143275 1.811608
-0.898127 1.040733 2.382683
-0.860554 1.007773 2.891669
-1.068060 1.026461 0.880054
-1.090342 1.043102 1.494870
-1.106507 1.055152 1.815452
-0.969529 0.953587 2.210206
-0.921847 0.918287 2.658873
-1.142874 0.942965 0.889796
-1.153769 0.949890 1.211886
-1.095837 0.913446 1.772161
-0.935876 0.812587 1.935105
-0.994494 0.849689 2.727525
-0.923667 0.805046 2.887374
-1.117607 0.805823 0.738543
-1.298227 0.901700 0.880303
-1.231535 0.866396 1.437381
-1.139388 0.817481 1.358540
-1.101664 0.797598 2.212482
-1.174476 0.705734 0.381390
-1.277482 0.749793 0.877788
-1.291765 0.755950 1.259438
-1.219296 0.725066 1.647048
-1.252171 0.739180 2.145665
-1.327078 0.639028 0.576185
-1.335723 0.641949 0.898858
-1.253290 0.614601 1.226043
-1.263194 0.617924 1.433296
-1.301539 0.630759 2.047222
-1.375331 0.539393 0.750225
-1.289315 0.517822 1.076919
-1.320551 0.525762 1.691330
-1.326338 0.527230 1.782150
-1.271681 0.513575 2.346284
-1.012458 0.364332 0.513292
-1.110500 0.381151 0.484750
-1.415741 0.433581 0.858984
-1.433455 0.436683 1.296571
-1.333747 0.419571 1.275136
-1.271623 0.409000 1.895510
-1.069639 0.374493 2.955518
-1.440324 0.314764 0.636468
-1.457071 0.316301 1.133530
-1.367290 0.308467 1.345587
-1.385712 0.310126 1.669530
-1.337090 0.305963 2.348332
-1.566917 0.194284 0.827034
-1.474291 0.193936 1.035684
-1.398647 0.193699 1.536664
-1.311650 0.193375 1.749227
-0.995302 0.192229 2.758796
-1.588400 0.075355 1.129666
-1.492784 0.082175 1.224114
-1.394665 0.089164 1.261045
-1.309042 0.095297 1.531756
-0.980022 0.118852 2.481713
-1.577995 -0.054341 0.827485
-1.488815 -0.040486 1.094575
-1.393955 -0.025776 1.188993
-1.325860 -0.015145 1.751050
-1.136649 0.014347 2.986965
-1.561136 -0.169775 0.486359
-1.477396 -0.150251 0.984038
-1.385888 -0.128973 1.136027
-1.317673 -0.113046 1.697719
-1.353314 -0.121253 2.196094
-1.458828 -0.259161 0.889796
-1.285870 -0.205027 1.337907
-1.306955 -0.211562 1.720511
-1.213742 -0.182417 1.759467
-1.427017 -0.376595 0.697653
-1.249604 -0.304524 0.968722
-1.259875 -0.308653 1.234339
-1.183215 -0.277479 1.564073
-1.325639 -0.460305 1.377400
-1.146191 -0.369477 1.360811
-1.084235 -0.338037 1.867990
-1.135273 -0.467660 1.766330
-1.058827 -0.421340 1.923304
-1.221762 -0.654279 0.987109
-1.147884 -0.600639 1.199204
-1.014835 -0.503995 1.829655
-1.095559 -0.681361 1.072791
-1.038455 -0.632917 1.578033
-0.985197 -0.587740 2.027713
-1.041959 -0.763461 1.111128
-0.931977 -0.654857 1.915730
-0.922126 -0.645184 1.712333
-0.976855 -0.849768 1.181407
-0.934492 -0.800265 1.804070
-0.868361 -0.723203 1.784429
-0.849238 -0.856330 1.395152
-0.793717 -0.779309 1.491147
-0.872378 -1.063232 0.643009
-0.773127 -0.901289 0.973765
-0.790694 -0.929753 1.651028
-0.689412 -0.764560 1.755142
-0.472474 -0.410509 2.787646
-0.744196 -1.035912 0.609853
-0.658162 -0.868556 1.000892
-0.667561 -0.886688 1.445887
-0.636631 -0.826406 1.956510
-0.656488 -1.094822 0.653691
-0.620587 -1.008008 0.865168
-0.591727 -0.938072 1.431182
-0.596379 -0.949233 1.641372
-0.534948 -1.058345 0.928862
-0.514521 -0.994009 1.612204
-0.481629 -0.890989 1.473894
-0.439862 -0.759680 2.356027
-0.429180 -0.990219 0.659597
-0.478437 -1.196631 1.036734
-0.455022 -1.098413 1.013625
-0.437464 -1.024445 1.519864
-0.361867 -1.124088 0.772827
-0.362939 -1.130909 0.981096
-0.350945 -1.052005 1.429114
-0.338856 -0.972593 1.762056
-0.317843 -0.834381 2.526334
-0.277625 -1.164493 1.211519
-0.270575 -1.072084 1.365234
-0.263333 -0.977280 1.460981
-0.188963 -1.268194 0.852311
-0.188926 -1.178209 1.122428
-0.188925 -1.100755 1.570860
-0.107276 -0.969710 0.391476
-0.089926 -1.177489 0.773514
-0.088809 -1.191481 1.158387
-0.095836 -1.108144 1.489999
-0.104019 -1.010515 1.528774
0.026660 -1.290286 1.082832
0.009896 -1.190695 1.060355
0.000443 -1.135235 1.861103
0.124391 -1.287866 1.161328
0.076227 -1.092788 1.144126
0.054608 -1.005357 1.358581
0.198482 -1.179298 1.183579
0.165466 -1.081134 1.102745
0.140605 -1.007445 1.552754
0.200575 -0.957986 0.566506
0.324098 -1.250729 1.118658
0.283044 -1.153450 0.979721
0.255816 -1.089191 1.604625
0.217760 -0.999078 1.643586
0.370002 -1.130184 1.020956
0.338420 -1.068978 1.645277
0.292021 -0.978766 1.624683
0.539534 -1.215828 1.814400
0.623870 -1.000260 0.699268
0.831082 -1.237694 1.129454
0.841448 -1.249636 1.451414
0.919654 -1.171850 1.100917
0.866654 -1.119634 1.602307
0.936306 -1.025559 1.058731
0.943312 -1.031440 1.266045
0.877421 -0.976539 1.537229
1.030162 -0.951529 1.359676
1.042366 -0.960127 1.623883
0.880506 -0.846697 1.667959
0.653210 -0.606941 0.955598
1.077226 -0.858976 0.736723
1.179081 -0.919608 1.229549
0.945630 -0.780910 1.744370
0.778196 -0.588435 0.391476
1.167803 -0.778565 1.382399
1.188210 -0.788576 1.763988
1.131747 -0.653101 1.426175
1.212772 -0.685332 1.162397
1.163257 -0.665731 1.958153
1.087774 -0.538540 1.537526
1.188144 -0.570062 1.622040
1.094800 -0.540763 1.660180
1.066400 -0.531980 2.554079
1.233852 -0.468260 1.653043
1.145922 -0.448641 1.808416
1.164849 -0.452908 2.074550
1.002261 -0.416648 2.475756
1.236752 -0.359992 1.019845
1.155158 -0.348812 1.407514
1.181949 -0.352564 1.849583
1.266966 -0.264631 1.171596
1.280035 -0.265456 1.437350
1.300407 -0.170767 1.515339
1.303342 -0.063391 1.392193
1.105583 -0.082616 2.719421
1.322789 0.037668 1.710482
1.345330 0.041515 2.034449
1.290114 0.031904 2.548673
1.277401 0.136940 0.927866
1.384408 0.164635 1.188311
1.221049 0.122214 1.756036
1.070180 0.176485 0.851880
1.268100 0.245916 1.111128
1.368647 0.281186 1.255136
1.297638 0.256195 1.700454
1.318257 0.372697 0.362278
1.239259 0.337986 0.922159
1.268713 0.350792 1.596963
1.267289 0.350172 1.570973
1.215974 0.327584 2.194747
1.424677 0.419010 2.500623
1.417530 0.415891 2.416795
1.199237 0.436356 0.637024
1.206115 0.440042 0.903442
1.225320 0.450371 1.403368
1.256464 0.467164 1.961114
1.152987 0.411114 1.708454
1.268831 0.473838 2.142828
1.395850 0.542612 2.631299
1.162403 0.522563 0.562359
1.177480 0.532142 1.121169
1.176584 0.531572 1.095839
1.192313 0.541599 1.479311
1.132221 0.502970 1.928017
1.153764 0.516737 2.253687
1.110596 0.616619 0.312762
1.115333 0.620201 0.637709
1.206009 0.689809 1.075327
1.228674 0.707128 1.631378
1.160361 0.654591 1.845160
1.179828 0.669494 2.169235
1.290204 0.754243 2.599598
1.259323 0.730410 3.164969
1.066326 0.702198 0.661911
1.073917 0.708931 0.986068
1.078381 0.712898 1.134860
1.172238 0.796804 1.627744
1.096657 0.729165 1.607450
1.119298 0.749345 2.047656
1.069107 0.704351 2.438202
1.009717 0.651157 2.655302
1.000174 0.782929 0.302257
0.934525 0.713555 0.570470
1.015677 0.799129 1.126417
1.097458 0.885404 1.503270
1.027787 0.811843 1.482731
1.147558 0.938106 2.470493
1.161364 0.952642 2.676353
1.003237 0.934602 0.439405
0.884073 0.788153 0.885331
0.945455 0.863558 0.796839
1.033328 0.971290 1.640008
0.967053 0.889912 1.561169
1.106316 1.060877 1.870403
1.281979 1.276418 2.747945
1.202921 1.179379 2.502017
0.809561 0.849685 0.457703
0.872556 0.941562 0.898192
0.944945 1.047114 1.509631
0.954251 1.060636 1.773750
0.955462 1.062397 1.805306
1.025353 1.164376 2.119273
0.744579 0.911641 0.626850
0.849611 1.093063 0.945952
0.869787 1.127709 1.734926
0.911905 1.200568 1.471332
0.930390 1.232358 2.025035
0.881726 1.148248 2.065370
0.845508 1.085563 2.397241
0.774132 0.962051 2.975662
0.717477 1.073301 1.094242
0.758884 1.160567 1.006664
0.765086 1.173526 1.330589
0.731781 1.103230 1.718915
0.737937 1.116133 1.926946
0.807822 1.263129 2.648959
0.766587 1.176240 2.691884
0.648116 0.926564 2.931872
0.508898 0.633045 3.578902
0.663396 1.199889 0.436447
0.703351 1.303466 0.873484
0.707036 1.312930 1.138060
0.713994 1.330849 1.518407
0.681377 1.246093 1.673163
0.673905 1.226310 2.644617
0.693804 1.277782 3.149548
0.599227 1.385124 1.499170
0.598812 1.383713 1.473143
0.581286 1.323256 2.033837
0.530250 1.147912 2.256885
0.541789 1.187308 2.698105
0.542710 1.190455 2.730262
0.430403 0.804415 3.591762
0.530198 1.596397 0.940558
0.510705 1.504256 1.091759
0.492598 1.418581 1.359963
0.498939 1.448186 1.855479
0.504082 1.472250 2.176887
0.511180 1.505503 2.555289
0.471791 1.319452 2.664615
0.420006 1.074628 3.138177
0.393085 0.947136 3.698723
0.397660 1.550137 1.345549
0.396719 1.543270 1.203215
0.388189 1.479048 1.818166
0.390202 1.493834 2.022775
0.371772 1.355755 2.709834
0.355134 1.232021 2.459204
0.363721 1.295366 3.074150
0.244811 1.160773 0.941691
0.255404 1.376686 1.316044
0.261197 1.494432 1.632906
0.258372 1.434946 2.194195
0.252936 1.323975 2.059953
0.256924 1.403202 2.907203
0.256782 1.400380 2.881320
0.137193 1.496476 1.380790
0.135805 1.540062 2.049896
0.138963 1.447598 2.147933
0.138561 1.460057 2.296221
0.144724 1.279772 2.521288
0.012927 1.601054 1.360660
0.021855 1.520343 1.687430
0.017423 1.561325 2.240138
0.028561 1.460091 2.222539
0.031745 1.432107 2.961230
0.043624 1.324067 2.887795
-0.096895 1.494563 1.280269
-0.099547 1.508504 1.544432
-0.084557 1.431047 1.873403
-0.071262 1.362423 2.262778
-0.054862 1.277530 2.420851
-0.043071 1.216703 2.813473
-0.232779 1.574125 1.154033
-0.239621 1.599582 1.646999
-0.214956 1.508820 1.742398
-0.197288 1.444010 2.186939
-0.206177 1.476943 2.566308
-0.154801 1.287810 2.617125
-0.328618 1.452872 1.099558
-0.304313 1.386303 1.658630
-0.311848 1.407146 1.980518
-0.319014 1.426950 2.244079
-0.300902 1.377377 2.749593
-0.281304 1.323675 3.141320
-0.511504 1.558711 1.982465
-0.489561 1.511303 2.541751
-0.442307 1.408758 2.408864
-0.348092 1.204644 3.144140
-0.553988 1.387856 2.598013
-0.480293 1.255006 3.059347
-0.684119 1.383446 2.014864
-0.598062 1.252628 2.528687
-0.902871 1.457203 1.602556
-0.804376 1.331622 2.171465
-0.675585 1.167456 3.103525
-1.075034 1.434931 1.215071
-0.968902 1.320702 1.948909
-0.839610 1.181388 2.086240
-0.813656 1.153558 2.766857
-1.194417 1.368206 1.640500
-1.042035 1.226392 1.511292
-1.016286 1.202602 2.390080
-0.902253 1.096584 2.847032
-0.822884 1.022718 2.772675
-1.152848 1.145669 1.768693
-1.040469 1.057436 2.484312
-0.978069 1.008410 2.700064
-0.922120 0.964468 2.975523
-1.098750 0.965078 2.246800
-1.045186 0.929145 2.636435
-0.795227 0.761154 2.639449
-1.198873 0.883189 1.087327
-1.227171 0.899056 1.699419
-1.148739 0.855377 1.854564
-1.091766 0.823703 2.302145
-0.962871 0.751969 2.853972
-1.167991 0.734612 0.806320
-1.356596 0.819965 1.005560
-1.271119 0.781320 1.157536
-1.197886 0.748251 1.543251
-1.150542 0.726938 2.222952
-1.157590 0.730141 2.313522
-1.224342 0.647034 0.956412
-1.413201 0.715987 0.981187
-1.350895 0.693341 1.654626
-1.278037 0.666792 1.983695
-1.186661 0.633438 2.023518
-1.267497 0.552722 0.898426
-1.460972 0.607292 0.924314
-1.386184 0.586273 1.424479
-1.285860 0.557967 1.346496
-1.235432 0.543852 2.084772
-1.401734 0.464280 0.725299
-1.520522 0.487482 1.273597
-1.418570 0.467625 1.193770
-1.340149 0.452414 1.578685
-1.258990 0.436655 1.849489
-1.532685 0.369149 0.747124
-1.434339 0.357606 0.781948
-1.360351 0.349006 1.398987
-1.395338 0.353193 1.954196
-1.569924 0.242420 1.090406
-1.479486 0.239318 1.301099
-1.381308 0.235923 1.338770
-1.299937 0.233152 1.668543
-1.217265 0.230479 3.012248
-1.571495 0.113816 0.714843
-1.504908 0.117075 1.503923
-1.391690 0.122391 1.251499
-1.305874 0.126486 1.522636
-0.981678 0.141952 2.532951
-1.591861 -0.005687 1.168246
-1.491559 0.006599 1.146666
-1.393806 0.018582 1.183082
-1.317914 0.027944 1.628423
-1.023543 0.064189 2.874067
-1.570541 -0.134563 0.739449
-1.485951 -0.116924 1.122659
-1.424632 -0.104080 1.799177
-1.307629 -0.079804 1.488432
-1.562558 -0.254240 0.950720
-1.371633 -0.199275 0.990065
-1.286502 -0.174730 1.259663
-1.317618 -0.183605 1.817134
-1.448645 -0.347140 1.101596
-1.361463 -0.314132 1.255136
-1.277975 -0.282513 1.466084
-1.223180 -0.261688 2.088263
-1.407196 -0.462596 0.878241
-1.233821 -0.379921 1.093329
-1.250649 -0.387882 1.476802
-1.100015 -0.316000 1.991460
-1.202446 -0.472092 1.112954
-1.138255 -0.435245 1.620138
-1.177250 -0.457478 2.239524
-1.161066 -0.572136 1.173193
-1.107379 -0.535018 1.796980
-1.053017 -0.497464 2.248362
-1.127514 -0.669017 1.506218
-1.065785 -0.619099 1.837005
-0.996558 -0.563158 1.993755
-0.998255 -0.680046 1.430406
-0.958405 -0.642469 2.114430
-0.926691 -0.748424 1.071350
-0.881467 -0.698060 1.696029
-0.836117 -0.647593 2.147639
-0.862735 -0.824284 1.121283
-0.820232 -0.768245 1.686844
-0.776296 -0.710360 2.079029
-0.852573 -0.969146 1.088309
-0.801818 -0.890850 1.242663
-0.751549 -0.813302 1.398094
-0.709809 -0.748845 1.790631
-0.768525 -1.015455 0.514863
-0.735308 -0.954370 1.370885
-0.730666 -0.945929 1.169380
-0.690690 -0.872622 1.501026
-0.519070 -0.708150 0.412675
-0.687005 -1.087145 0.964613
-0.648940 -1.001144 1.117848
-0.620515 -0.936764 1.683858
-0.558837 -0.797274 2.326790
-0.571155 -1.045217 1.069289
-0.606833 -1.145485 1.216087
-0.538611 -0.953672 1.139758
-0.511658 -0.877711 1.530619
-0.473657 -0.770380 2.648847
-0.503649 -1.169902 0.525824
-0.486081 -1.102987 1.381874
-0.491947 -1.124961 1.766330
-0.469124 -1.038557 1.923534
-0.385378 -0.721361 2.767341
-0.388194 -1.117582 0.845005
-0.375028 -1.042574 1.409583
-0.376493 -1.050746 1.558915
-0.378101 -1.059732 1.708199
0.750315 0.892318 0.706172
0.974247 1.183478 1.074386
0.929682 1.125507 1.417055
0.852020 1.024479 2.090817
1.013685 1.234673 2.452776
0.836403 1.004125 2.817662
0.733840 0.870739 3.172895
0.769777 0.917461 3.283471
0.581024 0.671994 3.726605
0.838420 1.211404 1.182812
0.818558 1.180474 1.250120
0.875937 1.269783 1.686470
0.777992 1.117240 2.254729
0.761968 1.092269 2.538263
0.694029 0.986434 3.265079
0.734757 1.049860 3.103618
0.510421 0.700516 3.775878
0.856396 1.543035 1.483512
0.773005 1.382028 1.398333
0.618770 1.084190 1.817345
0.632398 1.110453 2.421752
0.658264 1.160385 2.533577
0.544272 0.940222 3.286100
0.386419 0.635368 4.061621
0.487773 1.041068 1.361037
0.552130 1.195844 1.901803
0.640866 1.409326 1.890636
0.538590 1.163195 2.640135
0.552997 1.197816 3.023397
0.434484 0.912655 3.451919
0.480855 1.337536 1.917921
0.507754 1.421637 2.405070
0.436657 1.199121 2.881593
0.377652 1.014444 3.294661
0.336255 1.251789 2.162286
0.311124 1.140944 2.845578
0.322636 1.191561 3.442696
0.252115 1.450734 1.819706
0.251327 1.444970 2.048037
0.231394 1.300747 2.787958
0.213354 1.170254 3.300972
0.126499 1.410381 2.593388
0.123637 1.356705 2.933037
0.107044 1.046658 3.360942
0.004784 1.442140 2.316658
0.009896 1.283184 3.099817
0.012627 1.197967 3.282574
-0.128038 1.534635 2.124108
-0.110748 1.386697 2.418547
-0.084233 1.159832 2.886895
-0.092090 1.227212 3.212178
-0.254468 1.437270 2.281999
-0.223768 1.293353 2.577336
-0.205268 1.206625 2.759453
-0.194578 1.156553 3.099871
-0.431604 1.599053 1.899655
-0.329581 1.262591 2.592973
-0.296533 1.153634 3.060814
-0.260842 1.035898 3.087625
-0.566866 1.592163 1.835333
-0.458115 1.313576 2.195907
-0.414632 1.202198 2.434277
-0.414785 1.202613 2.660040
-0.366331 1.078528 3.172221
-0.711078 1.532300 1.836874
-0.655773 1.421970 2.073651
-0.561429 1.233742 2.266546
-0.482691 1.076664 2.621171
-0.495710 1.102656 2.790613
-0.496999 1.105248 3.016851
-0.790553 1.387725 1.797317
-0.803177 1.408342 1.966708
-0.785148 1.378920 2.033189
-0.660186 1.174966 2.281934
-0.677215 1.202790 2.666185
-0.560243 1.011895 3.134461
-0.820544 1.198415 2.075799
-0.800297 1.170962 2.142491
-0.729038 1.074344 2.380616
-0.625984 0.934617 2.734879
-0.493909 0.755542 3.207478
-0.885712 1.084478 2.178096
-0.865418 1.061411 2.461988
-0.632087 0.796024 2.729863
-0.646934 0.812909 2.683126
-0.471829 0.613783 3.491273
-0.878447 0.912157 2.445016
-0.895045 0.928058 2.398721
-0.789509 0.826952 2.696650
-0.627960 0.672185 3.170059
-0.481840 0.532186 3.372736
-1.147428 0.991915 2.169518
-1.098077 0.952070 2.294438
-0.891560 0.785323 2.604338
-0.537268 0.499269 3.338254
-1.139005 0.829061 2.383152
-1.036292 0.759830 2.407440
-0.748437 0.565831 2.894319
-0.721091 0.547402 2.964366
-0.495985 0.395703 3.560111
-1.252918 0.754275 2.056253
-1.171643 0.709128 2.238680
-1.013190 0.621100 2.377281
-0.764495 0.482956 2.966634
-0.665393 0.427907 3.211231
-0.454929 0.310978 3.257458
-1.235876 0.611734 2.219962
-1.019410 0.514366 2.471617
-0.912663 0.466355 2.712247
-0.750382 0.393358 2.853198
-0.597880 0.324770 3.213499
-1.376443 0.538030 2.026282
-1.154039 0.459825 2.493815
-1.145056 0.456657 2.288264
-0.823575 0.343614 2.992045
-0.656624 0.284899 3.136005
-1.048335 0.323036 1.675204
-1.216528 0.366461 2.213043
-1.270079 0.380285 2.325671
-1.095548 0.335251 2.463749
-0.807320 0.260877 2.618309
-0.538239 0.191462 3.212653
-1.336695 0.267091 2.251385
-1.243545 0.252067 2.216399
-1.037027 0.218768 2.411904
-0.804286 0.181243 2.668341
-0.636641 0.154221 3.029195
-1.102130 0.132982 1.649989
-1.274622 0.145838 2.188441
-1.183164 0.139040 2.371446
-0.886463 0.116978 2.754173
-1.307806 0.047771 1.276187
-1.414095 0.047549 1.930378
-1.352280 0.047706 2.271228
-1.059040 0.048404 2.639134
-0.852910 0.048893 2.838197
-0.820535 0.048971 2.906872
-1.001962 -0.045582 1.639368
-1.231571 -0.067714 2.065083
-1.025195 -0.047790 2.480277
-0.958137 -0.041325 2.390560
-0.874318 -0.033224 2.794580
-0.615564 -0.008251 3.115120
0.079012 0.058774 3.704644
-1.222667 -0.171601 1.843772
-1.015836 -0.133813 2.257846
-0.986701 -0.128481 2.544440
-0.595016 -0.056927 3.154343
-0.358131 -0.013665 3.200987
0.259492 0.099154 3.895549
-0.980275 -0.213395 1.638916
-1.147416 -0.258739 2.178116
-0.944871 -0.203756 2.375169
-0.776857 -0.158138 2.734815
-0.639618 -0.120876 3.038125
-0.366725 -0.046791 3.420484
-0.030238 0.044551 3.720827
0.225910 0.114080 3.835177
-0.890450 -0.272446 1.560985
-1.107004 -0.351854 1.985997
-1.130978 -0.360639 2.156567
-0.991511 -0.309475 2.454994
-0.744441 -0.218845 2.770361
-0.586218 -0.160798 3.132090
-0.471068 -0.118563 3.160014
0.042202 0.069709 3.656201
0.315416 0.169922 3.831258
-1.203646 -0.505096 1.493925
-1.115832 -0.464137 1.894425
-1.004783 -0.412353 2.134923
-0.788532 -0.311518 2.390516
-0.713072 -0.276319 2.794071
-0.420265 -0.139794 3.013760
0.152274 0.127173 3.701846
-1.027799 -0.532933 1.559139
-0.996418 -0.514848 2.064681
-0.866583 -0.440104 2.364308
-0.739695 -0.367056 2.665610
-0.639428 -0.309333 2.910027
-0.347022 -0.141006 3.409377
0.192127 0.169350 4.104364
-0.901093 -0.568393 1.736042
-1.017545 -0.649860 1.896668
-0.916798 -0.579362 2.138077
-0.697671 -0.426037 2.452837
-0.527111 -0.306697 2.654853
-0.454557 -0.255926 2.842771
-0.189626 -0.070560 3.067050
0.310414 0.279330 3.975845
-0.797618 -0.596045 1.225173
-0.902136 -0.682762 2.045336
-0.808492 -0.605018 2.287661
-0.604005 -0.435259 2.604155
-0.535846 -0.378673 2.790446
-0.427005 -0.288309 3.095073
-0.686779 -0.608924 1.586598
-0.871881 -0.792310 1.953659
-0.847349 -0.767999 2.021278
-0.572706 -0.495855 2.347907
-0.454616 -0.378815 2.928443
-0.393445 -0.318195 3.115330
-0.147108 -0.074100 3.399833
-0.744321 -0.791524 1.267256
-0.679494 -0.715728 2.109829
-0.771908 -0.823710 2.050284
-0.465270 -0.465397 2.553571
-0.430416 -0.424652 2.900680
-0.433215 -0.427909 3.129797
-0.578762 -0.730521 1.776730
-0.661960 -0.848170 2.155202
-0.658756 -0.843638 2.166246
-0.472106 -0.579615 2.597766
-0.373295 -0.439835 2.960583
-0.239981 -0.251261 3.225532
-0.685066 -1.068236 1.777507
-0.578288 -0.886033 2.190823
-0.472178 -0.704986 2.389152
-0.440813 -0.651464 2.516595
-0.321896 -0.448562 2.777458
-0.204239 -0.247810 3.041993
-0.533088 -0.997871 1.395434
-0.529238 -0.989754 2.063106
-0.476944 -0.880279 2.305061
-0.350529 -0.615654 2.679740
-0.238057 -0.380218 3.001299
-0.208406 -0.318164 2.911617
-0.389530 -0.889115 1.271988
-0.490481 -1.156839 1.586057
-0.425228 -0.983724 1.942308
-0.321560 -0.708694 2.533914
-0.297832 -0.645769 2.443331
-0.236683 -0.483542 2.806886
-0.314723 -0.926364 1.905417
-0.305528 -0.893796 2.194469
-0.265007 -0.750417 2.497460
-0.240505 -0.663722 2.684996
-0.172211 -0.422068 3.226410
-0.250538 -1.029820 2.187214
-0.260426 -1.081077 2.083583
-0.198854 -0.761947 2.514772
-0.143788 -0.476530 2.894338
-0.122193 -0.364583 3.142676
-0.153844 -0.978345 1.881897
-0.156450 -1.003111 2.053553
-0.140818 -0.854109 2.354157
-0.101672 -0.481060 2.907467
-0.087052 -0.341694 3.213953
-0.063300 -1.010597 1.838504
-0.061136 -0.833165 2.415982
-0.061073 -0.828057 2.426444
-0.057162 -0.509264 2.862563
-0.056767 -0.476956 2.932121
-0.002991 -0.756389 1.464274
0.013402 -1.015270 1.833082
0.002177 -0.838508 2.409614
-0.030543 -0.322785 3.277896
0.127778 -1.129761 1.598697
0.122048 -1.093718 1.885987
0.084721 -0.858573 2.360064
0.144618 -0.795850 1.579749
0.192818 -0.990627 1.845055
0.156135 -0.842470 2.146651
0.197595 -0.740148 1.662680
0.271714 -0.958491 1.870367
0.204034 -0.759188 2.289548
0.369195 -0.968132 2.012231
0.252510 -0.702236 2.833305
0.454927 -0.781680 2.275388
0.260050 -0.486421 2.778607
0.607505 -0.850512 2.216539
0.799838 -0.924681 1.867076
0.905062 -0.877831 2.011344
1.099469 -0.889963 1.715013
0.881714 -0.726312 2.023751
0.916595 -0.634617 2.077957
0.770768 -0.543227 2.652151
1.031485 -0.574874 1.948271
0.925108 -0.521475 2.407620
1.031881 -0.478054 2.255856
0.759940 -0.366570 2.628085
0.871232 -0.318896 2.454434
0.914985 -0.087301 2.472114
1.167857 0.000355 1.116550
1.264727 0.004569 2.003736
0.896808 0.065091 0.568994
1.125210 0.094680 1.399483
0.964357 0.073789 2.149190
1.056239 0.085687 2.640036
1.310392 0.233555 1.234878
1.357264 0.243756 1.568316
0.999640 0.165783 2.506927
1.028916 0.263718 0.482754
1.108849 0.288297 1.368454
1.327331 0.355572 1.577451
1.259700 0.334721 2.147984
1.261964 0.335400 2.591185
1.323094 0.354213 2.917657
1.061410 0.373696 0.574266
1.283919 0.463494 1.172424
1.188157 0.424811 1.791380
1.289999 0.465904 2.234668
1.319509 0.477801 2.619200
0.841641 0.377081 0.324392
1.022973 0.470607 0.984563
1.356790 0.642826 1.131561
1.238192 0.581618 1.589039
1.179962 0.551551 2.149771
1.261499 0.593597 2.637900
1.311582 0.619431 2.750321
1.004174 0.460809 3.246014
1.042597 0.593940 0.850460
1.124341 0.645179 1.510907
1.168628 0.672950 1.625828
1.238758 0.716912 2.117138
1.344877 0.783440 2.761139
1.240799 0.718162 2.784991
0.969486 0.664449 0.894895
1.047729 0.723169 1.554731
0.996949 0.685043 1.461053
1.324729 0.931115 2.633398
1.110209 0.770029 2.726145
0.973853 0.800175 0.538246
0.948308 0.777355 1.429895
1.098495 0.911249 1.477726
1.224568 1.023620 2.015290
1.203302 1.004634 2.512681
1.023512 0.844344 2.548308
0.933289 0.913429 1.281325
0.986300 0.969487 1.775120
1.165248 1.158805 1.924348
1.102901 1.092820 2.319576
0.925850 0.905471 2.842242
0.917280 0.896377 3.337951
0.707963 0.825517 0.847209
0.973433 1.166036 1.099641
0.927090 1.106554 1.659868
0.870205 1.033545 2.275243
0.994322 1.192755 2.319133
0.891128 1.060346 2.885574
0.876877 1.042048 3.167372
0.799825 1.114394 1.369863
0.860415 1.205765 1.588804
0.856580 1.199950 2.033163
0.825588 1.153165 2.588938
0.826252 1.154152 2.814346
0.813021 1.134175 3.096080
0.460467 0.602355 4.027399
0.778360 1.313472 1.085461
0.686369 1.145721 1.437210
0.599733 0.987665 2.671479
0.670617 1.116890 2.826152
0.641892 1.064507 2.950972
0.580437 0.952419 3.463219
0.377021 0.581504 3.925919
0.679316 1.438359 1.385072
0.628523 1.321238 1.622991
0.579008 1.207086 1.644344
0.532635 1.100069 2.763039
0.516340 1.062450 3.318927
0.546074 1.131012 3.157984
0.401473 0.797598 3.716165
0.531579 1.424891 1.514741
0.453675 1.192589 1.981812
0.491043 1.303937 2.414093
0.448210 1.176154 3.152164
0.396118 1.020818 3.508243
0.392297 1.395350 2.081576
0.379304 1.341930 2.637232
0.393398 1.399726 2.973095
0.345260 1.202109 3.169176
0.251897 1.279532 2.146643
0.220161 1.076819 2.558914
0.262250 1.345435 2.915428
0.253075 1.286830 3.039923
0.139664 1.277171 2.407887
0.133580 1.189310 2.815958
0.137180 1.240833 3.412238
0.016894 1.460290 2.060251
0.019630 1.343417 2.514388
0.018173 1.406618 2.840600
0.025170 1.106907 3.481224
-0.087544 1.282021 2.407440
-0.103200 1.426787 2.564030
-0.094435 1.345919 2.960464
-0.058254 1.011677 3.446272
-0.215201 1.366875 2.659280
-0.210228 1.341478 2.942401
-0.165944 1.114856 3.197857
-0.339540 1.378594 2.139599
-0.293104 1.215572 2.935522
-0.254745 1.080857 3.233858
-0.470224 1.387969 2.270451
-0.488727 1.436914 2.167524
-0.406865 1.220400 2.860125
-0.366574 1.113825 3.100320
-0.626518 1.420679 2.099316
-0.611860 1.390194 2.165308
-0.535457 1.231289 2.516172
-0.413960 0.978599 3.099800
-0.416668 0.984253 3.324410
-0.776956 1.414991 1.980174
-0.713997 1.308431 2.001652
-0.622780 1.154070 2.354476
-0.535144 1.005787 2.936560
-0.390611 0.761189 3.310559
-0.907509 1.365634 1.931405
-0.819600 1.241873 2.226060
-0.698144 1.070870 2.420857
-0.633698 0.980157 2.877910
-0.583370 0.909305 3.061706
-0.898353 1.118284 2.110913
-0.822517 1.030477 2.565276
-0.837617 1.047964 2.518403
-0.743190 0.938616 2.815060
-0.609424 0.783701 3.013170
-0.866047 0.917555 2.454414
-0.902712 0.953385 2.351349
-0.679402 0.735168 2.995538
-0.675532 0.731386 3.007066
-1.068016 0.963349 2.103355
-0.824652 0.758999 2.743428
-0.868754 0.796043 2.854558
-0.823106 0.757714 2.979969
-0.456152 0.449567 3.546593
-1.094985 0.818440 2.243583
-1.114375 0.831836 2.197020
-0.942031 0.712758 2.391645
-0.656687 0.515612 2.879346
-0.630050 0.497209 2.948299
-1.166472 0.727011 2.228875
-1.013664 0.639467 2.583022
-1.009098 0.636851 2.593791
-0.766794 0.498036 3.182076
-0.523346 0.358556 3.560340
-1.188034 0.607867 2.308261
-1.055042 0.546111 2.604562
-1.025330 0.532314 2.671928
-0.814015 0.434179 2.927632
-0.711629 0.386635 3.170241
-1.284324 0.524895 2.203256
-1.171809 0.483666 2.442331
-0.950653 0.402619 2.696669
-0.706217 0.313041 3.013003
-0.676142 0.302021 3.082117
-1.235155 0.390363 2.163850
-1.261279 0.397511 2.332368
-0.899805 0.298721 2.873481
-0.888541 0.295633 2.665743
-0.621472 0.222651 3.258122
-1.414753 0.297481 2.088909
-1.352103 0.286598 2.213725
-1.089796 0.241025 2.524023
-0.804016 0.191375 2.897316
-0.575989 0.151757 3.158932
-1.480578 0.181903 1.999434
-1.156184 0.153249 2.421957
-0.893599 0.130054 2.735568
-0.888527 0.129606 2.746231
-1.234228 0.053807 1.412643
-1.402339 0.054234 1.952631
-1.219832 0.053798 2.089508
-0.786288 0.052786 2.979503
-1.104871 -0.038370 1.444036
-1.186235 -0.044924 2.156567
-1.209766 -0.046829 2.109908
-0.886734 -0.020684 2.538353
-0.770255 -0.011254 2.782215
-0.602221 0.002351 3.144478
-1.157670 -0.141169 1.330032
-1.235269 -0.154057 2.042685
-1.031166 -0.120068 2.456122
-0.965562 -0.109152 2.364760
-0.855622 -0.090835 2.825245
-0.600283 -0.048322 3.144478
0.084454 0.065674 3.727702
-1.050000 -0.226218 1.290465
-1.239536 -0.276516 1.993444
-1.066159 -0.230466 2.349250
-0.783374 -0.155365 2.722516
-0.751484 -0.146894 2.792019
-0.309326 -0.029470 3.308502
0.221844 0.111590 3.823583
-1.034184 -0.307936 1.709670
-1.060153 -0.316995 2.317500
-0.863142 -0.248066 2.515433
-0.884930 -0.255690 2.468033
-0.695957 -0.189563 2.886497
-0.266058 -0.039148 3.404127
0.250421 0.141557 3.919713
-1.140679 -0.454125 1.426982
-1.051992 -0.414462 2.046686
-1.022867 -0.401434 2.333035
-0.888772 -0.341490 2.633128
-0.700189 -0.257199 2.833990
-0.390779 -0.118895 3.332611
0.201919 0.146028 4.087090
-1.057860 -0.539386 1.290518
-1.099939 -0.563129 2.060602
-1.120740 -0.574885 2.013806
-0.788122 -0.386910 2.556969
-0.662655 -0.316000 2.859096
-0.555538 -0.255470 2.886000
-0.261469 -0.089279 3.387173
0.152597 0.144722 3.990150
0.353844 0.258430 3.764661
-0.929280 -0.572054 1.471058
-0.996098 -0.617587 1.965559
-0.730747 -0.436643 2.612399
-0.612197 -0.355803 2.914826
-0.488091 -0.271185 3.000783
-0.297785 -0.141424 3.265612
-0.096740 -0.004327 3.823865
0.101224 0.130645 3.877545
-0.880283 -0.648930 1.466553
-0.875073 -0.644668 2.133346
-0.781720 -0.568895 2.374716
-0.690078 -0.494512 2.617173
-0.600155 -0.421523 2.860694
0.087239 0.136380 3.869054
-0.916187 -0.812089 1.433480
-0.825018 -0.724219 2.111723
-0.737973 -0.640345 2.353901
-0.607964 -0.515085 2.495410
-0.398672 -0.313430 2.874074
0.058146 0.126739 4.072405
-0.721505 -0.746762 1.357450
-0.890852 -0.940123 1.727418
-0.616254 -0.626516 2.327358
-0.534739 -0.533430 2.352469
-0.419864 -0.402230 2.714974
-0.421914 -0.404556 2.944052
-0.252392 -0.210955 3.267235
-0.643810 -0.803052 1.374606
-0.759999 -0.963595 1.858112
-0.637220 -0.793885 2.271170
-0.501958 -0.606920 2.745750
-0.413779 -0.485051 2.830069
-0.246508 -0.253854 3.211174
-0.630942 -0.949619 1.809039
-0.613326 -0.920330 2.095513
-0.580672 -0.866071 2.221503
-0.385852 -0.542370 2.770302
-0.322322 -0.436823 2.797228
-0.461468 -0.823885 1.321566
-0.509219 -0.921004 1.980190
-0.480953 -0.863469 2.106889
-0.402540 -0.703860 2.466493
-0.378328 -0.654556 2.812544
-0.299801 -0.494734 2.957139
-0.351366 -0.760223 1.524687
-0.478178 -1.084997 1.938844
-0.401182 -0.887758 2.135162
-0.336702 -0.722559 2.494727
-0.231055 -0.451912 2.873153
-0.219239 -0.421639 2.943184
-0.178100 -0.316239 3.190802
-0.331872 -0.943827 1.006062
-0.369011 -1.069431 1.609491
-0.350353 -1.006240 1.954481
-0.308720 -0.865274 2.473021
-0.241982 -0.639383 2.732093
-0.209380 -0.529016 2.977808
-0.235689 -0.907476 1.548750
-0.257962 -1.017342 1.985830
-0.245336 -0.954985 2.111638
-0.193396 -0.698477 2.645474
-0.170464 -0.585222 2.890129
-0.128061 -0.375893 2.875080
-0.190472 -1.207433 1.651010
-0.166084 -0.995899 2.064622
-0.139208 -0.762779 2.539840
-0.115484 -0.557069 2.741613
-0.111748 -0.524661 2.811025
-0.079341 -0.980065 2.117066
-0.079216 -0.975749 2.125660
-0.072320 -0.737979 2.380762
-0.064922 -0.482556 2.917834
-0.059805 -0.306164 3.062397
-0.009103 -0.737336 1.500783
0.015635 -1.173776 1.743882
0.010228 -1.078551 1.928785
-0.003457 -0.837370 2.185750
-0.021398 -0.521426 2.842311
-0.027901 -0.406911 3.090891
0.060829 -0.780203 1.200325
0.126735 -1.238731 1.607549
0.104684 -1.085430 1.905580
0.062764 -0.794020 2.496093
0.231151 -1.221155 1.612028
0.182844 -1.013025 2.025550
0.142438 -0.838942 2.384151
0.325567 -1.169679 1.666701
0.259885 -0.967027 2.081118
0.213720 -0.824591 2.382333
0.307327 -0.858305 1.816400
0.271505 -0.773533 2.221238
0.235952 -0.689375 2.407242
0.373984 -0.804381 2.310559
0.304503 -0.674945 2.612599
0.497330 -0.870810 2.078180
0.416729 -0.744982 2.378697
0.308045 -0.575316 2.798002
0.334345 -0.517560 2.875910
0.635310 -0.768281 2.313650
0.862469 -0.853462 1.885008
0.943977 -0.654421 2.011388
0.740903 -0.449896 1.904463
0.635663 -0.394185 2.367526
1.111498 -0.514792 1.862593
1.053713 -0.490904 2.205514
1.074810 -0.396345 2.239219
0.902411 -0.341340 2.378790
1.187840 -0.309528 2.076733
0.981547 -0.264817 2.273880
1.267369 0.220334 1.317531
1.321974 0.232071 1.214349
1.013039 0.165667 1.811401
1.075088 0.178969 2.577831
0.938367 0.229603 0.449806
1.234836 0.318893 0.715169
1.151454 0.293745 1.501207
1.279552 0.332314 1.892425
1.168892 0.298954 2.566649
1.293308 0.456694 0.953049
1.246615 0.438203 1.677378
0.967422 0.327776 2.719473
1.245443 0.575824 0.746965
1.195953 0.550647 1.472705
0.950744 0.426043 1.781605
1.237481 0.571694 2.701395
0.852626 0.376131 3.143995
0.737539 0.395390 0.475832
1.177834 0.667044 0.779958
1.288633 0.735390 1.163725
1.074175 0.603036 1.849149
1.047891 0.586796 2.351928
1.224147 0.695536 2.609853
1.148780 0.649025 2.791531
0.929097 0.621382 1.209167
1.087453 0.738036 1.477171
1.128247 0.768064 2.027473
1.079059 0.731808 2.369667
1.078355 0.731279 2.596994
0.845589 0.559773 2.967746
0.906023 0.726306 0.714483
1.093506 0.890556 1.089798
1.039281 0.843027 1.432301
1.188472 0.973721 1.913218
1.254726 1.031748 2.399120
0.885411 0.708130 2.948252
0.959876 0.921963 1.026647
0.989247 0.952383 1.579233
1.005993 0.969710 2.183884
1.148543 1.117485 2.442836
1.043608 1.008689 2.521801
0.848750 0.806637 3.103913
0.821650 0.936858 0.973476
0.886164 1.016741 1.412669
1.029014 1.193657 1.837542
1.007677 1.167211 2.120123
0.917313 1.055249 2.629663
0.901267 1.035356 2.911417
0.648551 0.909170 0.794299
0.798360 1.140749 1.331549
0.824995 1.181906 1.664091
0.869714 1.251025 1.937805
0.902170 1.301166 2.481062
0.749173 1.064579 3.060476
0.731846 1.037784 3.128221
0.649667 1.077321 0.746045
0.724372 1.213292 1.293264
0.719591 1.204569 1.522888
0.672848 1.119433 1.923245
0.731069 1.225383 2.571368
0.718162 1.201860 2.854400
0.555235 0.905181 3.339516
0.543842 0.884414 3.634721
0.604092 1.241963 1.143010
0.635352 1.312713 1.419720
0.643504 1.331134 1.808164
0.643675 1.331457 2.466510
0.585030 1.198649 2.761841
0.597174 1.226127 2.929916
0.529900 1.073779 3.283920
0.326935 0.614179 3.919518
0.517680 1.403965 1.349363
0.533133 1.450667 1.680935
0.400180 1.048408 2.511648
0.405895 1.065613 3.169523
0.394742 1.322200 1.145237
0.398395 1.336183 1.970218
0.434354 1.475076 2.128537
0.413951 1.396160 2.738547
0.337192 1.099520 3.386982
0.270725 0.842652 3.984657
0.244191 1.192142 1.447377
0.303488 1.558891 1.814331
0.261528 1.299125 2.551656
0.279574 1.410768 2.548468
0.249407 1.223988 3.172535
0.235971 1.140827 3.354404
0.156219 0.647292 3.989514
0.159375 1.441360 1.435048
0.169781 1.579524 1.813447
0.165241 1.518879 2.368729
0.158472 1.428782 2.549802
0.156477 1.402113 2.832144
0.139903 1.181496 3.300523
0.034281 1.468206 2.487154
0.035852 1.331007 2.997724
0.038634 1.086570 3.525361
-0.088237 1.432476 1.891237
-0.079753 1.345497 2.505688
-0.058170 1.123861 3.201681
-0.069039 1.235618 3.197392
-0.204173 1.402296 1.926152
-0.157724 1.147931 2.895656
-0.160313 1.162217 3.336438
-0.349589 1.475781 2.169740
-0.417019 1.286745 2.953327
-0.396678 1.231215 3.077908
-0.277534 0.905896 3.349731
-0.569255 1.341097 2.510694
-0.467392 1.122661 2.547142
-0.456133 1.098543 2.831215
-0.450636 1.086800 3.329253
-0.785977 1.444265 1.922584
-0.709378 1.313348 2.216743
-0.518470 0.987048 2.755579
-0.606770 1.137996 2.853418
-0.468543 0.901754 3.439947
-0.905552 1.375494 1.917732
-0.767144 1.178782 2.165854
-0.665371 1.034148 2.519352
-0.602621 0.944987 2.975694
-0.599746 0.940902 2.986270
-1.002209 1.271184 1.971564
-0.904954 1.155514 2.266010
-0.827990 1.063977 2.505019
-0.643460 0.844507 3.101604
-0.961782 1.036536 2.150945
-0.937351 1.012039 2.219071
-0.872660 0.947174 2.401627
-0.793990 0.868307 2.858150
-0.611383 0.685198 3.173460
-1.180259 1.067164 1.808586
-1.063567 0.968259 2.103355
-0.820816 0.762510 2.744328
-0.801966 0.746545 3.029042
-0.627088 0.598313 3.286021
-1.216868 0.911915 1.943565
-1.116766 0.842012 2.181212
-0.898443 0.689544 2.490504
-0.734651 0.575167 2.905421
-0.629320 0.501626 3.422928
-1.183418 0.744585 2.182103
-1.204101 0.756568 2.135151
-1.100070 0.696292 2.373466
-0.885937 0.572233 3.116714
-0.733867 0.484112 3.258768
-0.514667 0.357097 3.578445
-1.244374 0.657356 2.164073
-1.136138 0.605102 2.402968
-0.880916 0.481886 2.988984
-0.680031 0.384904 3.475091
-1.271120 0.527353 2.225532
-1.266157 0.525506 2.236005
-0.920092 0.396739 2.993504
-0.674931 0.305508 3.321819
-1.331863 0.425099 2.182325
-1.241082 0.399722 2.147090
-0.989647 0.329460 2.674550
-0.898176 0.303890 2.641280
-0.760495 0.265417 2.942151
-1.504092 0.337531 1.903476
-1.242335 0.287818 2.427119
-1.121047 0.264775 2.451163
-0.950893 0.232460 2.808524
-0.811887 0.206061 3.109947
-0.575493 0.161148 3.154573
-1.197125 0.174271 1.460829
-1.307539 0.185657 2.114034
-1.362243 0.191290 2.226646
-0.986769 0.152678 2.767371
-0.892068 0.142933 2.734661
-0.697172 0.122896 3.153141
-1.174556 0.071016 1.523204
-1.376635 0.074515 2.220631
-1.282562 0.072897 2.185087
-0.876889 0.065951 2.785270
-0.880589 0.066024 3.012019
-0.640472 0.061901 3.054386
-1.235957 -0.043283 1.410179
-1.433312 -0.058315 1.892571
-1.311112 -0.048986 2.131006
-1.044934 -0.028675 2.441454
-0.763365 -0.007179 3.032611
-0.416842 0.019259 3.312742
-1.517997 -0.194681 1.924735
-1.139149 -0.133218 2.461277
-0.874395 -0.090267 2.785951
-0.671849 -0.057409 2.987538
-1.147591 -0.236257 1.319926
-1.281419 -0.269887 2.135920
-1.164293 -0.240416 2.376383
-0.957367 -0.188367 2.356615
-0.700535 -0.123751 2.673571
-0.535425 -0.082205 3.037101
-1.091915 -0.321063 2.254057
-0.952145 -0.273070 2.553710
-0.730067 -0.196824 2.812316
-0.621814 -0.159653 3.057593
0.320969 0.164032 4.099079
-1.150879 -0.451738 1.624347
-1.253249 -0.496852 1.841990
-0.982508 -0.377488 2.426790
-0.900315 -0.341251 2.610943
-0.661600 -0.236015 2.926938
-0.632575 -0.223218 2.995089
-0.373837 -0.109154 3.375607
0.098899 0.099241 3.813890
-0.876367 -0.421587 1.698160
-1.029457 -0.505332 2.236747
-0.875179 -0.420897 2.593744
-0.669733 -0.308468 2.852248
-0.665308 -0.306046 2.862977
-0.485762 -0.207792 3.066310
0.156015 0.143422 3.994167
-0.885159 -0.525505 1.805757
-0.933516 -0.557520 2.356233
-0.736185 -0.426759 2.613081
-0.778585 -0.454858 2.507946
-0.423578 -0.219604 3.179141
-0.232864 -0.093227 3.445951
-0.006538 0.056739 3.568344
0.341845 0.287596 4.047539
-0.872516 -0.638654 1.705388
-1.075525 -0.802441 1.854036
-0.842658 -0.614537 2.221052
-0.705719 -0.504033 2.579225
-0.551358 -0.379468 2.998293
-0.331016 -0.201669 3.379769
0.107117 0.151846 3.671152
-0.758491 -0.656274 1.639368
-0.989981 -0.878051 1.673806
-0.943059 -0.833080 2.016268
-0.772972 -0.670102 2.487051
-0.623260 -0.526659 2.686090
-0.330465 -0.246124 3.081649
-0.261258 -0.179823 3.050803
0.112465 0.178274 3.991331
0.388032 0.442290 4.132545
-0.724943 -0.745374 1.568907
-0.857643 -0.895868 1.833021
-0.758961 -0.783912 2.348574
-0.602583 -0.606531 2.604672
-0.558286 -0.556294 2.513405
-0.348394 -0.318207 2.950560
-0.125791 -0.065699 3.454891
0.077049 0.164392 3.918363
-0.788273 -0.979033 1.800779
-0.679844 -0.832589 2.157230
-0.487215 -0.572440 2.589096
-0.450675 -0.523089 2.717685
-0.263478 -0.270274 3.158405
-0.222112 -0.214420 3.069587
-0.673396 -0.995810 1.475182
-0.604190 -0.883477 1.945013
-0.455568 -0.790967 1.596348
-0.559853 -0.997846 2.020154
-0.557690 -0.993554 2.029596
-0.398800 -0.678252 2.516139
-0.258630 -0.400076 3.180755
-0.395283 -0.849923 1.549203
-0.436866 -0.953664 1.986958
-0.414174 -0.896990 2.331736
-0.315660 -0.651074 2.647987
-0.259417 -0.510687 2.733345
-0.206539 -0.378673 3.039152
-0.303535 -0.819509 1.241228
-0.352148 -0.978541 1.785216
-0.367902 -1.030083 1.899048
-0.333044 -0.915938 2.358878
-0.247679 -0.636502 2.733465
-0.222094 -0.552742 2.919952
-0.241347 -0.885676 1.586371
-0.301983 -1.169221 1.896219
-0.234524 -0.853585 2.541985
-0.197061 -0.678343 2.684082
-0.184435 -0.619266 2.811743
-0.122575 -0.329912 2.973875
-0.179893 -1.015349 1.159209
-0.181817 -1.030342 1.773031
-0.181114 -1.024720 2.003429
-0.180652 -1.021005 2.233238
-0.150715 -0.784688 2.490855
-0.114156 -0.496082 2.869930
-0.092949 -1.024041 2.027808
-0.091552 -0.989950 2.095359
-0.081946 -0.755595 2.571760
-0.074584 -0.576202 2.715893
-0.068743 -0.433702 3.022069
0.002137 -1.006989 1.204154
0.007704 -1.113035 1.644362
0.004244 -1.047580 1.989665
-0.009691 -0.783339 2.523203
-0.017312 -0.638830 2.826862
-0.021908 -0.551702 3.014342
0.107036 -1.133573 1.595549
0.085749 -0.981348 2.113447
0.081481 -0.950876 2.400068
0.052686 -0.744819 2.599591
0.008950 -0.431875 3.037766
-0.024388 -0.193252 3.084284
0.145658 -0.870071 1.439254
0.183320 -1.035848 1.981092
0.169183 -0.973677 2.107115
0.109891 -0.712902 2.422315
0.011886 -0.281843 2.888479
0.273862 -1.027909 1.957863
0.245620 -0.939214 2.141949
0.200466 -0.797411 2.443052
0.041698 -0.298756 3.085360
0.337722 -0.946978 1.852512
0.336027 -0.942913 2.081796
0.222555 -0.669365 2.455214
0.500384 -1.074402 1.722107
0.376084 -0.834968 2.252483
0.347251 -0.779429 2.379379
0.293844 -0.561050 1.702959
0.449599 -0.807958 2.011387
0.400187 -0.729649 2.196212
0.291140 -0.556830 2.615876
0.425666 -0.647432 2.540979
0.473218 -0.512852 2.702138
0.893325 -0.756630 2.189118
1.143797 -0.668394 1.887066
1.099596 -0.527028 1.873351
1.128430 -0.427747 1.897789
0.988291 -0.381300 2.413032
0.997243 -0.282242 2.234141
0.936505 -0.268236 2.359783
1.309356 -0.249219 1.871441
0.985287 -0.200280 2.296473
0.991409 0.234852 1.394251
1.261447 0.313214 1.935534
1.104235 0.371095 1.332503
0.981473 0.323746 2.240010
1.037947 0.345497 2.569498
1.199054 0.537455 1.057458
1.346547 0.610528 1.382420
1.092846 0.484770 2.362920
0.730615 0.383178 0.496986
1.146365 0.634997 0.857180
1.101804 0.607971 1.582476
1.141725 0.632117 2.367210
0.949116 0.515415 3.062382
1.183440 0.799740 0.851095
1.215107 0.822796 1.402843
1.015200 0.677029 2.538624
1.044952 0.698697 2.921643
1.057313 0.850442 0.979576
1.042922 0.837917 1.646129
1.105258 0.892009 1.919923
1.036880 0.832638 2.317635
0.990023 0.791961 2.442107
0.859461 0.678618 2.797001
0.677322 0.624788 0.325752
0.803636 0.754875 0.819959
0.956856 0.912681 1.250951
0.906990 0.861283 1.812644
1.109392 1.069768 1.904140
1.026155 0.984002 2.357345
0.866380 0.819395 2.824932
0.777568 0.874309 1.112507
0.805450 0.908511 1.666701
0.895627 1.019189 2.487624
1.097543 1.267121 2.518520
0.823092 0.930095 2.953211
0.784176 1.059334 0.639406
0.783699 1.058577 1.471812
0.862857 1.174599 1.633652
0.893107 1.218904 2.180600
0.942150 1.290773 2.451672
0.711937 0.953293 2.830542
0.749821 1.227702 1.038424
0.742178 1.214097 1.485732
0.839676 1.387158 1.966267
0.837765 1.383747 2.191821
0.655959 1.060908 2.942015
0.655782 1.060575 3.177237
0.645154 1.291605 1.236784
0.641124 1.282749 1.465052
0.576928 1.141978 2.195373
0.627281 1.252301 2.624765
0.685740 1.380436 2.565348
0.614664 1.224620 2.916543
0.446275 1.095569 0.472250
0.504048 1.256794 1.402633
0.501265 1.248996 1.630958
0.519222 1.299102 1.961090
0.539813 1.356539 2.504475
0.558991 1.410081 2.614965
0.501599 1.249774 2.965817
0.355919 0.842854 3.915461
0.315583 1.031999 0.656445
0.426690 1.467614 1.290405
0.387283 1.312996 1.802080
0.343304 1.140404 2.598503
0.323521 1.062761 2.996622
0.329116 1.084711 2.948702
0.277833 1.294901 1.458191
0.306996 1.461751 1.779320
0.296533 1.401736 2.335330
0.301306 1.429021 2.503586
0.247560 1.121247 3.152439
0.214246 0.930473 3.576537
0.152812 1.272808 1.116009
0.156287 1.315870 1.886397
0.153462 1.280203 2.624708
0.145760 1.183603 3.294464
0.041499 1.677453 1.433857
0.042232 1.550298 2.102857
0.041439 1.694026 2.260933
0.042429 1.518433 2.610533
0.043084 1.402315 2.848390
0.044331 1.181475 3.316682
-0.082394 1.481864 2.014077
-0.059171 1.224414 2.987263
-0.234940 1.601988 1.755580
-0.197767 1.394282 2.162293
-0.163441 1.202594 3.013040
-0.159692 1.181700 3.294689
-0.304981 1.338833 2.231548
-0.268944 1.204030 2.970683
-0.283932 1.260157 3.081708
-0.389956 1.198786 2.456652
-0.440797 1.336012 2.612078
-0.384811 1.184983 3.179476
-0.333156 1.045588 3.262225
-0.536437 1.288500 2.634783
-0.420034 1.035385 3.219005
-0.602916 1.169851 2.570189
-0.573765 1.118315 2.921867
-0.531139 1.042929 3.105036
-0.778673 1.203222 2.334441
-0.710653 1.105889 2.573316
-0.727141 1.129498 2.742205
-0.538885 0.860118 3.442657
-0.891037 1.149859 2.291772
-0.887594 1.145724 2.302436
-0.741777 0.970603 2.996227
-0.645984 0.855535 3.079510
-1.017998 1.101689 2.202327
-0.994316 1.077746 2.268675
-0.851587 0.933446 2.677715
-0.828757 0.910365 2.744664
-0.710188 0.790491 3.099574
-1.271886 1.153118 1.784729
-1.200260 1.091955 1.964060
-0.974038 0.898767 2.326564
-0.948415 0.876888 2.394026
-0.863923 0.804750 2.849619
-0.777368 0.730840 3.090330
-1.244813 0.956833 1.848820
-1.098146 0.851489 2.199025
-1.097034 0.850700 2.424337
-0.956665 0.749881 2.776936
-0.746527 0.598941 3.089636
-1.068301 0.684141 2.440541
-1.039474 0.667274 2.508150
-0.921830 0.598448 3.021836
-0.839516 0.550273 2.989662
-1.301298 0.677296 2.047371
-1.217737 0.637430 2.228875
-0.958340 0.513676 2.813219
-0.928868 0.499616 2.881744
-0.753913 0.416149 3.298288
-1.292159 0.541046 1.957528
-1.261446 0.529490 2.241577
-1.229605 0.517499 2.309153
-0.806136 0.358032 3.252411
-0.911525 0.397728 3.246780
-1.373308 0.441042 2.095353
-1.257150 0.408217 2.333708
-1.056654 0.351550 2.529199
-0.838795 0.289987 3.002485
-0.730619 0.259418 3.245867
-1.286986 0.300241 2.334154
-1.254577 0.293987 2.400286
-0.969069 0.238887 2.768275
-0.857216 0.217305 3.009295
-0.605983 0.168820 3.327067
-1.285586 0.186322 2.379276
-1.140231 0.171050 2.676647
-1.017899 0.158188 2.701409
