1.187705 -2.272949 5.173205
1.154098 -2.220810 5.371246
1.127810 -2.180043 5.626504
1.023157 -2.017586 5.679153
0.865590 -1.772987 5.753067
0.250385 -0.818213 7.434702
0.427771 -1.093667 7.866421
0.537707 -1.264394 8.201291
0.701486 -1.518701 8.501866
0.713321 -1.537085 8.570489
0.808130 -1.684363 9.099458
0.675810 -1.478927 9.001509
0.707302 -1.527950 9.772741
0.471511 -1.161895 9.744973
0.738739 -1.391728 0.491038
0.807144 -1.484520 1.078777
0.923666 -1.642408 0.967881
0.892372 -1.600147 1.902724
0.884026 -1.588803 1.684044
0.846855 -1.538515 2.220356
0.799895 -1.474916 2.470958
0.931616 -1.653454 2.693672
0.965647 -1.699654 3.220158
0.806575 -1.484131 3.498178
1.336197 -2.201942 4.089399
1.342426 -2.210394 4.156119
1.306549 -2.161815 4.406649
1.315242 -2.173697 5.050530
1.232977 -2.062185 4.855820
1.227720 -2.055137 5.335602
1.126524 -1.918026 5.499757
0.982461 -1.722847 5.800832
0.357874 -0.876688 7.400881
0.572278 -1.167325 7.948777
0.658024 -1.283488 7.727900
0.819154 -1.501932 8.289623
0.853179 -1.548071 8.472532
0.865184 -1.564400 8.858799
0.880532 -1.585261 9.246034
0.702355 -1.343811 9.296267
0.622263 -1.235356 9.814512
0.638393 -1.106385 -0.079445
0.702933 -1.182135 0.167416
0.898671 -1.411799 0.410069
0.968813 -1.494146 0.824121
1.037358 -1.574585 1.005513
1.056830 -1.597522 1.648051
0.994795 -1.524756 1.723567
0.954759 -1.477866 2.260874
0.965001 -1.489908 2.445836
1.007345 -1.539677 3.090667
1.021357 -1.556141 3.275041
0.884579 -1.395670 3.195543
1.037210 -1.574768 3.471355
1.384407 -1.982115 3.700637
1.504618 -2.123219 4.257237
1.511784 -2.131719 4.899651
1.461072 -2.072163 4.463014
1.400644 -2.001361 5.069072
1.338221 -1.928133 5.098172
1.264090 -1.841230 5.543083
1.194922 -1.760151 5.992789
0.686398 -1.163780 7.396081
0.823744 -1.324909 7.412085
1.017946 -1.552835 8.087518
0.992361 -1.522850 8.299581
0.979814 -1.508169 8.570129
1.019191 -1.554437 9.071659
0.960083 -1.485100 9.114294
0.884139 -1.396090 9.686008
0.745132 -1.233056 9.973710
0.847877 -1.206533 0.297303
0.989925 -1.352921 0.597490
1.061450 -1.426629 0.723362
1.064955 -1.430265 0.908679
1.156045 -1.524206 1.605985
1.166478 -1.534988 1.847581
1.184543 -1.553647 2.200978
1.181941 -1.550959 2.153834
1.137238 -1.504960 2.573415
1.057587 -1.422877 2.420191
1.313939 -1.687183 3.857386
1.527437 -1.907148 3.880485
1.639601 -2.022760 4.266605
1.591477 -1.973205 4.460393
1.565524 -1.946515 4.823438
1.627054 -2.009969 5.280504
1.468465 -1.846563 5.161309
1.356821 -1.731568 5.379868
1.298145 -1.671191 5.942402
1.132517 -1.500590 6.247841
0.949824 -1.312392 6.442297
1.041961 -1.407390 6.972525
1.086336 -1.453140 7.212926
1.087763 -1.454662 7.594744
1.105051 -1.472533 8.035253
1.028421 -1.393580 8.016591
1.050600 -1.416490 8.459705
1.051364 -1.417321 8.788618
1.014244 -1.379099 8.945582
0.953388 -1.316449 9.309358
0.794329 -1.152649 9.860848
0.854648 -1.086304 -0.518622
1.146086 -1.350191 0.205058
1.223071 -1.419919 0.560545
1.156758 -1.359948 0.977039
1.308283 -1.497117 1.096219
1.266546 -1.459442 1.913772
1.256068 -1.449930 1.696376
1.294492 -1.484798 2.394618
1.241285 -1.436676 2.701732
1.186091 -1.386748 2.953300
1.260734 -1.454313 2.954151
1.280963 -1.472653 3.194688
1.251689 -1.446216 3.676879
1.429737 -1.607412 3.945430
1.510602 -1.680614 3.998812
1.652766 -1.809364 4.557409
1.647048 -1.804183 4.512694
1.620183 -1.779912 4.878653
1.631214 -1.789971 5.471266
1.470477 -1.644472 5.410404
1.380676 -1.563238 5.804002
1.223068 -1.420632 6.224538
1.235569 -1.432009 6.718561
1.155141 -1.359207 6.697132
1.174225 -1.376543 7.194282
1.140007 -1.345598 7.404995
1.215102 -1.413615 7.761689
1.138964 -1.344744 8.117926
1.205371 -1.404930 8.733581
1.180102 -1.382044 8.628992
1.141213 -1.346904 9.105293
1.155078 -1.359537 9.758221
0.863626 -1.095739 9.847840
1.230181 -1.273861 0.026871
1.312330 -1.339217 0.612982
1.313465 -1.340127 0.682448
1.399785 -1.408770 1.035082
1.435395 -1.437174 1.903299
1.371188 -1.386177 2.151153
1.352532 -1.371311 1.819850
1.309658 -1.337309 2.412768
1.360122 -1.377490 3.055225
1.351244 -1.370423 2.952809
1.406114 -1.414099 3.536708
1.312434 -1.339632 3.389804
1.479540 -1.472530 4.187817
1.664268 -1.619363 4.394437
1.673224 -1.626488 4.462701
1.839680 -1.758848 5.074113
1.790713 -1.719956 5.273227
1.680709 -1.632510 5.077487
1.609625 -1.576085 5.634991
1.537605 -1.518909 6.141381
1.386881 -1.399132 6.196484
1.399324 -1.409079 6.686986
1.336705 -1.359326 6.778562
1.394881 -1.405639 7.443648
1.359932 -1.377889 7.652373
1.326265 -1.351159 7.862067
1.335191 -1.358298 8.244795
1.422924 -1.428063 8.597704
1.320885 -1.347000 8.841618
1.372344 -1.387955 9.342047
1.227411 -1.272783 9.418461
1.123876 -1.190563 9.934706
1.481979 -1.312356 0.832672
1.414190 -1.265301 1.306052
1.492522 -1.319724 1.199068
1.492932 -1.320011 1.210891
1.528173 -1.344586 1.964549
1.481506 -1.312217 2.498199
1.500425 -1.325392 2.737584
1.526349 -1.343440 3.033773
1.435364 -1.280202 2.941402
1.457613 -1.295691 3.181282
1.512703 -1.334034 3.706388
1.426142 -1.273877 3.673746
1.542014 -1.354432 3.956280
1.714740 -1.474541 4.632218
1.773301 -1.515217 4.456756
1.842018 -1.563083 5.442741
1.853497 -1.571068 5.509656
1.734606 -1.488479 5.787721
1.618138 -1.407574 6.068884
1.460125 -1.297772 6.124567
1.611436 -1.403008 6.876440
1.571385 -1.375199 7.083398
1.469513 -1.304396 7.005932
1.535536 -1.350354 7.671462
1.542937 -1.355541 8.052774
1.452850 -1.292934 8.035668
1.509768 -1.332551 8.590795
1.419350 -1.269715 8.575361
1.312396 -1.195418 8.820792
1.239558 -1.144842 9.184091
1.204793 -1.120737 9.666343
1.556336 -1.210526 0.454746
1.486855 -1.168655 1.155576
1.565681 -1.216220 0.934218
1.587144 -1.229242 1.516425
1.608962 -1.242459 1.926909
1.531346 -1.195615 2.059527
1.564954 -1.215956 2.528105
1.575174 -1.222140 2.653500
1.623565 -1.251412 3.178057
1.557541 -1.211573 3.372466
1.577626 -1.223718 3.554999
1.619669 -1.249140 3.908422
1.613332 -1.245379 4.505122
1.691184 -1.292374 4.442779
1.793626 -1.354232 4.550510
1.847169 -1.386595 4.900431
1.796924 -1.356341 5.628365
1.652579 -1.269215 5.795110
1.671651 -1.280789 6.340515
1.673930 -1.282166 6.351620
1.748323 -1.327117 6.703265
1.572422 -1.220921 6.706620
1.581322 -1.226342 7.142731
1.610468 -1.243993 7.637170
1.647614 -1.266473 8.132634
1.629920 -1.255820 8.401403
1.598615 -1.236943 8.614196
1.601589 -1.238775 8.942060
1.490368 -1.171620 8.869388
1.466392 -1.157203 9.403103
1.298494 -1.055876 9.744745
1.280164 -0.924668 -0.492273
1.631116 -1.106667 0.408754
1.551034 -1.065210 0.880513
1.655887 -1.119605 1.346061
1.658875 -1.121162 1.414748
1.710421 -1.147970 2.281767
1.606624 -1.094149 2.072938
1.637053 -1.109963 2.484807
1.695786 -1.140473 3.124184
1.674327 -1.129328 2.907675
1.716393 -1.151174 3.318242
1.750339 -1.168801 3.614323
1.772720 -1.180420 3.796373
1.780783 -1.184674 4.504902
1.799856 -1.194573 4.629960
1.810497 -1.200096 4.698210
1.840416 -1.215678 5.408634
1.745241 -1.166345 5.383365
1.691710 -1.138620 5.585969
1.939748 -1.267265 6.367745
1.954103 -1.274712 6.434035
1.808812 -1.199423 6.605163
1.750473 -1.169201 6.753241
1.719442 -1.153145 7.016030
1.805567 -1.197860 7.734954
1.722994 -1.155066 7.773147
1.685762 -1.135790 7.982641
1.697537 -1.141933 8.364234
1.680959 -1.133369 8.632912
1.582666 -1.082454 8.934519
1.540955 -1.060885 9.411172
1.246272 -0.908173 9.671234
1.706513 -0.988003 0.469034
1.800256 -1.028415 0.593489
1.708650 -0.988938 0.607448
1.718990 -0.993436 1.019463
1.750069 -1.006901 1.716591
1.764739 -1.013248 1.956754
1.773253 -1.016930 2.082789
1.809756 -1.032709 2.550429
1.756868 -1.009959 2.971401
1.735874 -1.000889 2.755200
1.796095 -1.026902 3.336482
1.824321 -1.039091 3.575227
1.825684 -1.039679 3.586334
1.911065 -1.076540 4.221912
1.813729 -1.034589 4.191818
1.893969 -1.069222 4.714160
1.953448 -1.094891 5.065052
1.795347 -1.026772 5.227755
1.771347 -1.016467 5.600665
1.885598 -1.065716 5.704651
1.957372 -1.096683 6.055575
1.982845 -1.107717 6.598755
1.990780 -1.111181 7.030321
1.990620 -1.111150 7.406750
1.905113 -1.074303 7.444996
1.834485 -1.043875 7.540189
1.904694 -1.074194 8.147493
1.902607 -1.073328 8.472131
1.835410 -1.044379 8.570789
1.804726 -1.031209 9.100532
1.708332 -0.989698 9.405920
1.548223 -0.920738 9.805878
1.671392 -0.844572 0.472696
1.865226 -0.913978 0.765605
1.872011 -0.916430 1.004382
1.791752 -0.887740 1.361672
1.820584 -0.898111 1.886369
1.821303 -0.898370 1.897507
1.875095 -0.917692 2.592218
1.861184 -0.912697 2.432586
1.898720 -0.926173 2.841924
1.905541 -0.928621 2.909862
1.870204 -0.916026 3.444552
1.938358 -0.940472 3.967157
1.981225 -0.955844 4.261751
1.957693 -0.947406 4.102779
1.936241 -0.939776 4.583852
1.995567 -0.961044 4.935063
1.832714 -0.902772 5.096902
1.978388 -0.954986 5.846829
2.026392 -0.972144 5.610254
2.056231 -0.982884 6.208351
2.176546 -1.025999 6.726435
2.115648 -1.004217 6.875124
2.022643 -0.970968 7.276935
1.920034 -0.934241 7.257936
2.001843 -0.963588 7.920447
1.866926 -0.915285 7.789824
1.996060 -0.961582 8.568619
1.875230 -0.918328 8.497032
1.895137 -0.925491 8.880702
1.869567 -0.916392 9.412461
1.720424 -0.735694 0.341813
1.919402 -0.792913 0.750262
1.947888 -0.801171 1.501677
1.858731 -0.775564 1.633014
1.869673 -0.778726 1.815972
1.890057 -0.784613 2.112844
1.895245 -0.786110 2.181626
1.905181 -0.788978 2.307354
1.989442 -0.813275 3.172106
1.965845 -0.806473 2.956697
2.063030 -0.834479 3.762409
2.042029 -0.828429 3.604267
2.011374 -0.819666 4.083727
2.038791 -0.827563 4.265514
2.067430 -0.835810 4.447096
2.021928 -0.822765 4.759121
1.984713 -0.812153 5.603562
2.010484 -0.819571 5.728802
2.167273 -0.864653 6.001474
2.145267 -0.858319 5.900377
2.250915 -0.888764 6.779987
2.078239 -0.839114 6.477304
2.094913 -0.843988 7.330826
1.990130 -0.813876 7.312053
1.946641 -0.801399 7.520645
1.986249 -0.812829 8.014540
1.965252 -0.806822 8.282362
1.911665 -0.791438 8.437444
2.043043 -0.829261 9.161783
1.865306 -0.778194 9.238853
1.862570 -0.645591 0.423489
2.060758 -0.689038 0.603106
1.963325 -0.667689 0.617062
1.974467 -0.670170 1.027500
1.910219 -0.656158 1.728180
1.907515 -0.655561 1.683162
1.911696 -0.656484 1.752246
1.935946 -0.661832 2.106388
1.980534 -0.671653 2.630889
2.041982 -0.685174 3.211128
2.085530 -0.694751 3.563328
2.044793 -0.685792 3.235070
2.095918 -0.697035 3.642101
2.100471 -0.698100 4.346709
2.084186 -0.694521 4.243604
2.112893 -0.700829 4.423663
2.000242 -0.676191 4.922306
1.959284 -0.667246 5.235763
2.052912 -0.687808 5.700662
2.282183 -0.738062 5.837418
2.331616 -0.748957 6.488264
2.225643 -0.725733 6.466173
2.275722 -0.736764 7.064214
2.045418 -0.686286 6.956494
2.075032 -0.692822 7.446767
2.141551 -0.707422 7.683364
2.050721 -0.687521 7.721658
2.182432 -0.716458 8.497030
1.963993 -0.668586 8.455236
1.983760 -0.672955 8.838051
2.028500 -0.682801 9.278639
1.801820 -0.508952 -0.255260
1.603282 -0.478721 -0.187933
1.904861 -0.524733 0.684685
2.101537 -0.554681 0.633455
2.031493 -0.544091 1.442150
1.930406 -0.528691 1.400253
1.946602 -0.531186 1.695643
1.958172 -0.532965 1.876791
1.962770 -0.533672 1.943837
1.999443 -0.539301 2.409679
2.050376 -0.547107 2.931616
2.118926 -0.557602 3.509098
2.014861 -0.541750 3.475228
2.152106 -0.562678 3.755555
2.169563 -0.565349 3.878662
2.161382 -0.564159 4.469862
2.153650 -0.562977 4.423221
2.096315 -0.554269 4.676719
2.009236 -0.541065 5.291800
2.080768 -0.551993 5.642810
2.312456 -0.587291 5.779869
2.218078 -0.572920 5.811320
2.213457 -0.572257 6.238793
2.269832 -0.580865 6.474316
2.320646 -0.588660 7.072122
2.197876 -0.569956 6.995236
2.293217 -0.584543 7.708931
2.234538 -0.575621 7.860068
2.176706 -0.566828 8.011939
2.299820 -0.585646 8.729283
2.172186 -0.566201 8.657920
2.044125 -0.546721 8.901353
1.977287 -0.536581 9.318140
1.887303 -0.522936 9.944653
1.728945 -0.383144 0.028671
1.629297 -0.374489 0.155107
1.928194 -0.400486 0.165387
2.029526 -0.409322 0.403782
2.049089 -0.411094 1.154636
2.062689 -0.412305 1.449924
1.980196 -0.405158 1.751355
1.984568 -0.405545 1.819313
2.034222 -0.409923 2.457048
2.015583 -0.408282 2.240157
2.075463 -0.413550 2.877006
2.095376 -0.415299 3.058326
2.103132 -0.415980 3.125980
2.192554 -0.423822 3.817008
2.071632 -0.413291 3.671621
2.194314 -0.424037 4.476492
2.196138 -0.424197 4.487321
2.321596 -0.435173 5.175385
2.095348 -0.415484 5.054591
2.066821 -0.413038 5.425792
2.335548 -0.436439 5.734600
2.265471 -0.430358 5.879662
2.248715 -0.428935 6.251585
2.264739 -0.430335 6.318828
2.254277 -0.429460 6.692285
2.341975 -0.437155 7.404189
2.217189 -0.426294 7.328176
2.271097 -0.431034 7.873951
2.265084 -0.430542 8.195069
2.155424 -0.421002 8.178043
2.303189 -0.433927 8.953385
2.079476 -0.414466 8.914451
2.228383 -0.427485 9.637531
1.909823 -0.399779 9.636744
1.553991 -0.254984 -0.233888
1.651941 -0.256473 0.125522
1.952071 -0.260938 0.193520
2.059244 -0.262579 0.716686
1.970085 -0.261288 1.073015
2.068338 -0.262743 1.023499
2.075431 -0.262865 1.205305
2.014396 -0.262024 1.905526
2.007478 -0.261912 1.802603
2.037473 -0.262396 2.212784
2.096933 -0.263339 2.849918
2.123220 -0.263752 3.088274
2.188459 -0.264770 3.609799
2.182333 -0.264674 3.564214
2.231564 -0.265439 3.914892
2.125794 -0.263864 3.882672
2.285878 -0.266334 4.855029
2.237237 -0.265585 4.582536
2.158129 -0.264473 5.251891
2.050789 -0.262875 5.224419
2.244141 -0.265790 5.668114
2.321547 -0.266972 6.016664
2.403642 -0.268224 6.364140
2.281660 -0.266405 6.284881
2.358533 -0.267613 6.995657
2.249530 -0.265992 6.974930
2.248256 -0.266008 7.350254
2.319973 -0.267130 7.952578
2.210175 -0.265497 7.935039
2.187202 -0.265181 8.200837
2.336270 -0.267468 8.976269
2.149367 -0.264669 8.735607
2.193391 -0.265364 9.174615
1.665066 -0.150351 0.177916
1.665106 -0.150350 0.190111
1.868531 -0.140385 0.545754
2.082469 -0.129918 1.066621
2.082826 -0.129902 1.076179
1.987955 -0.134577 1.203753
2.011810 -0.133448 1.670013
2.067729 -0.130770 2.420577
2.044708 -0.131875 2.145345
2.079897 -0.130184 2.553541
2.115276 -0.128478 2.904313
2.116306 -0.128428 2.913858
2.177787 -0.125455 3.434259
2.217022 -0.123554 3.727032
2.143884 -0.127167 3.920817
2.235002 -0.122743 4.497044
2.256080 -0.121718 4.619634
2.159352 -0.126475 4.646361
2.048324 -0.131979 5.146989
2.216677 -0.123780 5.951691
2.266303 -0.121318 5.713367
2.452034 -0.112264 6.511055
2.329627 -0.118273 6.432053
2.262954 -0.121564 6.578450
2.226224 -0.123394 6.838859
2.301946 -0.119733 7.496277
2.437742 -0.113102 7.955936
2.244062 -0.122593 7.655977
2.287337 -0.120512 8.146348
2.135194 -0.128007 8.328958
2.210235 -0.124371 8.879954
2.276648 -0.121153 9.374768
2.092024 -0.130235 9.451800
2.004160 -0.134612 10.078325
1.672677 -0.052367 -0.212321
1.671400 -0.052550 0.261475
1.870308 -0.031044 0.271438
2.086934 -0.007697 1.078179
2.079725 -0.008456 0.861657
1.995543 -0.017597 1.275580
2.028053 -0.014137 1.857410
2.036736 -0.013210 1.982588
2.046015 -0.012218 2.107724
2.060586 -0.010660 2.289777
2.127783 -0.003460 2.983551
2.190571 0.003280 3.505335
2.177428 0.001868 3.403030
2.186088 0.002799 3.470796
2.267091 0.011503 4.047821
2.262908 0.010995 4.640166
2.284839 0.013354 4.764181
2.080986 -0.008686 4.753884
1.929035 -0.025142 5.029408
2.263110 0.010918 5.683568
2.437432 0.029736 6.010771
2.382308 0.023756 6.213066
2.439040 0.029868 6.448806
2.331429 0.018235 6.427430
2.270720 0.011617 6.995898
2.192693 0.003172 7.089403
2.437054 0.029513 7.945631
2.277570 0.012286 7.759296
2.394520 0.024864 8.475371
2.136377 -0.003033 8.320529
2.249436 0.009129 8.985385
2.252903 0.009503 8.995545
2.207615 0.004561 9.468265
1.920843 -0.026481 9.843839
1.670496 0.066583 0.020960
1.769382 0.084484 -0.081570
1.872326 0.103043 0.619929
2.073310 0.139390 0.798957
2.076950 0.140037 0.925019
2.016371 0.128999 1.739767
2.017132 0.129135 1.752023
2.041588 0.133526 2.106388
2.038237 0.132924 2.061638
2.071862 0.138969 2.472614
2.143285 0.151825 3.167006
2.113136 0.146396 2.895211
2.159662 0.154775 3.304885
2.175217 0.157578 3.430494
2.316443 0.183037 4.403907
2.176351 0.157715 4.149291
2.232443 0.167830 4.499253
2.089389 0.141916 4.827676
2.057913 0.136186 5.197946
2.247808 0.170501 5.642058
2.419634 0.201559 5.968664
2.377646 0.193937 6.226249
2.447428 0.206535 6.517190
2.410845 0.199892 6.776476
2.252130 0.171159 6.949983
2.189480 0.159809 7.099142
2.300549 0.179866 7.505092
2.241038 0.169085 7.655977
2.336277 0.186254 8.316198
2.299442 0.179569 8.526127
2.339423 0.186761 8.962627
2.346934 0.188089 9.287375
2.165105 0.155184 9.364652
2.064567 0.136964 9.670199
1.372754 0.102274 -0.170829
1.759762 0.198449 0.018771
1.866776 0.224970 0.835033
2.062782 0.273682 0.899008
2.061497 0.273367 0.854765
1.976866 0.252297 1.213122
1.996999 0.257261 1.623652
2.031827 0.265867 2.147793
2.032660 0.266074 2.158700
2.067184 0.274615 2.568212
2.101898 0.283210 2.920296
2.121593 0.288087 3.101583
2.192682 0.305701 3.679484
2.201806 0.307963 3.746933
2.131081 0.290365 3.942104
2.166266 0.299087 4.179849
2.098708 0.282276 4.376856
1.986050 0.254226 4.877644
2.029544 0.265014 5.116716
2.239006 0.317023 5.675179
2.312790 0.335374 5.552252
2.304321 0.333228 5.979016
2.302700 0.332784 6.407392
2.380828 0.352134 7.118673
2.320189 0.337048 7.268510
2.184345 0.303296 7.136320
2.342471 0.342543 7.711789
2.403192 0.357583 8.257798
2.296700 0.331115 8.242441
2.331727 0.339780 8.678489
2.354845 0.345489 9.059164
2.233127 0.315212 9.305461
2.145432 0.293410 9.349807
1.955219 0.246099 9.690349
1.459667 0.220343 -0.255835
1.842874 0.341978 0.576455
2.040226 0.404633 0.869216
2.040562 0.404738 0.881000
1.980561 0.385601 1.695197
1.988189 0.388011 1.821096
1.996395 0.390605 1.946955
2.036853 0.403404 2.471502
2.037878 0.403729 2.483287
2.070969 0.414204 2.836373
2.102241 0.424108 3.132190
2.174384 0.446964 3.722610
2.156485 0.441226 4.270603
2.177547 0.447846 4.979070
2.023639 0.398939 5.198836
2.025838 0.399636 5.210627
2.187401 0.450920 5.543083
2.365035 0.507303 5.928077
2.324329 0.494349 6.187134
2.352567 0.503306 6.311244
2.329053 0.495806 6.628036
2.202886 0.455704 6.915311
2.400382 0.518360 7.659163
2.376390 0.510714 7.923921
2.388867 0.514640 8.302091
2.370740 0.508856 8.567783
2.213588 0.458959 8.383628
2.268296 0.476287 8.876982
2.165788 0.443698 9.178596
2.086067 0.418341 9.539735
2.072704 0.414044 10.074658
1.162026 0.203929 -0.159941
1.254660 0.240017 -0.088156
1.727134 0.424036 0.733483
2.005602 0.532548 0.681107
2.028746 0.541496 1.375728
1.947697 0.509891 1.620754
1.934171 0.504648 1.347176
1.962510 0.515637 1.872558
1.982889 0.523548 2.169384
1.983764 0.523888 2.181181
2.049844 0.549561 2.932726
2.094405 0.566883 3.341889
2.070206 0.557476 3.126645
2.117605 0.575904 3.535440
2.048339 0.548894 3.730900
2.174046 0.597790 4.592915
2.223205 0.616915 4.886988
2.042005 0.546305 4.935184
2.003016 0.531081 5.248218
2.047718 0.548476 5.485520
2.265272 0.633233 5.623772
2.294834 0.644692 6.218340
2.309497 0.650399 6.284238
2.367112 0.672784 6.936088
2.265550 0.633212 6.915172
2.293001 0.643859 7.401552
2.205918 0.609923 7.438513
2.242549 0.624147 7.927698
2.140185 0.584263 7.909832
2.185100 0.601714 8.401730
2.150705 0.588291 8.611956
2.171611 0.596399 8.992895
2.053723 0.550439 9.238258
1.237366 0.322202 -0.220883
1.965263 0.662210 0.621065
1.981726 0.669842 1.201972
1.907008 0.634895 1.560567
1.896837 0.630165 1.344054
1.917551 0.639801 1.755366
1.961288 0.660170 2.392776
1.957619 0.658460 2.346286
2.026042 0.690352 3.096037
1.998780 0.677643 2.822383
2.046647 0.699960 3.287156
2.080853 0.715911 3.581033
2.096163 0.723052 3.704697
2.093528 0.721754 4.352903
2.156862 0.751304 4.759108
2.008674 0.682044 4.975590
1.921405 0.641265 5.004473
2.114700 0.731521 5.563415
2.283563 0.810380 5.946947
2.244761 0.792223 6.204716
2.308846 0.822136 6.495934
2.198048 0.770375 6.417741
2.216432 0.778915 6.903511
2.186311 0.764815 7.165243
2.247544 0.793362 7.766299
2.241088 0.790313 8.086978
2.094857 0.722008 7.900765
2.238983 0.789262 8.731701
2.208180 0.774849 8.943041
2.196877 0.769540 9.211663
2.084352 0.716939 9.458751
1.992872 0.674165 9.764888
1.130233 0.354062 -0.468924
1.213430 0.399539 -0.102827
1.389064 0.495581 0.318237
1.741160 0.688197 0.441321
1.921498 0.786826 0.734919
1.955627 0.805400 1.656681
1.871743 0.759500 1.731299
1.977003 0.817055 2.020645
2.015515 0.838069 2.542835
1.948898 0.801598 2.791292
1.955185 0.805030 2.859688
1.945854 0.799936 2.757531
1.973838 0.815214 3.053224
2.004764 0.832102 3.348535
1.965560 0.810608 3.770630
2.026918 0.844127 4.236078
2.036229 0.849151 4.887724
1.915784 0.783278 4.689842
1.905467 0.777582 5.175251
1.947295 0.800440 5.414464
2.205723 0.941779 5.836540
2.111338 0.890144 5.813304
2.169741 0.922065 6.106661
2.246185 0.963805 6.872976
2.230558 0.955221 7.191091
2.108279 0.888338 7.059879
2.209644 0.943711 7.831095
2.113812 0.891284 7.814878
2.108371 0.888273 8.137747
2.058894 0.861188 8.292173
2.175196 0.924739 9.011461
2.061412 0.862496 8.941639
2.092958 0.879680 9.641062
1.437229 0.638836 0.035863
1.615181 0.751866 0.854707
1.871565 0.914832 0.971926
1.954674 0.967668 0.923839
1.908914 0.938477 1.848914
1.835662 0.891890 2.038705
1.832871 0.890121 1.993723
1.893135 0.928341 2.802840
1.879639 0.919779 2.644222
1.927307 0.950023 3.167671
1.972169 0.978494 3.588557
1.969096 0.976467 4.250243
1.986265 0.987367 4.375461
1.962759 0.972378 4.800969
1.706755 0.809640 4.809191
1.923299 0.947205 5.600901
2.110604 1.066262 5.682277
2.061481 1.035014 5.882968
2.175331 1.107322 6.455821
2.201103 1.123691 6.578084
2.233615 1.144299 7.117741
2.086258 1.050614 7.237035
2.116354 1.069691 7.725200
2.104865 1.062393 7.679023
2.202291 1.124245 8.392795
2.029085 1.014139 8.407910
2.029696 1.014492 8.731672
1.968537 0.975604 8.830171
1.927573 0.949511 9.302591
1.788674 0.861201 9.436721
1.751200 0.837297 10.180168
1.392927 0.730324 0.136512
1.802640 1.029546 0.717130
1.895700 1.097471 1.180248
1.817418 1.040279 1.253304
1.762907 1.000392 1.840479
1.760512 0.998647 1.795474
1.837629 1.054851 2.901427
1.815012 1.038362 2.628000
1.829764 1.049117 2.809503
1.934572 1.125557 3.852147
1.970276 1.151604 4.145574
1.913866 1.110375 4.341843
1.978495 1.157532 4.804982
1.838169 1.055007 4.965379
1.681076 0.940247 5.013083
1.788504 1.018703 5.176587
2.093472 1.241382 5.994325
2.105924 1.250471 6.061191
2.029284 1.194483 6.094563
2.052346 1.211266 6.635507
2.047587 1.207747 7.009065
2.021710 1.188813 7.271371
2.078398 1.230154 7.872583
1.949439 1.135973 7.686455
1.942979 1.131216 8.008626
1.983718 1.160919 8.501439
1.924702 1.117796 8.599797
1.927384 1.119718 8.925283
1.906222 1.104198 9.455211
1.821650 1.220531 1.233821
1.745394 1.156777 1.249749
1.782452 1.187660 2.057022
1.780519 1.186047 2.023307
1.750651 1.160992 2.725543
1.742892 1.154517 2.623333
1.780813 1.186163 3.089605
1.836903 1.232985 3.668204
1.870624 1.261139 3.974082
1.802660 1.204309 4.057140
1.838453 1.234197 4.352018
1.781754 1.186707 5.078992
1.694079 1.113354 5.528059
1.789386 1.193020 5.632833
1.959962 1.335615 5.715257
2.050525 1.411264 6.232008
1.988380 1.359299 6.322879
1.980532 1.352693 6.695696
1.919623 1.301760 6.788373
1.952853 1.329474 7.332966
1.906004 1.290289 7.484374
1.885252 1.272908 7.749587
1.853359 1.246219 7.959354
1.849971 1.243347 8.283331
1.878361 1.267028 8.721518
1.897293 1.282809 9.104124
1.785658 1.189457 9.293499
1.724950 1.321322 0.601333
1.804035 1.396537 0.949336
1.736425 1.332173 1.133756
1.675983 1.274609 1.490128
1.706307 1.303384 2.126216
1.700658 1.298021 2.023751
1.672438 1.271075 2.725543
1.715447 1.311935 3.259009
1.716425 1.312865 3.270091
1.796693 1.389146 4.073864
1.817245 1.408680 4.254292
1.760426 1.354592 4.394478
1.782598 1.375668 4.575248
1.693504 1.290827 5.018646
1.639691 1.239598 5.162345
1.823889 1.414792 5.890020
1.887263 1.475109 5.822924
1.889033 1.476792 5.833905
1.966705 1.550594 6.708510
1.867238 1.455955 6.574403
1.819516 1.410523 6.721385
1.883915 1.471715 7.433190
1.863586 1.452335 7.695738
1.857652 1.446647 8.015735
1.854579 1.443681 8.336882
1.774773 1.367738 8.320460
1.801609 1.393219 8.756828
1.762965 1.356425 8.911576
1.743497 1.337830 9.440384
1.617443 1.217822 9.837553
1.641654 1.453353 1.229393
1.633362 1.444320 0.900363
1.644057 1.455973 1.308194
1.607635 1.415992 2.062789
1.560011 1.363800 2.423246
1.547579 1.350218 2.206553
1.579701 1.385315 2.729986
1.580460 1.386145 2.741093
1.645100 1.456803 3.557353
1.617154 1.426147 3.978685
1.635773 1.446507 4.159256
1.655237 1.467792 4.339631
1.671274 1.485253 5.046711
1.613747 1.422257 5.132659
1.603154 1.410600 5.560308
1.662641 1.475739 5.493566
1.831237 1.660235 6.158239
1.758316 1.580400 6.135251
1.777922 1.601849 6.258103
1.789608 1.614576 6.742240
1.796977 1.622584 7.171565
1.765645 1.588252 7.377377
1.735407 1.555117 7.584174
1.729088 1.548154 7.904794
1.701675 1.518112 8.113703
1.699764 1.515974 8.436598
1.687844 1.502886 8.704078
1.653674 1.465410 9.175057
1.730899 1.549876 9.784590
1.573131 1.377111 10.014236
1.409290 1.385698 0.711472
1.609460 1.635077 1.278840
1.554392 1.566412 1.519747
1.560957 1.574566 1.699361
1.587254 1.607253 2.274803
1.590797 1.611658 2.341034
1.552530 1.563905 2.756226
1.498381 1.496403 2.889883
1.546678 1.556496 3.533670
1.616230 1.643063 4.288238
1.573077 1.589255 4.483785
1.631299 1.661737 5.001760
1.591540 1.612157 5.199772
1.484175 1.478329 5.362035
1.546752 1.556317 5.351980
1.653702 1.689555 5.680079
1.674399 1.715260 6.274575
1.675851 1.717068 6.284238
1.714582 1.765239 6.936088
1.655717 1.691873 6.971474
1.615899 1.642227 7.119849
1.618484 1.645338 7.861611
1.592701 1.613174 8.069790
1.661381 1.698716 8.417807
1.615244 1.641202 8.514665
1.580981 1.598479 8.668523
1.611441 1.636328 9.421524
1.554766 1.565689 9.465168
1.393380 1.364536 9.634063
1.491507 1.721101 0.818288
1.501349 1.735047 1.281706
1.444269 1.653725 1.298012
1.447774 1.658699 1.423054
1.473409 1.695106 2.114022
1.440041 1.647490 2.599077
1.393332 1.580915 2.791070
1.411905 1.607327 3.086943
1.388147 1.573402 3.565673
1.369462 1.546704 4.046841
1.346531 1.514080 3.773683
1.376541 1.556776 4.127350
1.481719 1.706446 5.171956
1.389897 1.575597 5.392918
1.334978 1.497353 5.424646
1.469204 1.688554 5.566288
1.598847 1.873158 6.119474
1.552115 1.806566 6.210209
1.561755 1.820221 6.695696
1.594424 1.866664 7.293914
1.577690 1.842782 7.556559
1.431952 1.635184 7.396494
1.434893 1.639312 7.775273
1.495869 1.726124 8.125616
1.439739 1.646102 8.479660
1.462776 1.678849 8.918430
1.432885 1.636240 9.074999
1.426567 1.627195 9.345818
1.272106 1.407073 9.778043
1.062712 1.300140 -0.536569
1.059191 1.294207 0.284961
1.324676 1.730305 0.860498
1.324009 1.729216 0.815758
1.277205 1.652262 1.115075
1.329401 1.738020 1.123129
1.348464 1.769216 1.814787
1.317920 1.718935 2.356314
1.261618 1.626445 2.263077
1.272557 1.644375 2.502853
1.270805 1.641336 3.391636
1.216281 1.551758 3.359070
1.257369 1.619161 3.940255
1.271590 1.642494 4.121569
1.332051 1.741710 4.813587
1.276532 1.650495 4.785006
1.308791 1.703347 5.620859
1.265430 1.632088 5.709050
1.398348 1.850356 6.377218
1.422229 1.889636 6.138989
1.467921 1.964571 6.904099
1.403683 1.859040 6.827354
1.378108 1.816983 7.032527
1.437626 1.914634 7.802767
1.416085 1.879205 8.010896
1.355091 1.778935 8.306539
1.364578 1.794456 8.687076
1.346705 1.765051 8.898973
1.339977 1.753948 9.168420
1.303173 1.693460 9.268657
1.020470 1.447909 -0.079320
1.163772 1.721220 0.789174
1.208983 1.807525 0.683298
1.218052 1.824716 1.260383
1.223498 1.835061 1.497180
1.228311 1.844211 1.677245
1.208643 1.806520 2.441836
1.162848 1.719120 2.461051
1.176046 1.744248 2.755754
1.144673 1.684312 3.061390
1.114967 1.627557 3.368894
1.155674 1.705116 4.006796
1.140951 1.677063 3.789055
1.209065 1.806868 4.709287
1.191623 1.773625 4.492479
1.184373 1.759692 4.974702
1.240863 1.867480 5.079635
1.227710 1.842303 5.448895
1.109081 1.615856 5.691435
1.178583 1.748453 5.908428
1.331638 2.040446 6.437842
1.255761 1.895603 6.608906
1.232102 1.850410 6.813435
1.259687 1.902934 7.415133
1.223847 1.834516 7.509183
1.250839 1.885917 8.056987
1.163574 1.719362 8.125964
1.189731 1.769246 8.306773
1.216655 1.820466 9.117518
1.147174 1.687890 8.989725
1.154688 1.702099 9.636383
1.015919 1.437253 9.692078
0.967241 1.605283 -0.374035
0.925379 1.510941 0.326546
1.008863 1.698684 0.678881
1.054681 1.801670 1.097294
1.098361 1.899902 1.274550
1.116566 1.940688 2.021671
1.083708 1.866707 2.267221
1.041692 1.772187 2.229698
1.050086 1.791017 2.468611
1.057075 1.806698 2.650445
1.034341 1.755455 3.070744
1.021108 1.725555 3.618780
1.041443 1.771226 3.972082
1.087130 1.873854 4.665419
1.083885 1.866563 4.619764
1.136928 1.985864 4.783149
1.177270 2.076508 5.301334
1.157341 2.031611 5.557755
1.064265 1.822124 5.915534
1.041438 1.770719 6.119519
1.155605 2.027409 6.843427
1.117483 1.941632 6.879744
1.073185 1.841974 6.857803
1.065650 1.824949 7.177146
1.059701 1.811491 7.497765
1.119020 1.944757 8.330181
1.111289 1.927302 8.596702
1.058921 1.809498 8.523699
1.059707 1.811192 8.848938
1.078330 1.852990 9.288842
0.981427 1.634921 9.513079
0.928540 1.515815 10.028268
0.921878 1.867240 0.948362
0.921379 1.865873 0.902565
0.957502 1.965720 1.080618
0.960065 1.972758 1.261712
0.968600 1.996234 1.725898
0.940144 1.917473 1.970510
0.912475 1.840887 2.216790
0.941326 1.920435 3.081176
0.907979 1.828208 3.103700
0.891444 1.782366 3.526447
0.884460 1.763097 3.366215
0.894980 1.792122 3.604732
0.926763 1.879842 4.241597
0.967120 1.991420 4.349142
1.049496 2.219012 5.130439
1.031941 2.170539 4.859553
1.009995 2.109793 5.056798
1.016408 2.127367 5.649949
0.943249 1.924932 6.064226
0.924594 1.873172 6.689474
0.953554 1.953279 6.618234
0.926318 1.877933 6.709475
0.967477 1.991529 7.540153
0.964069 1.982016 7.861389
0.932510 1.894729 7.900034
0.900960 1.807467 7.938751
0.905292 1.819342 8.320365
0.905143 1.818842 8.646055
0.906367 1.822136 8.972800
0.918810 1.856353 9.676204
0.751213 1.713765 -0.154856
0.752665 1.718383 0.660488
0.781601 1.815725 0.727543
0.838246 2.006345 0.675988
0.846115 2.032578 1.422833
0.814740 1.927075 1.210417
0.805096 1.894279 2.261519
0.815698 1.929820 2.669999
0.790937 1.846460 2.804029
0.773743 1.788485 3.167875
0.777992 1.802739 3.292305
0.814860 1.926723 3.517900
0.795859 1.862705 3.769227
0.815746 1.929467 4.234931
0.900596 2.214988 4.197791
0.917034 2.270186 4.544697
0.909814 2.245754 4.965340
0.901282 2.216923 5.331648
0.880566 2.147171 5.474302
0.877692 2.137361 5.900156
0.821434 1.947902 6.374493
0.791033 1.845478 6.774419
0.840534 2.011952 7.043569
0.822538 1.951351 7.193132
0.841984 2.016585 7.798083
0.825221 1.960130 7.950204
0.823806 1.955260 8.273706
0.782351 1.815813 8.142429
0.792087 1.848431 8.582324
0.787427 1.832660 8.851995
0.773685 1.786265 9.327076
0.616689 1.662163 -0.235902
0.616863 1.662631 0.466477
0.662696 1.863578 0.771739
0.708754 2.065546 1.004447
0.718692 2.108782 1.865192
0.692678 1.994766 1.598949
0.655484 1.831385 2.090817
0.653055 1.820327 3.038234
0.659607 1.848966 3.289402
0.631058 1.723484 3.842614
0.699159 2.021973 4.508451
0.783031 2.390004 4.340645
0.785994 2.402729 4.984562
0.776918 2.362782 5.294675
0.750607 2.247387 5.212984
0.739519 2.198633 5.469236
0.731743 2.164387 5.783310
0.687447 1.969854 6.257860
0.666605 1.878223 6.715544
0.652211 1.815011 6.865814
0.680984 1.941203 6.965974
0.698667 2.018503 7.628751
0.685403 1.960244 7.780930
0.672329 1.902825 7.933848
0.691371 1.986105 8.543693
0.662802 1.860801 8.470787
0.702295 2.033709 9.310573
0.665755 1.873344 9.444976
0.505176 1.697981 -0.101143
0.489393 1.598685 0.199596
0.520906 1.796553 0.268524
0.572646 2.120858 1.323687
0.562963 2.059666 1.965851
0.546357 1.954762 3.000584
0.530946 1.857962 3.023924
0.572914 2.120803 4.243382
0.605703 2.326704 4.280144
0.637012 2.523342 4.258544
0.635518 2.513647 4.788112
0.630449 2.481596 5.152258
0.598181 2.278948 5.145253
0.603470 2.311778 5.795247
0.581206 2.171790 6.075456
0.568182 2.089692 6.585886
0.529710 1.847928 6.841212
0.517260 1.769684 6.934327
0.544793 1.942214 7.574788
0.519982 1.786512 7.383704
0.528764 1.841331 7.938171
0.540223 1.913155 8.177690
0.539925 1.911094 8.504041
0.534300 1.875638 8.717150
0.538139 1.899517 9.102801
0.506810 1.702564 9.441858
0.469497 1.468097 9.669191
0.385377 1.730464 -0.234327
0.385310 1.729141 0.295950
0.385708 1.733317 0.607747
0.396114 1.850693 1.191183
0.407648 1.980864 1.769627
0.399008 1.882860 1.797931
0.398216 1.872752 2.859300
0.399979 1.892545 3.042034
0.371802 1.572336 3.700210
0.459286 2.563743 4.271179
0.469896 2.683332 4.949492
0.451883 2.479080 4.941730
0.445332 2.404652 5.083320
0.441863 2.364979 5.394452
0.437999 2.320388 6.123156
0.409089 1.992667 6.031355
0.398302 1.869529 6.798480
0.381532 1.679300 6.858985
0.391593 1.793342 6.902688
0.395638 1.838626 7.456321
0.397333 1.857770 7.524628
0.408757 1.986477 8.307445
0.405492 1.949227 8.519882
0.395822 1.839587 8.504150
0.401117 1.899102 9.004737
0.388294 1.753487 9.195253
0.274725 1.752898 -0.334884
0.277401 1.858241 0.781037
0.279990 1.963593 0.961890
0.282493 2.065876 1.027500
0.281838 2.034513 2.208333
0.276547 1.818539 2.006858
0.278082 1.878743 2.707553
0.279930 1.951927 3.361303
0.287044 2.240892 3.995280
0.293469 2.502629 4.369498
0.296395 2.622061 4.476245
0.292126 2.446580 4.634093
0.291588 2.422953 5.056795
0.292469 2.458320 5.236888
0.289191 2.322800 5.570081
0.287961 2.269814 6.246292
0.280779 1.973810 6.718221
0.275615 1.760856 7.092236
0.278957 1.894525 7.935487
0.280330 1.950064 8.119212
0.278966 1.893607 8.275231
0.279892 1.929845 8.716479
0.279072 1.895426 8.929820
0.276846 1.804075 8.971813
0.275759 1.757740 9.449955
0.271542 1.583468 9.850761
0.160304 1.765188 -0.199907
0.168516 1.563744 0.042663
0.156337 1.863769 0.227957
0.147886 2.072985 0.808740
0.158634 1.810580 1.672815
0.156613 1.861913 2.374666
0.158572 1.814998 2.926356
0.160352 1.772369 3.423373
0.160802 1.762818 4.083180
0.128169 2.565441 4.044032
0.132788 2.453086 4.592469
0.136704 2.356817 4.622011
0.132844 2.452967 5.140080
0.139379 2.292716 5.358167
0.142355 2.220943 5.975571
0.150188 2.028372 6.030018
0.154114 1.934750 7.300700
0.159899 1.792987 7.536781
0.157794 1.845191 7.719533
0.158146 1.837286 8.045349
0.152996 1.964911 8.456722
0.159114 1.814843 8.642915
0.157431 1.857275 9.086905
0.160101 1.792558 9.507960
0.047332 1.771274 -0.145913
0.068301 1.571512 -0.019902
0.046845 1.776665 0.683775
0.025296 1.982301 0.931094
0.033466 1.904895 1.461861
0.033994 1.899772 1.358889
0.032350 1.915708 1.657000
0.035359 1.887864 2.593350
0.034684 1.894363 2.661206
0.041883 1.826011 2.969016
0.016393 2.069977 4.074646
-0.006219 2.285612 4.167853
-0.019515 2.412493 4.331291
-0.028857 2.502011 4.846405
-0.022100 2.437772 5.043420
-0.020085 2.418477 4.941424
-0.004314 2.268388 5.215002
0.008687 2.144809 5.605336
0.025035 1.989180 5.828724
0.065464 1.604674 6.803639
0.075971 1.504883 7.212980
0.055690 1.698511 7.544986
0.039616 1.852206 8.073838
0.043752 1.812966 8.286105
0.043872 1.812115 8.614393
0.037484 1.873459 9.116043
0.056850 1.688931 9.191538
0.065634 1.605527 9.557527
0.091234 1.361940 10.054306
-0.083704 1.874229 0.665418
-0.100556 1.973254 0.684685
-0.106256 2.007232 1.562796
-0.095425 1.943899 2.105120
-0.066918 1.776618 2.476877
-0.071494 1.804145 3.624792
-0.110286 2.032182 3.837167
-0.163157 2.343222 4.553379
-0.168445 2.374392 4.732810
-0.167078 2.366330 4.687094
-0.172584 2.399075 5.391378
-0.128739 2.141309 5.102058
-0.142514 2.222732 5.983529
-0.104979 2.002398 6.346423
-0.077415 1.840549 6.518610
-0.047048 1.662408 7.027988
-0.028094 1.551242 7.380328
-0.059189 1.734305 8.027856
-0.080563 1.860113 8.441397
-0.071311 1.805845 8.597544
-0.068580 1.789948 8.869591
-0.060501 1.742748 9.348451
-0.022698 1.520616 9.309442
0.006930 1.346761 9.711923
-0.194758 1.821930 1.904969
-0.197822 1.834886 2.089425
-0.174962 1.738775 2.109134
-0.162473 1.686479 2.649271
-0.252505 2.065358 3.430768
-0.334847 2.411745 3.821725
-0.305525 2.288650 4.314243
-0.310290 2.308737 4.438922
-0.319750 2.348611 4.676102
-0.294231 2.241513 5.175930
-0.221527 1.935793 5.131343
-0.237900 2.004974 5.963627
-0.187382 1.792534 5.902964
-0.157857 1.668525 6.245997
-0.127427 1.541027 7.361042
-0.087166 1.371786 7.482911
-0.148773 1.631059 8.047774
-0.161682 1.685411 8.231875
-0.126533 1.537692 8.417570
-0.144339 1.612661 8.660280
-0.163342 1.692793 9.223127
-0.129778 1.551743 9.415216
-0.135811 1.577375 10.074462
-0.331559 1.865349 1.237984
-0.299087 1.759795 0.966696
-0.291742 1.736356 2.276179
-0.376767 2.013037 3.926231
-0.423701 2.165383 3.624844
-0.453940 2.263818 4.313803
-0.451757 2.256711 4.267960
-0.427916 2.179665 5.484722
-0.345652 1.912516 5.613681
-0.278312 1.693912 5.975206
-0.204467 1.454147 6.226140
-0.147296 1.268741 7.114504
-0.119116 1.177345 7.530068
-0.200915 1.443105 7.779827
-0.253047 1.612616 8.371689
-0.253084 1.612840 8.702359
-0.243141 1.580513 8.597347
-0.255401 1.620476 9.044933
-0.266633 1.657183 9.758293
-0.184865 1.391640 9.872028
-0.397688 1.700348 2.091569
-0.488061 1.938627 3.574180
-0.570077 2.154571 3.785842
-0.550414 2.102895 4.095247
-0.507264 1.989443 4.593727
-0.462616 1.872166 5.541245
-0.359158 1.599855 5.613950
-0.301246 1.447586 6.270739
-0.079370 0.863867 7.480345
-0.214392 1.219443 8.088925
-0.271525 1.369791 7.927124
-0.316361 1.487923 8.346960
-0.350183 1.577116 8.969830
-0.297392 1.438118 8.838731
-0.342567 1.557212 9.522201
-0.322077 1.503390 9.950405
-0.563980 1.796013 0.910084
-0.526057 1.712900 1.155106
-0.483576 1.620062 2.611361
-0.587295 1.847813 3.865643
-0.698891 2.092653 4.302466
-0.641736 1.967394 4.688063
-0.521191 1.703164 5.311715
-0.461183 1.571734 6.078331
-0.386828 1.408693 6.192452
-0.278267 1.170838 7.222079
-0.165568 0.923711 7.368146
-0.282178 1.179590 8.001642
-0.391855 1.420167 8.188503
-0.453393 1.555234 8.662995
-0.438806 1.523290 8.877665
-0.408754 1.457407 8.976986
-0.395193 1.427714 9.193288
-0.329680 1.284140 9.652224
-0.531728 1.480370 -0.013555
-0.650044 1.701285 2.920069
-0.573345 1.558521 3.266045
-0.703365 1.800761 3.825848
-0.813502 2.005906 4.034981
-0.867290 2.106208 4.724473
-0.751652 1.890814 4.485078
-0.608422 1.624302 5.583228
-0.435786 1.302852 5.792024
-0.426475 1.285674 6.607384
-0.325249 1.097321 7.384565
-0.273924 1.001811 7.743832
-0.377462 1.194703 8.139418
-0.445135 1.320682 7.917539
-0.494006 1.411827 8.598719
-0.468256 1.363905 8.756303
-0.461244 1.350902 9.031386
-0.519350 1.459180 9.391168
-0.446382 1.323388 9.851948
-0.969103 1.992672 2.873029
-0.912826 1.902571 3.655189
-0.917712 1.910418 3.722242
-0.988726 2.024440 4.582757
-0.901351 1.884374 4.797897
-0.684511 1.536766 5.322975
-0.567716 1.349561 5.741650
-0.520088 1.273283 6.262215
-0.374776 1.040449 7.236543
-0.265319 0.865003 7.621802
-0.300697 0.921708 7.487193
-0.414531 1.104309 7.884830
-0.569709 1.353247 8.510915
-0.511266 1.259530 8.492988
-0.492022 1.228712 8.709350
-0.525479 1.282449 9.219382
-0.575208 1.362291 9.788150
-0.428010 1.126281 9.901099
-0.798617 1.511410 2.803115
-0.668917 1.330739 3.495915
-0.771138 1.473307 4.035770
-0.965442 1.744170 4.230531
-0.936150 1.703391 4.542768
-0.927505 1.691419 5.028514
-0.745916 1.438389 5.518948
-0.626014 1.271263 5.511086
-0.658514 1.316680 6.242525
-0.554229 1.171340 6.356588
-0.369950 0.914546 6.755063
-0.254398 0.753554 7.196375
-0.217888 0.702689 7.352114
-0.417894 0.981547 7.845789
-0.505573 1.103786 8.005778
-0.656652 1.314449 8.514329
-0.581669 1.209922 8.438123
-0.615805 1.257532 8.624292
-0.573651 1.198844 9.047970
-0.602308 1.238859 9.500718
-0.500920 1.097605 9.905696
-1.127120 1.719648 4.611308
-0.996003 1.561884 4.598512
-1.015675 1.585658 5.315852
-0.821612 1.352160 5.326923
-0.649749 1.145398 5.512837
-0.730849 1.243066 6.108190
-0.642150 1.136385 6.397587
-0.459365 0.916530 6.915334
-0.314298 0.742030 7.238623
-0.244319 0.657828 7.214902
-0.440989 0.894519 7.591736
-0.546881 1.021963 7.812093
-0.733301 1.246358 8.439194
-0.625187 1.116293 8.568266
-0.687499 1.191311 8.871897
-0.666248 1.165774 9.089600
-0.724620 1.236092 9.659045
-0.614988 1.104240 10.065044
-0.832630 1.217679 0.353276
-0.971101 1.364077 0.478039
-0.692922 1.070402 3.368554
-1.208251 1.615212 3.707948
-1.368153 1.784363 4.556694
-1.139978 1.543133 4.390714
-0.898352 1.287824 5.264818
-0.654197 1.029759 5.530077
-0.589792 0.961747 6.055110
-0.516416 0.884351 7.310658
-0.430220 0.793273 7.612967
-0.510132 0.877756 7.658206
-0.648181 1.023736 7.997506
-0.662584 1.038972 8.068719
-0.685445 1.063199 8.521491
-0.661003 1.037392 8.740350
-0.756709 1.138621 9.163200
-0.684916 1.062770 9.474910
-0.530431 0.899537 10.034669
-1.176592 1.408597 3.842389
-1.275067 1.500001 4.068949
-1.207580 1.437466 4.743106
-1.136013 1.371131 5.309016
-0.947764 1.196485 5.553717
-0.841932 1.098320 5.839980
-0.700495 0.967087 5.894091
-0.626892 0.898851 6.362717
-0.435214 0.721018 6.562082
-0.358998 0.650350 6.980437
-0.381763 0.671540 7.496856
-0.515213 0.795405 7.780698
-0.658462 0.928321 7.736766
-0.665424 0.934831 8.128886
-0.773561 1.035233 8.609745
-0.747528 1.011104 8.826655
-0.795458 1.055643 9.337944
-0.758625 1.021486 9.498300
-0.638083 0.909653 9.633744
-1.199102 1.278034 3.963445
-1.251806 1.321005 3.731264
-1.305499 1.364867 4.202685
-1.244296 1.314952 4.343071
-1.186528 1.267911 5.078523
-0.976811 1.096837 5.260677
-0.823997 0.972230 5.798138
-0.825655 0.973583 5.808225
-0.650068 0.830376 6.176994
-0.478304 0.690289 6.551594
-0.362832 0.596111 6.787977
-0.359516 0.593453 7.182563
-0.485211 0.696028 7.406747
-0.612297 0.799737 7.628566
-0.719655 0.887383 8.111837
-0.735598 0.900397 8.180934
-0.733611 0.898817 8.514993
-0.764596 0.924150 8.967937
-0.696803 0.868887 9.336389
-0.975404 0.979094 0.704087
-0.942776 0.956016 1.992958
-1.158018 1.109426 3.609661
-1.346353 1.243522 3.823985
-1.389248 1.274099 4.178942
-1.388177 1.273405 4.779401
-1.162201 1.112617 5.462366
-0.884170 0.914731 5.787362
-0.657229 0.753194 5.919654
-0.553349 0.679284 6.270787
-0.500379 0.641645 6.864697
-0.356616 0.539317 6.983866
-0.539004 0.669208 7.448677
-0.646351 0.745637 7.552343
-0.893533 0.921679 8.243530
-0.760883 0.827226 8.047529
-0.956230 0.966378 8.822321
-0.866092 0.902209 8.805317
-0.777179 0.838950 9.113995
-0.724406 0.801432 9.543724
-0.659594 0.755336 9.917555
-0.957189 0.863399 0.915350
-1.440774 1.162209 3.952327
-1.435023 1.158655 3.905892
-1.389080 1.130333 4.219245
-1.196344 1.011486 5.246227
-0.934727 0.850066 5.745166
-0.686909 0.697117 5.818147
-0.600139 0.643613 6.288475
-0.520270 0.594369 6.763399
-0.369825 0.501526 6.882384
-0.519110 0.593698 7.169290
-0.712364 0.713028 7.631114
-0.942071 0.854870 8.204560
-0.833340 0.787751 8.126352
-0.974822 0.875135 8.666317
-0.896681 0.826910 8.707504
-0.921426 0.842262 9.428107
-0.729110 0.723557 9.386054
-0.695657 0.702964 9.878167
-1.275624 0.940579 3.462887
-1.465297 1.041348 3.564567
-1.501548 1.060636 3.863709
-1.461436 1.039367 4.235206
-1.425960 1.020562 4.608619
-1.289389 0.948042 4.884561
-1.108653 0.852089 5.416191
-0.871598 0.726182 5.603087
-0.646613 0.606692 5.852222
-0.533123 0.546442 6.203579
-0.586065 0.574639 6.894556
-0.403816 0.477825 6.893194
-0.614125 0.589600 7.417930
-0.773701 0.674399 7.699177
-0.981850 0.785019 8.153643
-0.899983 0.741535 8.192676
-0.982223 0.785254 8.497177
-1.000374 0.794938 8.890178
-0.887240 0.734865 9.139796
-0.776027 0.675814 9.391608
-0.601920 0.583362 9.738329
-1.054681 0.729550 -0.458578
-1.079206 0.740933 2.771012
-1.401672 0.886366 4.005043
-1.623747 0.986463 4.274341
-1.625436 0.987225 4.285982
-1.589471 0.971057 4.658160
-1.402562 0.886833 4.646243
-1.342684 0.859928 5.389452
-1.120193 0.759702 5.694229
-0.843515 0.635030 5.708366
-0.624133 0.536207 6.020330
-0.407911 0.438807 6.337173
-0.398548 0.434629 6.733520
-0.525082 0.491703 7.286574
-0.674221 0.558930 7.512004
-0.867897 0.646204 7.530754
-1.024852 0.716991 8.132076
-0.973104 0.693689 8.290460
-1.009289 0.710008 8.420060
-0.906175 0.663575 8.727555
-0.841952 0.634680 9.156270
-0.840984 0.634306 9.766219
-0.606807 0.528802 9.938857
-1.003626 0.622532 -0.269460
-1.318927 0.740739 3.676170
-1.685805 0.877884 4.279266
-1.731818 0.895107 4.576959
-1.679101 0.875435 4.834722
-1.467870 0.796495 4.708364
-1.252365 0.716013 5.121781
-1.168462 0.684720 5.698115
-0.884145 0.578485 5.712064
-0.634757 0.485320 5.904368
-0.462329 0.420948 6.460846
-0.491225 0.431758 6.593077
-0.618527 0.479380 7.144533
-0.770584 0.536219 7.369539
-0.970833 0.611082 7.769254
-1.005604 0.624087 7.898864
-1.073612 0.649523 8.145843
-1.070773 0.648496 8.478593
-1.180785 0.689671 9.164113
-0.936527 0.598420 9.329239
-0.938476 0.599209 9.937106
-0.597400 0.471752 9.810625
-1.577827 0.716721 3.826507
-1.619963 0.729414 4.126148
-1.552939 0.709290 4.326050
-1.545066 0.706977 4.874048
-0.686933 0.449181 6.010301
-0.514333 0.397318 6.122758
-0.583811 0.418273 6.875820
-0.551157 0.408486 7.150215
-0.736868 0.464334 7.493615
-0.893845 0.511497 7.332874
-1.086931 0.569598 8.051036
-1.123246 0.580524 8.178417
-1.192028 0.601252 8.745728
-1.085829 0.569333 8.727489
-0.998908 0.543245 9.093948
-1.016031 0.548456 9.758904
-0.880033 0.507602 9.954838
-1.463421 0.580002 4.112134
-1.561510 0.602890 4.109402
-1.607595 0.613673 4.410377
-1.600402 0.611990 4.364837
-1.553354 0.601042 4.682389
-1.308056 0.543831 4.979556
-0.897088 0.447977 5.438088
-0.759953 0.416053 6.225859
-0.616331 0.382520 6.020888
-0.534328 0.363436 6.557626
-0.513030 0.358499 6.894369
-0.776897 0.420133 7.540396
-1.141991 0.505348 7.768114
-1.035466 0.480489 7.748979
-1.155945 0.508643 8.173371
-1.154097 0.508244 8.508647
-1.101103 0.495894 8.668669
-1.012755 0.475314 9.037465
-0.949050 0.460490 9.468628
-0.871149 0.442348 9.843859
-1.657112 0.509800 4.490154
-1.649507 0.508537 4.443510
-1.388283 0.465315 4.678247
-1.204750 0.434994 5.328219
-1.071655 0.412993 5.672904
-0.737324 0.357678 6.004237
-0.643332 0.342121 6.036805
-0.492227 0.317129 6.271524
-0.502716 0.318951 7.173169
-0.758370 0.361292 7.373890
-0.999331 0.401195 7.511353
-1.134313 0.423586 7.994518
-1.087072 0.415750 7.829131
-1.223583 0.438425 8.633569
-1.320666 0.454526 8.937419
-1.214573 0.436992 9.245889
-1.011629 0.403397 9.262081
-1.501702 0.381437 3.942500
-1.457552 0.377119 4.317618
-1.497108 0.381042 4.561524
-1.440890 0.375524 4.822494
-1.224856 0.354271 5.297730
-0.907477 0.323023 5.742080
-0.715003 0.304052 5.794376
-0.653933 0.298093 6.447724
-0.645202 0.297269 6.842330
-0.507846 0.283714 6.697274
-0.836634 0.316212 7.582735
-1.095741 0.341739 7.397006
-1.134328 0.345591 7.906916
-1.171861 0.349304 8.036106
-1.132325 0.345426 8.252740
-1.205876 0.352731 8.823443
-1.097716 0.342097 9.132886
-0.952630 0.327812 9.326557
-0.912707 0.323922 9.819278
-1.374351 0.279286 4.297206
-1.502964 0.283687 4.468002
-1.327180 0.277709 4.629341
-1.085279 0.269495 4.986832
-0.919139 0.263898 5.707278
-0.725873 0.257314 5.759794
-0.650124 0.254787 6.353559
-0.471847 0.248720 6.470599
-0.523615 0.250545 7.109626
-0.847871 0.261605 7.167100
-1.122756 0.271001 7.424185
-1.111467 0.270647 7.757734
-1.165631 0.272512 7.946473
-1.196727 0.273614 8.398933
-1.218598 0.274367 8.469643
-1.241779 0.275224 9.189275
-1.036547 0.268229 9.206189
-1.418271 0.190820 4.478038
-1.469746 0.189339 4.781554
-1.415561 0.190953 5.044532
-1.190881 0.197581 5.464815
-1.009140 0.202921 5.575377
-0.754596 0.210409 5.826612
-0.653018 0.213432 6.300823
-0.474545 0.218677 6.417756
-0.525164 0.217253 7.057116
-0.895922 0.206402 7.294049
-1.123923 0.199723 7.373275
-1.159258 0.198699 7.503378
-1.270316 0.195512 8.248801
-1.364617 0.192775 8.553755
-1.291728 0.194922 8.654639
-1.315203 0.194271 9.049343
-1.094200 0.200778 9.332468
-0.834575 0.208408 9.499943
-0.675035 0.213156 10.243229
-1.219811 0.116814 4.439413
-1.301474 0.109056 4.921044
-1.162166 0.122399 5.263319
-0.894150 0.148026 5.450862
-0.724904 0.164213 5.621380
-0.646169 0.171792 6.213347
-0.440885 0.191406 6.207102
-0.627179 0.173680 7.001944
-0.837955 0.153543 7.023693
-1.125711 0.126078 7.339859
-1.225367 0.116590 7.703836
-1.182933 0.120665 7.918417
-1.308188 0.108736 8.340193
-1.252488 0.114073 8.497636
-1.254017 0.113958 8.832161
-1.131094 0.125758 9.408784
-0.956317 0.142496 9.814640
-0.721858 0.164920 10.046177
-1.157169 0.041942 3.988633
