-2.427788 -1.347670 9.610771
-2.441675 -1.434600 9.942271
-2.399300 -1.471391 10.114422
-2.412147 -1.622795 10.699271
-2.485245 -1.747618 11.140180
-2.405916 -1.751836 11.209075
-2.258147 -1.768560 11.372163
-2.234551 -1.940596 12.061923
-2.067034 -1.941523 12.176138
-1.987108 -2.065195 12.713551
-1.864439 -2.155284 13.147575
-1.720948 -2.229047 13.531363
-1.525918 -2.267063 13.809086
-1.450292 -2.436578 14.523314
-1.417923 -2.574530 15.085297
-1.198793 -2.542232 15.103379
-1.393916 -2.763700 15.842471
-1.187608 -2.790120 16.082197
-1.135544 -2.858045 16.382754
-1.155556 -2.966705 16.795368
-1.289634 -3.137278 17.375310
-1.168038 -3.208732 17.735595
-0.999144 -3.344214 18.378021
-2.713665 0.578123 1.024496
-2.614825 0.580801 1.111888
-2.515411 0.569403 1.254026
-2.415761 0.501386 1.614333
-2.523529 0.285183 2.340013
-2.519984 0.320419 2.207887
-2.430144 0.277295 2.462681
-2.459398 0.107591 3.086986
-2.361057 0.136218 3.073999
-2.401145 -0.022278 3.644452
-2.454436 -0.183671 4.213009
-2.366854 -0.187017 4.312458
-2.298440 -0.237645 4.574957
-2.315229 -0.277692 4.712510
-2.258330 -0.345792 5.030882
-2.221927 -0.447722 5.459209
-2.226492 -0.456534 5.488616
-2.276721 -0.693458 6.350930
-2.251695 -0.652587 6.218347
-2.352930 -0.812097 6.732266
-2.345880 -0.922281 7.163348
-2.294991 -0.965727 7.380882
-2.207296 -0.957993 7.437793
-2.266228 -1.036678 7.682416
-2.233529 -1.099321 7.955861
-2.323065 -1.305170 8.659708
-2.333278 -1.407190 9.042306
-2.315481 -1.474477 9.318895
-2.266079 -1.506094 9.489426
-2.200267 -1.519751 9.607048
-2.299037 -1.701039 10.207228
-2.274750 -1.753663 10.433794
-2.312270 -1.863907 10.821055
-2.141147 -1.847857 10.928423
-2.138393 -1.986843 11.466127
-2.124407 -2.109730 11.952962
-1.934441 -2.076540 12.012981
-1.841239 -2.191834 12.548893
-1.758717 -2.311213 13.089971
-1.660916 -2.413860 13.581751
-1.402679 -2.445874 13.960231
-1.263519 -2.511548 14.350571
-1.158007 -2.601151 14.799762
-1.028489 -2.615170 14.981746
-1.084166 -2.819772 15.714262
-0.960033 -2.836320 15.900656
-1.048417 -2.951867 16.258055
-0.940387 -3.030145 16.666142
-1.022727 -3.187249 17.189475
-1.080421 -3.323920 17.658518
-0.992279 -3.409508 18.075083
-2.640986 0.293452 1.440249
-2.644872 0.327375 1.307668
-2.538734 0.225172 1.828249
-2.537319 0.117437 2.235287
-2.538323 0.080682 2.372245
-2.554219 -0.104263 3.047486
-2.557423 -0.127353 3.130222
-2.453962 -0.031222 2.901376
-2.483921 -0.221220 3.577579
-2.400912 -0.247364 3.782406
-2.426553 -0.349846 4.134979
-2.373011 -0.458329 4.611703
-2.303921 -0.504660 4.874601
-2.284323 -0.448255 4.687588
-2.281923 -0.661335 5.492127
-2.229540 -0.728623 5.812418
-2.249880 -0.771985 5.949419
-2.203155 -0.841618 6.271275
-2.189509 -0.965934 6.756371
-2.194851 -0.975481 6.785428
-2.220472 -1.020573 6.922162
-2.289025 -1.258701 7.729884
-2.167095 -1.189635 7.626531
-2.192067 -1.342230 8.168449
-2.173337 -1.314993 8.090031
-2.236246 -1.509122 8.739505
-2.180815 -1.535004 8.907964
-2.233192 -1.697378 9.451507
-2.103682 -1.627399 9.354443
-2.125298 -1.832162 10.096887
-2.100545 -1.802946 10.018753
-2.032797 -1.892682 10.443190
-2.174976 -2.129241 11.150560
-2.115214 -2.141128 11.271938
-1.966751 -2.133723 11.434545
-1.895847 -2.278453 12.069880
-1.708696 -2.230423 12.129323
-1.745369 -2.471626 12.989509
-1.502943 -2.502246 13.415687
-1.094569 -2.375513 13.462906
-1.069693 -2.543511 14.126709
-1.066605 -2.663334 14.581360
-0.849612 -2.650407 14.811117
-0.885256 -2.799544 15.326339
-0.817067 -2.912590 15.839019
-0.638048 -2.929809 16.133446
-0.545311 -2.963187 16.377963
-0.787108 -3.215084 17.015223
-0.471872 -3.172763 17.260452
-0.321464 -3.261681 17.787858
-0.248329 -3.408210 18.432820
-2.480467 0.195198 1.284359
-2.565449 0.121736 1.417142
-2.569409 0.141641 1.338338
-2.541790 -0.047206 2.070216
-2.539950 -0.069263 2.153501
-2.442473 -0.200498 2.786344
-2.442342 -0.163982 2.653509
-2.442345 -0.186881 2.736936
-2.455556 -0.408011 3.521638
-2.359490 -0.333395 3.402240
-2.277182 -0.383647 3.715956
-2.223953 -0.566161 4.465406
-2.233586 -0.608141 4.603070
-2.239789 -0.633751 4.686532
-2.167789 -0.674893 4.950697
-2.098306 -0.717518 5.216268
-2.049043 -0.814065 5.646209
-2.071252 -0.876488 5.838396
-2.101833 -0.957306 6.084320
-2.134775 -1.038991 6.329653
-2.103642 -1.143822 6.761004
-2.137357 -1.365778 7.516178
-2.132805 -1.357064 7.491653
-2.088707 -1.412625 7.764071
-2.139418 -1.627442 8.466263
-2.086985 -1.538847 8.226685
-2.009401 -1.647791 8.746739
-1.990894 -1.730075 9.075906
-2.032915 -1.897701 9.619951
-2.025279 -1.985129 9.950607
-1.899608 -1.903933 9.854217
-1.853398 -2.029477 10.384964
-1.910152 -2.105992 10.573671
-1.913270 -2.283119 11.214073
-1.819960 -2.331097 11.536961
-1.787599 -2.450321 12.022703
-1.557503 -2.407703 12.232595
-1.328311 -2.365919 12.444088
-1.248096 -2.422480 12.777470
-1.172806 -2.554091 13.376470
-1.001910 -2.643340 13.972857
-0.782992 -2.609799 14.198082
-0.613382 -2.628685 14.536064
-0.708249 -2.856743 15.216421
-0.444947 -2.775814 15.339430
-0.558820 -3.013672 16.025327
-0.518014 -3.033262 16.161461
-0.397600 -3.092790 16.569448
-0.541408 -3.344699 17.259034
-0.364554 -3.290383 17.341808
-0.383856 -3.473833 17.979559
-2.591011 -0.010140 1.095296
-2.576096 -0.057004 1.287414
-2.445563 -0.182791 1.973259
-2.441562 -0.204653 2.057321
-2.424195 -0.327592 2.520389
-2.504302 -0.484028 2.917434
-2.415808 -0.432753 2.904331
-2.413170 -0.578512 3.419595
-2.413677 -0.602645 3.503127
-2.251655 -0.732868 4.263718
-2.172679 -0.765518 4.526536
-2.190793 -0.876413 4.880718
-2.199120 -0.920203 5.018369
-2.123303 -0.939795 5.229533
-2.114305 -0.897125 5.097065
-2.064641 -1.023831 5.634054
-2.036961 -1.193624 6.280551
-2.046082 -1.221995 6.362725
-2.037238 -1.194496 6.283080
-1.996740 -1.295657 6.713401
-1.994274 -1.479109 7.360306
-2.076114 -1.668836 7.870641
-2.002749 -1.661166 7.981751
-1.901668 -1.592694 7.932111
-1.886810 -1.708905 8.366905
-1.912135 -1.892816 8.963154
-1.988047 -2.033007 9.311216
-1.883580 -2.080925 9.675421
-1.852462 -2.026424 9.543130
-1.737581 -2.054174 9.856313
-1.753070 -2.290526 10.654654
-1.705069 -2.314326 10.828244
-1.736025 -2.456974 11.269441
-1.606973 -2.449390 11.485569
-1.546831 -2.540559 11.917846
-1.352799 -2.437692 11.922581
-1.094603 -2.417479 12.337341
-1.077011 -2.640307 13.150545
-0.817608 -2.532185 13.259808
-0.719942 -2.636986 13.810374
-0.503354 -2.584599 14.034253
-0.374585 -2.643513 14.482658
-0.311085 -2.708810 14.830674
-0.193145 -2.775469 15.285828
-0.162563 -2.875688 15.694202
-0.112261 -2.949879 16.048539
-0.116065 -3.148199 16.735702
-0.157191 -3.257272 17.040232
-0.178058 -3.402660 17.509996
0.037592 -3.405844 17.926664
-2.579056 -0.203696 1.145393
-2.571149 -0.223548 1.228877
-2.483336 -0.178247 1.262932
-2.452803 -0.264676 1.618148
-2.434227 -0.326289 1.864603
-2.382719 -0.576416 2.814422
-2.287612 -0.608989 3.125640
-2.380587 -0.592532 2.873099
-2.371629 -0.675927 3.172352
-2.283058 -0.664586 3.322135
-2.192212 -0.797098 3.960159
-2.199616 -0.971093 4.529159
-2.120898 -0.999457 4.791471
-2.054184 -1.100202 5.271546
-2.037314 -0.969253 4.867284
-1.968920 -1.053327 5.294903
-1.982122 -1.134723 5.540429
-1.915892 -1.188448 5.861469
-1.971358 -1.424847 6.538218
-1.990010 -1.493118 6.728070
-1.907918 -1.457360 6.782059
-1.874312 -1.580708 7.267860
-1.813139 -1.606885 7.485597
-1.868039 -1.762026 7.890480
-1.803404 -1.770490 8.056038
-1.773654 -1.865189 8.437387
-1.739505 -1.941426 8.766022
-1.739477 -2.087287 9.256247
-1.661241 -2.056519 9.318820
-1.705133 -2.278308 9.971026
-1.639967 -2.272387 10.089370
-1.612000 -2.337858 10.368712
-1.503885 -2.364416 10.687318
-1.536526 -2.532473 11.182825
-1.481041 -2.641306 11.666261
-1.295148 -2.525222 11.670521
-1.213316 -2.679868 12.363802
-1.108616 -2.696333 12.641244
-0.792546 -2.557807 12.846243
-0.564562 -2.557271 13.328090
-0.518005 -2.741400 14.045616
-0.307134 -2.675578 14.271767
-0.278049 -2.793268 14.728963
-0.133717 -2.820545 15.126812
0.028244 -2.821127 15.472355
0.108358 -2.859168 15.770143
-0.008382 -3.089479 16.296446
-0.008287 -3.228392 16.763460
0.084960 -3.243061 17.010573
0.073871 -3.455675 17.701533
0.367131 -3.345344 17.952891
-2.480045 -0.345141 1.085546
-2.509356 -0.512160 1.544933
-2.460715 -0.383536 1.253597
-2.401998 -0.519374 1.824986
-2.375543 -0.593889 2.124638
-2.320407 -0.800121 2.910661
-2.338727 -0.720671 2.614849
-2.303594 -0.890480 3.237458
-2.299927 -0.913680 3.319810
-2.215448 -0.879921 3.415129
-2.119356 -0.957266 3.890575
-2.111139 -1.113503 4.405672
-2.030687 -1.032846 4.342641
-1.948367 -1.104843 4.768134
-1.956280 -1.290543 5.338018
-1.882040 -1.318155 5.603418
-1.878035 -1.272920 5.469576
-1.823702 -1.452509 6.169190
-1.843952 -1.578815 6.521188
-1.772072 -1.575294 6.682214
-1.781755 -1.625581 6.818473
-1.758698 -1.829055 7.518903
-1.660387 -1.704613 7.359815
-1.614086 -1.789581 7.740157
-1.578766 -1.900179 8.175464
-1.564209 -2.060615 8.719063
-1.553423 -2.027520 8.639958
-1.572451 -2.264038 9.344354
-1.514682 -2.273924 9.514090
-1.485644 -2.356367 9.845068
-1.411549 -2.467307 10.374347
-1.359043 -2.482200 10.547348
-1.352275 -2.599292 10.934852
-1.267982 -2.540053 10.948936
-1.163413 -2.562856 11.271737
-0.983259 -2.542260 11.637990
-0.951884 -2.707337 12.236595
-0.781470 -2.696865 12.611616
-0.629599 -2.718807 13.045002
-0.421371 -2.731269 13.583329
-0.297456 -2.794742 14.081436
-0.119019 -2.664166 14.094839
0.057346 -2.722832 14.703348
0.203948 -2.737850 15.102155
0.289767 -2.766503 15.398593
0.294141 -2.927682 15.920155
0.277460 -3.036117 16.224035
0.268644 -3.207716 16.747042
0.362746 -3.214679 16.994543
0.484621 -3.253290 17.408929
0.557220 -3.435421 18.160363
-2.484192 -0.661181 1.379326
-2.494178 -0.643478 1.300304
-2.338825 -0.736426 1.985541
-2.308321 -0.810195 2.285673
-2.310750 -0.803965 2.260709
-2.188153 -0.872602 2.787414
-2.266550 -0.929745 2.751929
-2.228398 -1.068832 3.266949
-2.219677 -1.107041 3.403810
-2.104689 -1.273222 4.201444
-1.958734 -1.092456 4.045674
-1.941069 -1.250327 4.562906
-1.940328 -1.259457 4.592079
-1.857572 -1.293194 4.910056
-1.854398 -1.499551 5.533833
-1.783487 -1.598759 6.015958
-1.781086 -1.552151 5.883260
-1.706837 -1.540295 6.042916
-1.641204 -1.627096 6.474176
-1.644143 -1.657577 6.557362
-1.590860 -1.791873 7.097834
-1.535465 -1.870423 7.477597
-1.460890 -1.823875 7.534642
-1.528940 -2.164103 8.370610
-1.440302 -2.052128 8.269460
-1.300587 -1.995729 8.468212
-1.342561 -2.169059 8.874911
-1.307525 -2.267218 9.259683
-1.269779 -2.345248 9.591539
-1.227645 -2.401699 9.870565
-1.180573 -2.610278 10.616264
-1.101149 -2.544913 10.629927
-1.076959 -2.636187 10.965675
-0.941548 -2.571155 11.127378
-0.857596 -2.642385 11.560313
-0.704306 -2.667590 12.038100
-0.568936 -2.728461 12.575190
-0.415432 -2.738610 13.008634
-0.266530 -2.754271 13.446430
-0.025322 -2.560723 13.502719
0.149514 -2.627429 14.160866
0.167319 -2.802449 14.729611
0.257255 -2.821729 15.023329
0.467047 -2.696596 15.201149
0.520383 -2.786868 15.610459
0.533690 -2.950360 16.133011
0.591939 -3.111042 16.765221
0.699008 -3.173995 17.234186
0.739651 -3.185131 17.374148
0.839787 -3.255660 17.847501
-2.421460 -0.866270 1.362424
-2.386799 -0.919679 1.608708
-2.269723 -0.928968 1.970294
-2.272796 -0.923393 1.946151
-2.287262 -1.103801 2.400470
-2.232126 -1.001372 2.277211
-2.072315 -1.144781 3.130084
-2.084972 -1.109785 2.997572
-2.013335 -1.341082 3.838904
-1.997931 -1.405615 4.060488
-1.908292 -1.426852 4.376154
-1.835422 -1.367746 4.422873
-1.727190 -1.567642 5.282944
-1.735597 -1.488944 5.042514
-1.651023 -1.556693 5.471480
-1.576335 -1.536708 5.630939
-1.571058 -1.640247 5.930659
-1.497140 -1.680324 6.252983
-1.497647 -1.809333 6.606100
-1.430624 -1.876837 6.984016
-1.376373 -2.056170 7.632626
-1.310459 -2.047303 7.797455
-1.309410 -2.036936 7.771971
-1.283340 -2.324338 8.636713
-1.214164 -2.274043 8.697040
-1.148814 -2.247411 8.811426
-1.100391 -2.317073 9.141882
-1.050114 -2.365549 9.419431
-1.034839 -2.568035 10.019798
-0.896497 -2.460442 10.121183
-0.859726 -2.543838 10.455939
-0.854512 -2.738467 11.005830
-0.717725 -2.634704 11.113279
-0.644085 -2.754274 11.653290
-0.446682 -2.623339 11.860047
-0.373663 -2.726465 12.353077
-0.188216 -2.630037 12.620357
-0.097366 -2.812741 13.383285
0.185085 -2.574654 13.539666
0.271481 -2.746732 14.260605
0.434655 -2.699497 14.599157
0.582653 -2.689489 14.996468
0.617632 -2.841391 15.514365
0.746734 -2.753909 15.644500
0.743445 -2.987612 16.277380
0.876527 -2.997517 16.686599
1.003281 -2.914412 16.822025
1.014972 -3.094222 17.349782
-2.286212 -0.974838 1.322543
-2.246937 -1.025004 1.569390
-2.169749 -1.136627 2.087171
-2.135509 -1.192776 2.333479
-2.117042 -1.225066 2.471349
-1.987547 -1.276170 2.998842
-2.003534 -1.242763 2.865823
-1.980574 -1.291244 3.058123
-1.929432 -1.412665 3.520114
-1.809056 -1.497624 4.104304
-1.731755 -1.463597 4.257490
-1.625706 -1.546312 4.791869
-1.543386 -1.550673 5.056721
-1.548642 -1.525359 4.977082
-1.512004 -1.729973 5.602784
-1.516053 -1.703321 5.523513
-1.431378 -1.770518 5.953078
-1.354614 -1.804833 6.275845
-1.280308 -1.842718 6.599977
-1.207674 -1.904828 6.979653
-1.205018 -1.999551 7.225185
-1.138449 -1.983210 7.389585
-1.073594 -2.077463 7.825800
-1.009875 -2.087119 8.046546
-1.027686 -2.400289 8.776291
-0.957523 -2.273828 8.675856
-0.919609 -2.509430 9.383138
-0.873816 -2.606734 9.768198
-0.797191 -2.452271 9.617534
-0.702901 -2.591236 10.256580
-0.665224 -2.699961 10.645223
-0.611648 -2.703708 10.819873
-0.498472 -2.671563 11.088439
-0.486073 -2.876964 11.641344
-0.325450 -2.848036 12.064326
-0.140705 -2.704697 12.275044
0.022446 -2.654097 12.651521
0.151673 -2.734290 13.251074
0.316260 -2.663519 13.581439
0.496616 -2.530375 13.804162
0.640258 -2.531932 14.251148
0.780066 -2.539833 14.702202
0.894817 -2.624790 15.269037
0.973005 -2.669325 15.621809
1.060232 -2.681114 15.920410
1.072222 -2.919839 16.555553
1.179277 -2.864177 16.746309
1.255400 -3.024505 17.382846
1.365910 -3.077117 17.855555
1.626672 -2.946176 18.331821
-2.142143 -1.218630 1.667537
-2.155760 -1.202948 1.587622
-2.087774 -1.285369 1.995918
-1.990564 -1.256815 2.249731
-1.936769 -1.336062 2.604426
-1.932556 -1.342649 2.633061
-1.867211 -1.452966 3.095588
-1.807110 -1.570432 3.557066
-1.770965 -1.650373 3.855555
-1.689863 -1.623840 4.061201
-1.615411 -1.583445 4.213837
-1.589249 -1.654345 4.459270
-1.430070 -1.620216 4.903345
-1.422371 -1.645897 4.986429
-1.374018 -1.829069 5.557553
-1.288361 -1.871061 5.932563
-1.265616 -1.994572 6.285399
-1.207254 -1.908966 6.283464
-1.121959 -2.000825 6.769686
-1.038113 -2.143226 7.365086
-1.047216 -2.049189 7.123334
-0.965424 -2.242949 7.827773
-0.962491 -2.299062 7.963847
-0.896483 -2.396181 8.398798
-0.835126 -2.547915 8.941627
-0.774577 -2.391774 8.787868
-0.715891 -2.477040 9.172140
-0.657911 -2.492115 9.395888
-0.613408 -2.741368 10.103358
-0.506314 -2.773935 10.527284
-0.440880 -2.636817 10.432393
-0.410110 -2.883619 11.089390
-0.288744 -2.731329 11.143367
-0.179877 -2.693123 11.413577
-0.048011 -2.856969 12.214485
0.082078 -2.646299 12.165428
0.222643 -2.705599 12.759162
0.432565 -2.613749 13.239218
0.597152 -2.496640 13.513958
0.676956 -2.581662 13.966797
0.864143 -2.578763 14.572933
1.001364 -2.580337 15.025612
1.068070 -2.688475 15.487683
1.256927 -2.444334 15.555532
1.310865 -2.598231 16.078954
1.349420 -2.799676 16.659196
1.471042 -2.658118 16.738201
1.560291 -2.811571 17.376198
1.733180 -2.795051 17.904832
-2.164828 -1.267927 1.029730
-2.116909 -1.441779 1.541765
-1.990968 -1.432742 1.956317
-2.014938 -1.407061 1.822656
-1.835915 -1.471111 2.565606
-1.865593 -1.585875 2.693009
-1.799901 -1.519775 2.786566
-1.778008 -1.550955 2.924082
-1.654697 -1.576786 3.399283
-1.603574 -1.666340 3.753859
-1.524133 -1.633123 3.960357
-1.423995 -1.646704 4.331475
-1.335225 -1.861770 5.066198
-1.303411 -1.722405 4.896969
-1.227862 -1.698342 5.108393
-1.177794 -1.844777 5.573018
-1.137659 -1.980252 5.981623
-1.092354 -2.159955 6.496373
-1.058900 -1.993796 6.279231
-0.971007 -2.059145 6.711740
-0.886741 -2.131370 7.145532
-0.857198 -2.311074 7.606142
-0.789227 -2.330836 7.879118
-0.790567 -2.320612 7.854081
-0.655045 -2.401930 8.482113
-0.595353 -2.382777 8.648880
-0.583684 -2.538009 8.999187
-0.521628 -2.596111 9.328461
-0.408890 -2.531288 9.586176
-0.350239 -2.596655 9.918277
-0.293722 -2.666062 10.251120
-0.239171 -2.712311 10.530929
-0.187188 -2.817042 10.918792
-0.081720 -2.796507 11.240040
0.019487 -2.838377 11.671361
0.179055 -2.694257 11.931469
0.264107 -2.902388 12.639559
0.485344 -2.569286 12.733830
0.682331 -2.525901 13.323789
0.834105 -2.430186 13.653852
0.926789 -2.442148 13.996130
1.059243 -2.493991 14.554719
1.191582 -2.520420 15.062124
1.292166 -2.438949 15.244819
1.419485 -2.477289 15.758783
1.560880 -2.409168 16.108345
1.668529 -2.541283 16.742145
1.737635 -2.630266 17.157353
1.826392 -2.602090 17.405928
1.920225 -2.761891 18.047599
-2.006340 -1.469648 1.299633
-2.000286 -1.474292 1.329331
-1.876280 -1.579981 1.955893
-1.878309 -1.448392 1.720813
-1.689240 -1.640266 2.729332
-1.729636 -1.734832 2.748550
-1.698032 -1.630021 2.680141
-1.626217 -1.718058 3.089451
-1.565934 -1.648875 3.185315
-1.437362 -1.839082 3.974537
-1.328731 -1.859901 4.399168
-1.310184 -1.722657 4.227898
-1.203725 -1.927762 4.963818
-1.167679 -1.818482 4.903558
-1.079436 -1.821632 5.224667
-1.061086 -1.863830 5.363366
-0.961582 -1.907613 5.795106
-0.944817 -1.952387 5.932595
-0.891063 -2.108492 6.395146
-0.772080 -2.268163 7.097202
-0.737546 -2.134788 6.989818
-0.683149 -2.350933 7.558619
-0.627720 -2.300350 7.669320
-0.597873 -2.441801 8.020981
-0.486300 -2.355919 8.271399
-0.411922 -2.423805 8.654992
-0.330075 -2.570022 9.200914
-0.259065 -2.676643 9.639520
-0.201133 -2.686767 9.864278
-0.156359 -2.569168 9.820838
-0.079496 -2.820332 10.530629
-0.035612 -2.674864 10.435757
0.032200 -2.914221 11.092730
0.134904 -2.888454 11.415503
0.237032 -2.896255 11.794332
0.386268 -2.864030 12.272372
0.533035 -2.745974 12.592983
0.679180 -2.599548 12.862250
0.871077 -2.544831 13.453952
1.017032 -2.339100 13.619866
1.110532 -2.344215 13.963181
1.297124 -2.277385 14.514938
1.437454 -2.184697 14.856441
1.514473 -2.390381 15.488051
1.596866 -2.456652 15.897514
1.722048 -2.497804 16.416552
1.914366 -2.238388 16.655361
1.982998 -2.402754 17.185438
2.007837 -2.561722 17.549512
2.088268 -2.572778 17.856365
-1.834396 -1.535993 1.386225
-1.912607 -1.602269 1.193555
-1.779637 -1.695035 1.820325
-1.717969 -1.744947 2.121040
-1.695648 -1.639499 2.050001
-1.560115 -1.763593 2.731876
-1.523158 -1.801887 2.924294
-1.427348 -1.773438 3.237130
-1.372030 -1.839854 3.538400
-1.240609 -1.871694 4.070709
-1.244951 -1.865528 4.045674
-1.099231 -1.937184 4.688845
-1.072148 -1.825915 4.626940
-0.956694 -1.865128 5.110950
-0.901505 -1.969537 5.467072
-0.872543 -2.028034 5.659357
-0.749033 -2.122351 6.253407
-0.726870 -1.990203 6.142899
-0.619836 -2.260073 6.931695
-0.595863 -2.125308 6.824073
-0.515661 -2.146128 7.150948
-0.439855 -2.382542 7.775552
-0.442748 -2.372817 7.750693
-0.326059 -2.560445 8.455416
-0.286658 -2.464871 8.461911
-0.235929 -2.414637 8.576329
-0.122416 -2.649501 9.338101
-0.049057 -2.727847 9.723452
-0.004176 -2.658180 9.787943
0.075286 -2.795838 10.282242
0.111775 -2.674903 10.241038
0.245445 -2.850040 10.990357
0.329232 -2.674430 11.044415
0.400493 -2.836632 11.544137
0.508021 -2.898736 12.032177
0.643398 -2.736866 12.297002
0.773524 -2.515147 12.455254
0.915718 -2.451990 12.889047
1.099347 -2.317631 13.372356
1.241542 -2.337193 13.926623
1.379397 -2.332925 14.430138
1.510300 -2.157721 14.659005
1.602006 -2.242043 15.120899
1.734198 -2.259354 15.634902
1.863642 -2.055097 15.816061
1.863055 -2.384811 16.294073
1.945648 -2.496834 16.762617
2.071804 -2.421737 17.119720
2.154008 -2.422716 17.425103
2.314977 -2.454363 18.066388
-1.711988 -1.789628 1.452769
-1.766535 -1.760030 1.211377
-1.579027 -1.873529 2.054568
-1.506966 -1.808483 2.254828
-1.500668 -1.813164 2.284138
-1.346100 -1.941807 3.019169
-1.430417 -1.868283 2.614396
-1.311935 -1.974020 3.185942
-1.263562 -1.896422 3.281715
-1.117888 -2.054110 4.015973
-1.080225 -1.967346 4.060526
-0.980055 -1.958657 4.432004
-0.911469 -1.913640 4.641849
-0.885728 -1.949072 4.780215
-0.797761 -1.936424 5.100723
-0.743560 -2.020166 5.402479
-0.666995 -1.999489 5.670429
-0.535520 -2.083473 6.266665
-0.530614 -2.092816 6.295989
-0.472073 -2.208810 6.651007
-0.381434 -2.239352 7.030888
-0.326334 -2.365591 7.384481
-0.263050 -2.346335 7.603486
-0.165754 -2.239699 7.852442
-0.113934 -2.377578 8.206801
-0.036828 -2.409797 8.537071
0.031856 -2.423586 8.814280
0.135345 -2.558727 9.362240
0.201756 -2.581741 9.641305
0.254124 -2.557848 9.813466
0.338828 -2.662997 10.255740
0.433267 -2.829759 10.805268
0.501771 -2.647355 10.858295
0.600102 -2.602724 11.181825
0.720037 -2.676767 11.722801
0.810966 -2.612898 11.996236
0.932324 -2.438664 12.259798
1.093814 -2.517053 12.963935
1.236226 -2.173821 13.115140
1.385190 -2.208465 13.721753
1.527054 -2.222471 14.277824
1.654888 -2.141121 14.671856
1.752891 -2.217143 15.131584
1.860824 -1.962701 15.252660
1.960642 -2.086424 15.773638
2.094463 -2.143234 16.347851
2.242940 -1.855329 16.585171
2.334752 -1.964022 17.058548
2.382899 -2.073378 17.366434
2.474970 -2.280665 17.953109
-1.632694 -1.892722 1.137112
-1.523535 -1.941515 1.601613
-1.441232 -1.984798 1.957164
-1.384734 -2.017883 2.204003
-1.245003 -1.998537 2.731452
-1.274728 -1.977617 2.598699
-1.136133 -1.966897 3.128812
-1.093792 -2.118233 3.417665
-0.993384 -2.091625 3.786249
-0.859413 -2.106707 4.319558
-0.887305 -2.077244 4.186918
-0.856655 -1.988191 4.233004
-0.645922 -2.108497 5.151159
-0.570912 -2.079017 5.418631
-0.597670 -2.043616 5.285527
-0.522685 -2.015641 5.554137
-0.462749 -2.100393 5.856753
-0.367510 -2.111331 6.236057
-0.248026 -2.308963 6.862871
-0.165706 -2.316913 7.189488
-0.123687 -2.253291 7.300651
-0.108198 -2.282593 7.384929
-0.036559 -2.277976 7.659702
0.074608 -2.511639 8.283749
0.124672 -2.319832 8.320984
0.268840 -2.502450 9.031452
0.319338 -2.469684 9.200913
0.351732 -2.391710 9.262873
0.453712 -2.665305 9.883975
0.557305 -2.624923 10.253640
0.656886 -2.756487 10.748833
0.722263 -2.789419 11.030075
0.783721 -2.629120 11.137477
0.909205 -2.692278 11.677243
0.986736 -2.592019 11.896421
1.064297 -2.493528 12.117167
1.193985 -2.401658 12.546035
1.367540 -2.295174 13.133482
1.503581 -2.252713 13.627609
1.625435 -1.935086 13.840717
1.738568 -2.022728 14.352554
1.838432 -1.827176 14.580358
2.006608 -1.992933 15.370341
2.063420 -1.812746 15.443353
2.202736 -1.851387 16.016782
2.285918 -2.100502 16.544694
2.373526 -2.121214 16.902348
2.449060 -2.065373 17.150220
2.577492 -2.099121 17.677313
2.755232 -1.903369 18.207760
-1.506428 -2.004501 1.045011
-1.276241 -2.093290 1.998247
-1.191661 -2.136021 2.353783
-1.272630 -1.989383 1.958167
-1.213440 -2.018171 2.206396
-1.090648 -2.086674 2.725939
-1.045349 -2.115016 2.919210
-0.875174 -2.236891 3.653315
-0.851680 -2.144801 3.697743
-0.828139 -2.052792 3.742400
-0.619075 -2.126262 4.604417
-0.546116 -2.085222 4.870395
-0.473188 -2.047129 5.137791
-0.466385 -2.054533 5.168460
-0.417637 -1.992394 5.328030
-0.255940 -2.187363 6.066936
-0.183835 -2.162584 6.338048
-0.212434 -2.124430 6.205439
-0.094111 -2.165990 6.693300
-0.007492 -2.294218 7.101553
0.063373 -2.280388 7.373499
0.159243 -2.439025 7.834088
0.196056 -2.374805 7.945555
0.354000 -2.534200 8.651084
0.336318 -2.369315 8.495256
0.417112 -2.392534 8.825682
0.475925 -2.376347 9.048919
0.609527 -2.659129 9.723034
0.646680 -2.465816 9.768373
0.746929 -2.555041 10.209940
0.815307 -2.576649 10.490610
0.894862 -2.486168 10.756734
1.045793 -2.585096 11.403037
1.115399 -2.476835 11.620674
1.264716 -2.598663 12.272582
1.307582 -2.264116 12.266620
1.420258 -2.134984 12.643031
1.592209 -2.197693 13.353211
1.737971 -2.031222 13.840450
1.802668 -1.759022 13.953075
1.983829 -1.892555 14.736552
2.064302 -1.847359 15.029961
2.168480 -1.721838 15.374779
2.249074 -1.683357 15.672171
2.353563 -1.565434 16.022185
2.510048 -1.485055 16.596657
2.599798 -1.499026 16.957534
2.700516 -1.760412 17.490918
2.805037 -1.665377 17.853020
-1.286992 -2.126660 1.317027
-1.347146 -2.111753 1.074935
-1.218560 -2.146628 1.593134
-1.163543 -2.062907 1.792078
-1.075720 -2.096178 2.148183
-0.926714 -2.061660 2.731377
-0.808762 -2.230910 3.238400
-0.709615 -2.294169 3.646351
-0.798769 -2.132752 3.255390
-0.676804 -2.106725 3.733260
-0.647091 -2.022320 3.831659
-0.538079 -1.997364 4.258388
-0.347803 -2.158890 5.050564
-0.356506 -2.043718 4.989451
-0.271421 -2.123839 5.345506
-0.161148 -2.236322 5.808965
-0.168983 -2.119307 5.750868
-0.047638 -2.142998 6.237757
0.023293 -2.225999 6.538324
0.169695 -2.410963 7.161844
0.213993 -2.358324 7.325439
0.245799 -2.289367 7.435709
0.340820 -2.310444 7.817556
0.372951 -2.243721 7.929632
0.455550 -2.253353 8.259553
0.574457 -2.441920 8.774823
0.594647 -2.359125 8.835817
0.664605 -2.359968 9.113558
0.783897 -2.451953 9.608065
0.890434 -2.530806 10.048936
1.020705 -2.666391 10.597060
1.044935 -2.472565 10.648450
1.126999 -2.519594 10.984885
1.200201 -2.429020 11.254397
1.334041 -2.475475 11.796109
1.431984 -2.449408 12.178667
1.522371 -2.283031 12.498862
1.605341 -1.973087 12.756488
1.733493 -1.903620 13.248882
1.813691 -1.718261 13.524271
2.003717 -1.825437 14.302909
2.109548 -1.717739 14.697920
2.227996 -1.650253 15.152266
2.358967 -1.626132 15.666306
2.424696 -1.548931 15.909259
2.496681 -1.631549 16.213919
2.628396 -1.627853 16.735623
2.731338 -1.394865 17.090254
2.815359 -1.531009 17.455018
2.952650 -1.714202 18.041984
-1.162730 -2.111897 1.155788
-0.976062 -2.252831 1.887057
-1.078255 -2.227502 1.482882
-0.892728 -2.278497 2.216276
-0.830179 -2.200970 2.470544
-0.836271 -2.098951 2.453892
-0.746108 -2.135016 2.809474
-0.600757 -2.204186 3.381886
-0.524537 -2.245911 3.681646
-0.515615 -2.151071 3.724118
-0.478846 -2.072705 3.876019
-0.302545 -2.088136 4.575383
-0.184078 -2.176976 5.039523
-0.187765 -2.073621 5.032522
-0.166535 -2.090412 5.115637
0.049262 -2.277721 5.959210
0.088202 -2.213701 6.118674
0.183122 -2.206624 6.496351
0.259956 -2.287043 6.795686
0.271852 -2.198279 6.849526
0.390485 -2.330706 7.311094
0.388909 -2.226960 7.312514
0.499091 -2.255582 7.748189
0.623607 -2.310148 8.238896
0.636810 -2.224612 8.297688
0.700001 -2.308523 8.542560
0.880877 -2.459975 9.250032
0.881013 -2.356392 9.258244
0.992897 -2.420287 9.698068
1.063227 -2.425517 9.977129
1.183394 -2.410240 10.455729
1.212506 -2.353436 10.575608
1.319998 -2.325417 11.004785
1.433860 -2.421204 11.450112
1.570762 -2.461480 11.991091
1.548324 -2.098219 11.928830
1.653712 -1.976111 12.356616
1.760363 -1.860912 12.788910
1.954605 -1.931073 13.555513
2.016322 -1.624422 13.823439
2.097812 -1.469935 14.158666
2.228364 -1.536029 14.672508
2.326419 -1.425236 15.070316
2.469636 -1.423759 15.639483
2.543803 -1.376457 15.937677
2.607004 -1.417165 16.185783
2.737860 -1.402355 16.706820
2.837278 -1.199342 17.116876
2.975685 -1.445908 17.648563
3.050068 -1.298363 17.955039
-0.920441 -2.207283 1.400704
-0.932090 -2.304527 1.315330
-0.877883 -2.212739 1.566748
-0.722022 -2.339644 2.131623
-0.708662 -2.245410 2.222541
-0.517000 -2.303171 2.956912
-0.473889 -2.222850 3.159827
-0.351508 -2.274542 3.622751
-0.430212 -2.240311 3.325440
-0.299595 -2.203464 3.856726
-0.132203 -2.293433 4.482119
-0.217947 -2.150108 4.201088
0.033636 -2.208877 5.171946
0.051137 -2.126441 5.274464
0.103421 -2.163405 5.466222
0.166112 -2.115528 5.733424
0.218761 -2.156111 5.925162
0.282366 -2.113241 6.193955
0.395608 -2.209495 6.602730
0.445276 -2.160296 6.818981
0.574495 -2.281809 7.280709
0.655724 -2.269395 7.606863
0.783688 -2.310604 8.096097
0.745712 -2.269857 7.962437
0.843841 -2.283673 8.344796
0.927345 -2.285546 8.674171
1.058184 -2.348324 9.166047
1.174674 -2.401310 9.605162
1.260730 -2.420578 9.937587
1.331702 -2.422976 10.217201
1.387487 -2.314049 10.481787
1.459705 -2.322596 10.763839
1.565068 -2.289362 11.193827
1.590458 -2.234083 11.316555
1.665462 -2.160985 11.642635
1.808169 -2.103629 12.230009
1.838174 -1.872643 12.442028
2.002014 -1.860997 13.094470
2.034403 -1.636077 13.313464
2.137823 -1.439576 13.801779
2.240751 -1.339432 14.249191
2.397403 -1.341082 14.867839
2.434421 -1.128594 15.100104
2.556216 -1.169067 15.565248
2.626343 -1.115407 15.864188
2.781266 -1.324580 16.392089
2.853089 -1.280184 16.693990
2.894785 -1.081770 16.939058
3.081163 -1.183856 17.634616
3.154269 -0.864876 18.052613
-0.612652 -2.381572 1.785577
-0.505416 -2.394694 2.194692
-0.526154 -2.391635 2.115960
-0.434063 -2.312052 2.534205
-0.411668 -2.316739 2.618214
-0.243026 -2.360834 3.244322
-0.294537 -2.252036 3.123288
-0.227385 -2.272543 3.370428
-0.084742 -2.231938 3.957385
-0.000911 -2.267530 4.258550
0.038906 -2.194684 4.467693
0.141110 -2.155197 4.895906
0.104929 -2.046102 4.834960
0.269414 -2.137318 5.410130
0.312266 -2.074130 5.624012
0.416056 -2.140619 5.980366
0.444284 -2.071345 6.141622
0.678717 -2.242819 6.930851
0.757565 -2.219118 7.256224
0.684581 -2.160500 7.014378
0.912438 -2.264855 7.827352
1.010818 -2.268433 8.208913
1.086670 -2.339923 8.452482
1.001787 -2.174675 8.242696
1.135810 -2.217687 8.734411
1.288912 -2.288382 9.280240
1.254745 -2.168548 9.235065
1.479889 -2.327245 9.997426
1.411266 -2.167404 9.847160
1.544453 -2.150123 10.380011
1.563698 -2.089052 10.500144
1.700687 -2.085583 11.037672
1.757035 -2.071779 11.267888
1.952891 -2.155686 11.970955
1.925533 -1.873129 12.072216
2.047274 -1.788060 12.610292
2.077766 -1.583466 12.880050
2.224158 -1.541454 13.482685
2.233670 -1.228381 13.750403
2.347162 -1.147609 14.253104
2.483411 -1.105926 14.815886
2.542361 -0.951778 15.159622
2.667233 -0.982804 15.624428
2.667981 -0.740916 15.805493
2.781459 -0.920864 16.116124
2.993301 -1.105103 16.807724
3.081169 -1.010267 17.220712
3.128647 -0.848812 17.525036
3.196882 -0.643237 17.942910
-0.567353 -2.424513 1.259113
-0.419375 -2.421241 1.830495
-0.397632 -2.421856 1.913322
-0.327646 -2.330829 2.275643
-0.158521 -2.353372 2.901628
-0.150693 -2.354781 2.930225
-0.120951 -2.268417 3.133273
-0.082929 -2.276717 3.270676
0.117232 -2.242806 4.073891
0.172205 -2.261829 4.265330
0.256873 -2.118671 4.737656
0.308655 -2.053886 5.003099
0.435774 -2.028198 5.517478
0.560325 -2.094131 5.927710
0.599630 -2.032050 6.142473
0.794782 -2.151501 6.768629
0.871032 -2.119799 7.093940
0.984242 -2.199130 7.446850
0.923109 -2.074075 7.340894
1.188639 -2.193221 8.237511
1.345987 -2.164829 8.870708
1.544569 -2.185529 9.611658
1.665096 -2.144965 10.116047
1.778929 -2.104023 10.595130
1.736141 -1.984286 10.554117
1.872779 -1.971658 11.091597
2.123083 -2.091824 11.928718
2.120031 -1.713418 12.306441
2.199879 -1.357622 12.979109
2.237629 -1.179263 13.307573
2.298557 -1.030205 13.694845
2.448893 -0.994440 14.308719
2.649945 -0.959092 15.116833
2.781119 -0.769415 15.815553
3.094319 -0.841066 16.944026
-0.401140 -2.469437 1.110799
-0.296831 -2.454590 1.520837
-0.275127 -2.452355 1.605005
-0.153921 -2.445028 2.068118
-0.090692 -2.350655 2.431490
-0.023697 -2.353631 2.678020
0.014124 -2.356338 2.815814
0.235400 -2.386230 3.603086
0.307639 -2.313421 3.971154
0.238878 -2.210471 3.852477
0.407065 -2.252746 4.424566
0.386453 -2.161157 4.470667
0.547576 -2.129376 5.115939
0.511250 -2.032716 5.110098
0.604628 -2.068005 5.411830
0.653981 -2.005989 5.679795
0.872156 -2.106205 6.360893
0.801594 -1.991764 6.250937
0.971017 -2.077922 6.768629
1.099185 -2.071434 7.256646
1.028049 -1.952861 7.150099
1.111286 -2.001199 7.396357
1.338562 -2.067772 8.156735
1.323799 -1.982591 8.216093
1.328237 -1.910327 8.329876
1.527047 -1.975607 8.985545
1.498498 -1.954839 8.906714
1.722441 -2.050556 9.615429
1.830958 -2.065150 10.001608
1.816891 -1.910221 10.157375
1.825868 -1.846074 10.277215
2.022433 -1.942687 10.882346
2.138807 -1.906431 11.366297
2.108077 -1.739081 11.476453
2.229704 -1.713262 11.966010
2.178079 -1.526571 12.024040
2.306611 -1.443945 12.615820
2.304121 -1.236894 12.884977
2.329791 -0.990842 13.311894
2.425003 -0.885533 13.809578
2.500451 -0.763277 14.256148
2.677020 -0.753569 14.929494
2.636939 -0.511363 15.105359
2.814693 -0.577341 15.681346
2.802507 -0.367113 15.918518
3.003576 -0.533205 16.447048
3.088420 -0.503342 16.804489
3.175234 -0.477790 17.163501
3.249044 -0.374250 17.578775
3.392093 -0.294615 18.220818
-0.276641 -2.407149 1.020932
-0.189147 -2.486645 1.209255
-0.001569 -2.453286 1.943821
0.006028 -2.452390 1.972835
-0.000572 -2.453166 1.947634
0.122250 -2.442769 2.410035
0.271010 -2.350519 3.099398
0.188437 -2.348533 2.803098
0.302655 -2.352151 3.211538
0.493546 -2.285501 4.012168
0.385181 -2.183484 3.784697
0.486130 -2.113500 4.264488
0.642121 -2.064591 4.909722
0.566870 -2.046239 4.666553
0.607471 -1.973399 4.932072
0.859584 -2.049292 5.723379
0.905570 -1.986811 5.991616
0.879351 -1.977273 5.911994
0.926458 -1.916574 6.181406
1.045874 -1.964589 6.536628
1.096219 -1.910080 6.807736
1.314464 -2.013130 7.432105
1.466958 -2.019848 7.974353
1.386439 -1.903713 7.870809
1.463690 -1.873648 8.199831
1.594600 -1.949008 8.552356
1.655426 -1.914840 8.828459
1.863458 -1.977548 9.481272
1.844074 -1.895890 9.543521
1.973753 -1.915582 9.981949
2.019951 -1.880340 10.206737
1.994435 -1.727481 10.362329
2.153307 -1.776988 10.858246
2.243122 -1.713531 11.287054
2.267623 -1.601894 11.557155
2.386974 -1.567956 12.045183
2.436725 -1.416586 12.471377
2.443995 -1.295172 12.694847
2.401774 -1.068669 12.909393
2.433743 -0.843220 13.391343
2.470463 -0.687127 13.777940
2.613584 -0.629456 14.390713
2.658060 -0.485559 14.785642
2.756145 -0.455290 15.190572
2.806773 -0.321198 15.591900
2.805480 -0.138221 15.884247
3.073815 -0.343686 16.524054
3.156395 -0.308294 16.881057
3.298448 -0.336410 17.350691
3.307387 -0.169138 17.654664
3.364987 0.063012 18.240466
-0.019594 -2.501462 1.113982
0.013905 -2.490531 1.251688
0.101950 -2.465554 1.606489
0.164475 -2.450935 1.852528
0.242357 -2.436108 2.152577
0.292998 -2.428374 2.344054
0.313628 -2.331858 2.599335
0.456632 -2.322399 3.116541
0.557536 -2.321629 3.470270
0.521523 -2.233156 3.512536
0.581369 -2.148831 3.881578
0.694225 -2.074949 4.415856
0.609677 -1.981624 4.297890
0.702592 -1.993300 4.600099
0.841499 -1.936468 5.192947
0.939538 -1.958038 5.494258
1.033998 -1.904663 5.925374
1.154852 -1.940060 6.280078
1.218196 -1.885816 6.604213
1.304977 -1.916046 6.849776
1.313332 -1.846057 7.011837
1.342872 -1.857131 7.093940
1.592618 -1.888842 7.905619
1.543701 -1.797213 7.908824
1.636258 -1.839043 8.152526
1.695134 -1.729651 8.565778
1.897980 -1.832842 9.078001
1.958661 -1.799040 9.354024
1.998928 -1.755494 9.577284
2.107596 -1.752531 9.962283
2.219339 -1.754929 10.347837
2.275624 -1.662871 10.719130
2.346389 -1.645072 10.999976
2.217686 -1.437462 10.944865
2.279515 -1.352365 11.322297
2.467714 -1.355823 11.972752
2.463027 -1.230995 12.193411
2.553763 -1.114741 12.730920
2.572571 -0.949656 13.110039
2.482912 -0.646204 13.373219
2.642960 -0.591047 14.036692
2.562786 -0.354406 14.206127
2.650618 -0.249353 14.712232
2.860035 -0.303778 15.339986
2.843298 -0.119984 15.630538
2.916883 -0.012436 16.091639
2.932786 0.030167 16.228055
3.101117 -0.002827 16.753069
3.213239 0.009360 17.167637
3.391115 -0.040115 17.694678
3.277141 0.389165 18.111888
0.230274 -2.476104 1.302815
0.453526 -2.404985 2.199771
0.475155 -2.399814 2.282923
0.468590 -2.401354 2.257747
0.480679 -2.302741 2.512774
0.744041 -2.268222 3.463299
0.629525 -2.279011 3.059182
0.820771 -2.178380 3.914055
0.794689 -2.093471 4.012359
0.868887 -2.011317 4.437953
0.928828 -2.014569 4.630090
0.939544 -1.934478 4.840200
1.040483 -1.866388 5.324028
1.068111 -1.870186 5.407580
1.250681 -1.826108 6.110406
1.279741 -1.832214 6.193689
1.415795 -1.791500 6.734584
1.505417 -1.815670 6.979798
1.468811 -1.734531 7.034910
1.621240 -1.780114 7.442216
1.668264 -1.726609 7.715076
1.759608 -1.690683 8.096939
1.856623 -1.726621 8.341086
1.866117 -1.664207 8.508620
1.987010 -1.647831 8.946103
1.976746 -1.579087 9.061760
2.149574 -1.591784 9.608515
2.141464 -1.525385 9.726221
2.370659 -1.574478 10.381025
2.371185 -1.453533 10.646271
2.366475 -1.390844 10.767198
2.444751 -1.312892 11.197189
2.543224 -1.308007 11.535119
2.655804 -1.255838 12.022957
2.681221 -1.098848 12.449462
2.522298 -0.833198 12.500025
2.746360 -0.800578 13.315795
2.719421 -0.561457 13.747225
2.533706 -0.276985 13.749752
2.666160 -0.197188 14.363832
2.837650 -0.149440 15.037830
2.652258 0.137829 15.047521
2.747317 0.180331 15.456062
2.999507 0.161464 16.253145
3.044551 0.181249 16.445959
3.020697 0.354794 16.744774
3.264573 0.225733 17.274147
0.345777 -2.487168 1.004261
0.389489 -2.464134 1.197798
0.551039 -2.392822 1.879643
0.581028 -2.281400 2.243783
0.644508 -2.262321 2.490068
0.738608 -2.238389 2.844634
0.878726 -2.301974 3.132519
0.813652 -2.222739 3.119080
0.882370 -2.210882 3.364411
0.895023 -2.120422 3.623175
1.040664 -2.023074 4.317863
1.043399 -1.940490 4.526306
1.064785 -1.859195 4.790427
1.233330 -1.864698 5.308463
1.169288 -1.783525 5.302971
1.288665 -1.792300 5.658085
1.318388 -1.720295 5.926011
1.540740 -1.751690 6.551031
1.379764 -1.654556 6.278566
1.635696 -1.629360 7.146377
1.605648 -1.623072 7.066863
1.793015 -1.598164 7.717816
1.688099 -1.504923 7.612667
1.806246 -1.535065 7.912203
1.896712 -1.494718 8.295029
2.059084 -1.480862 8.840443
2.162925 -1.515556 9.083867
2.171247 -1.456337 9.253389
2.154056 -1.327042 9.512034
2.309523 -1.325058 10.006954
2.521281 -1.352247 10.608750
2.486418 -1.279198 10.675593
2.531585 -1.183151 11.050380
2.659945 -1.127791 11.588992
2.547582 -1.019362 11.497114
2.636420 -0.893191 12.082465
2.679018 -0.748995 12.565655
2.670919 -0.581758 12.944765
2.637707 -0.402875 13.272887
2.652143 -0.197273 13.815872
2.566018 0.007896 14.040782
2.573245 0.161528 14.435291
2.806177 0.184295 15.224714
2.696339 0.401457 15.403887
2.825121 0.426887 15.871411
2.992795 0.425343 16.396281
2.922389 0.617683 16.639707
3.060327 0.679015 17.222964
3.109168 0.696705 17.419741
3.368529 0.624752 18.063300
0.659530 -2.385968 1.471643
0.629922 -2.403011 1.339088
0.800457 -2.315249 2.074681
0.807802 -2.311994 2.104953
0.736230 -2.239644 2.088895
0.945149 -2.257997 2.652665
0.973706 -2.152761 3.018534
1.070898 -2.126640 3.373710
1.076260 -2.035410 3.633981
1.211801 -2.010830 4.097543
1.189924 -1.929268 4.251982
1.119133 -1.854734 4.244067
1.182784 -1.764485 4.672728
1.269740 -1.678694 5.157812
1.261862 -1.679051 5.133744
1.430270 -1.600473 5.838475
1.421945 -1.600323 5.814454
1.644890 -1.610369 6.441642
1.655029 -1.540438 6.658839
1.686417 -1.543301 6.743255
1.844289 -1.493323 7.340414
1.817732 -1.422548 7.452206
1.893916 -1.434147 7.644638
2.067203 -1.400445 8.243397
2.021436 -1.327703 8.304099
2.159500 -1.294893 8.797124
2.138407 -1.228324 8.913673
2.213018 -1.185688 9.246866
2.438470 -1.187900 9.902409
2.346127 -1.102722 9.859790
2.505966 -1.092701 10.355620
2.542059 -1.047235 10.583386
2.631244 -0.964843 11.065902
2.591256 -0.840372 11.282219
2.718564 -0.777483 11.824310
2.740363 -0.678581 12.153368
2.655345 -0.486260 12.419441
2.638509 -0.269475 12.951129
2.589967 -0.093852 13.279461
2.730984 -0.000845 13.942502
2.565180 0.223388 14.057087
2.541678 0.434865 14.554987
2.656723 0.481484 15.017491
2.797095 0.561429 15.643627
2.705320 0.750667 15.881609
2.967133 0.621541 16.303646
2.915366 0.789638 16.602344
3.129177 0.773319 17.185917
3.203899 0.826434 17.547524
3.154666 1.036359 17.965773
0.745465 -2.395595 1.028669
0.830790 -2.334038 1.439197
0.872699 -2.306735 1.632351
0.965395 -2.252317 2.042289
0.985130 -2.241702 2.126755
1.165702 -2.158113 2.860436
1.302539 -2.108652 3.376235
1.139144 -2.070966 3.040341
1.149557 -1.972360 3.354089
1.248241 -1.942235 3.710026
1.297380 -1.841647 4.134974
1.386003 -1.739969 4.670606
1.276235 -1.676582 4.555139
1.425708 -1.574278 5.258293
1.508235 -1.566219 5.506362
1.611242 -1.558881 5.808118
1.535749 -1.488597 5.805950
1.680253 -1.482693 6.216564
1.803888 -1.411714 6.758691
1.728945 -1.340752 6.759983
1.926505 -1.348329 7.276066
1.915069 -1.280949 7.439939
2.100699 -1.296605 7.900151
2.182989 -1.242367 8.281228
2.108318 -1.170401 8.286169
2.235444 -1.187154 8.583880
2.457310 -1.103634 9.429817
2.334356 -1.022051 9.331101
2.611671 -1.019983 10.092293
2.461578 -0.930601 9.942245
2.673627 -0.922209 10.544005
2.707090 -0.875267 10.770996
2.737164 -0.774155 11.145544
2.771818 -0.676436 11.522744
2.811083 -0.582166 11.902517
2.854985 -0.491399 12.284783
2.667357 -0.279202 12.387978
2.751383 -0.152497 12.983523
2.627528 0.039186 13.201017
2.638902 0.234661 13.797753
2.661250 0.422398 14.401981
2.647460 0.572067 14.797611
2.624009 0.676441 15.035834
2.722581 0.780420 15.605220
2.811774 0.838216 16.015399
2.869506 0.906903 16.371419
2.930938 0.972676 16.729079
3.109016 0.986994 17.255475
3.103112 1.078718 17.504875
3.193385 1.215227 18.145810
1.029808 -2.377812 1.092760
1.056396 -2.354592 1.230779
1.028146 -2.251098 1.482457
1.133649 -2.292583 1.614831
1.156243 -2.159424 2.084631
1.237259 -2.109829 2.439425
1.362559 -2.043530 2.955811
1.397459 -2.027033 3.093521
1.329332 -1.959341 3.135163
1.603217 -1.855159 4.137294
1.414297 -1.829273 3.749836
1.584401 -1.688730 4.607932
1.469966 -1.634729 4.492331
1.454009 -1.554650 4.701683
1.565063 -1.528846 5.056933
1.826245 -1.483792 5.843839
1.670779 -1.430857 5.623302
1.792194 -1.413751 5.977183
2.004806 -1.322988 6.785849
1.944094 -1.257230 6.839848
1.995961 -1.254620 6.976423
2.104639 -1.184508 7.463488
2.159209 -1.184193 7.599625
2.232971 -1.120645 7.979815
2.404433 -1.065575 8.575634
2.395127 -1.004250 8.743176
2.362869 -0.941699 8.857679
2.331086 -0.879363 8.972693
2.497504 -0.836079 9.519394
2.519244 -0.781110 9.744072
2.725942 -0.752506 10.344914
2.862194 -0.719530 10.784859
2.921281 -0.676358 11.065378
2.926805 -0.624541 11.240099
2.748235 -0.329291 11.715423
2.782291 -0.233439 12.097667
2.788663 -0.083300 12.580062
2.646385 0.148518 12.948133
2.828391 0.250123 13.714695
2.661657 0.437188 13.883107
2.568566 0.652443 14.321527
2.645626 0.772057 14.884130
2.756214 0.832348 15.345406
2.597587 1.016485 15.524801
2.754293 1.059560 16.046795
2.881730 1.108420 16.514273
2.900912 1.190297 16.816245
3.039538 1.231207 17.286734
1.319631 -2.321691 1.224312
1.223452 -2.279052 1.150677
1.299260 -2.206185 1.559294
1.347717 -2.164172 1.805457
1.504119 -2.047723 2.536921
1.611823 -1.981081 2.996021
1.436027 -1.981436 2.603651
1.545041 -1.915170 3.064426
1.539223 -1.816792 3.375401
1.675192 -1.752362 3.890115
1.663403 -1.665486 4.149928
1.622863 -1.591650 4.302825
1.631266 -1.501093 4.619694
1.660159 -1.407367 4.992589
1.843019 -1.357505 5.563684
1.703344 -1.314066 5.395891
1.969480 -1.254717 6.183539
2.076106 -1.236241 6.481649
1.951117 -1.184974 6.372312
2.043701 -1.099905 6.858436
2.039854 -1.031434 7.075325
2.134584 -1.021096 7.320166
2.384622 -1.001738 7.940316
2.389232 -0.938304 8.159437
2.492772 -0.934628 8.401951
2.356984 -0.815250 8.492843
2.631908 -0.813335 9.110940
2.645880 -0.755246 9.333295
2.614718 -0.639463 9.645175
2.808701 -0.648397 10.047432
2.883513 -0.598289 10.378899
2.837110 -0.486661 10.643182
2.974973 -0.446054 11.083672
2.935443 -0.337759 11.352276
2.881067 -0.280090 11.421154
2.992213 -0.191344 11.960693
2.984526 -0.040778 12.439340
2.796773 0.134258 12.597854
2.636501 0.354160 12.965247
2.710797 0.486663 13.566856
2.528870 0.707724 13.889875
2.691960 0.817171 14.613163
2.621307 0.968307 14.953568
2.727312 1.036455 15.413848
2.591530 1.199601 15.648862
2.632849 1.279088 16.002528
2.678250 1.356331 16.357891
2.704834 1.479859 16.823774
2.839473 1.531950 17.294902
2.940514 1.590180 17.711479
1.374641 -2.201288 1.043716
1.414987 -2.153342 1.288682
1.486827 -2.076424 1.695695
1.532891 -2.031852 1.940290
1.570264 -1.998007 2.130732
1.775153 -1.841380 3.074998
1.598817 -1.854262 2.683082
1.653624 -1.814660 2.927751
1.638820 -1.716195 3.238400
1.823672 -1.609945 3.969322
1.845730 -1.598685 4.051647
1.715445 -1.475585 4.219771
1.747282 -1.370505 4.645153
1.704315 -1.300981 4.800426
1.844981 -1.246981 5.263964
1.975372 -1.203297 5.671651
2.148713 -1.153380 6.185476
2.058497 -1.102495 6.183328
2.202153 -1.066945 6.589079
2.112077 -1.015719 6.588380
2.405923 -0.957135 7.369568
2.295277 -0.908879 7.318088
2.332830 -0.836075 7.643342
2.610355 -0.800115 8.314288
2.590052 -0.740376 8.480454
2.737426 -0.667898 9.020975
2.576511 -0.620167 8.868635
2.756820 -0.550300 9.465045
2.616727 -0.441923 9.563026
2.940746 -0.433230 10.231485
2.932599 -0.378882 10.402996
2.905366 -0.271388 10.720315
2.928276 -0.218742 10.947147
2.850631 -0.112374 11.161250
2.890735 -0.010480 11.591925
2.847955 0.092798 11.864059
2.807877 0.195110 12.138183
2.822959 0.341886 12.674452
2.842793 0.532074 13.369903
2.614282 0.694661 13.480756
2.585443 0.884699 14.079785
2.462761 1.036231 14.361013
2.629404 1.152177 15.089519
2.547905 1.251858 15.272945
2.623991 1.373329 15.842084
2.739015 1.442448 16.307275
2.716490 1.573784 16.716155
2.805128 1.643074 17.129941
2.776795 1.731272 17.378497
2.999858 1.772883 17.961634
1.717637 -2.029376 1.414157
1.658158 -2.113479 1.012077
1.761612 -1.973776 1.687625
1.658443 -1.946950 1.615042
1.737696 -1.855468 2.076332
1.772885 -1.818672 2.267320
1.774001 -1.689085 2.737992
1.897181 -1.587804 3.306965
1.941259 -1.555128 3.497658
1.846642 -1.515319 3.486112
1.905166 -1.474126 3.731372
1.919141 -1.363738 4.153730
2.062679 -1.192200 5.010363
1.921311 -1.174523 4.841868
2.073517 -1.101022 5.358057
1.978997 -1.059362 5.353368
2.158742 -0.983523 5.923298
2.150630 -0.986709 5.898434
2.294010 -0.858654 6.597483
2.381300 -0.830937 6.841289
2.267779 -0.793971 6.788375
2.373137 -0.692595 7.328381
2.466887 -0.668064 7.571282
2.632326 -0.564672 8.217374
2.533711 -0.586022 7.977985
2.595117 -0.508989 8.357652
2.638829 -0.438436 8.684785
2.758887 -0.358044 9.173045
2.862939 -0.285010 9.608366
2.714009 -0.190026 9.707135
2.775017 -0.126075 10.038818
2.760282 -0.017103 10.408848
2.775638 0.038646 10.635795
3.018022 0.109608 11.291073
2.933944 0.207584 11.507302
2.851578 0.305222 11.725118
2.937112 0.457847 12.417949
2.956921 0.555203 12.802751
2.604690 0.742282 12.900433
2.555623 0.885232 13.336943
2.540640 1.072370 13.989362
2.473836 1.210888 14.380671
2.448344 1.346955 14.831037
2.576901 1.430919 15.346197
2.453511 1.567399 15.637091
2.371032 1.701367 15.986161
2.474560 1.738340 16.290156
2.550367 1.817910 16.702684
2.632204 1.895153 17.116708
2.761709 1.966434 17.587538
2.625866 2.220769 18.284349
1.956790 -1.764493 2.096601
1.985295 -1.730492 2.262896
2.159108 -1.437144 3.596984
2.131417 -1.349435 3.884715
2.047253 -1.305950 3.929092
2.127556 -1.149902 4.621807
2.179844 -1.026267 5.154814
2.374004 -0.844695 6.101370
2.402402 -0.754471 6.476720
2.287598 -0.725762 6.423363
2.427986 -0.596502 7.100230
2.836018 -0.402211 8.392524
2.730918 -0.241635 8.843395
2.802488 -0.105383 9.450258
2.823320 0.014212 9.924344
2.962539 0.094436 10.417117
2.926617 0.609178 12.282381
2.589411 0.872102 12.790238
2.246958 1.460119 14.500467
2.678199 1.819014 16.437647
2.718047 1.943509 16.956499
2.695406 2.107177 17.533929
2.585267 2.230561 17.839372
2.065948 -1.827946 1.257070
2.044309 -1.671416 1.830172
1.945651 -1.647129 1.813055
2.163227 -1.507338 2.588469
2.149990 -1.523812 2.510890
2.294246 -1.361434 3.290891
2.173760 -1.357623 3.171367
2.085075 -1.320950 3.212598
2.179863 -1.228023 3.672596
2.253978 -1.054731 4.416193
2.183634 -1.111234 4.122356
2.161669 -1.022278 4.437292
2.229540 -0.874195 5.077766
2.237445 -0.868884 5.106823
2.259245 -0.763427 5.533412
2.223201 -0.697257 5.745751
2.451469 -0.572784 6.474625
2.460990 -0.567983 6.503533
2.616209 -0.493541 6.960249
2.709499 -0.380352 7.495884
2.493552 -0.400632 7.178230
2.551408 -0.304272 7.610229
2.513198 -0.249889 7.775190
2.889145 -0.114195 8.711194
2.835762 -0.068645 8.825573
2.898969 0.012734 9.206375
2.943839 0.085760 9.534902
2.797443 0.103322 9.439008
2.945268 0.202615 9.982308
2.837376 0.288831 10.191180
3.113778 0.354913 10.750844
2.904308 0.416139 10.751348
3.025081 0.548851 11.392044
2.900638 0.628165 11.556167
2.751619 0.754039 11.870575
2.840407 0.870848 12.415012
2.795938 1.010706 12.899103
2.581671 1.170672 13.270975
2.419646 1.289928 13.545667
2.463773 1.436191 14.152777
