-1.208620 2.289044 1.166601
-1.224540 2.314666 1.697502
-1.225652 2.316453 1.728507
-1.258775 2.369665 2.480167
-1.199178 2.274250 2.354215
-1.228224 2.320877 2.885224
-1.177460 2.239644 2.927667
-1.099886 2.115609 3.374431
-1.114214 2.138592 3.573676
-1.076939 2.078993 3.787328
-1.126885 2.159086 4.378747
-1.087895 2.096728 4.539169
-1.060451 2.052877 4.812957
-1.110532 2.133157 5.292917
-1.068307 2.065607 5.400717
-1.124201 2.155191 5.880296
-1.266085 2.382449 6.555171
-1.234484 2.331919 6.722258
-1.211463 2.295134 6.945790
-1.240424 2.341634 7.503666
-1.177111 2.240289 7.451787
-1.226045 2.318688 7.760841
-1.207857 2.289640 7.988070
-1.178989 2.243567 8.470094
-1.225686 2.318454 9.034052
-1.221078 2.311072 9.009551
-1.158970 2.211742 9.275147
-1.170038 2.229548 9.619766
-1.265836 2.383063 10.353760
-1.174480 2.236880 10.460566
-1.181493 2.248183 10.752868
-1.232992 2.330796 11.475319
-1.143468 2.187547 11.587135
-1.130699 2.167286 12.246070
-0.966280 1.904153 12.292345
-0.870304 1.750692 12.836955
-0.842476 1.706305 13.400850
-0.693612 1.468084 13.510481
-0.752187 1.562000 14.151882
-0.692279 1.466288 14.777639
-0.695904 1.472201 15.195174
-0.702840 1.483413 15.614677
-0.657769 1.411345 15.862901
-0.549749 1.238528 16.106150
-0.621332 1.353253 16.706793
-0.561398 1.257383 16.902328
-1.441352 2.249352 0.718758
-1.397478 2.190610 1.363673
-1.410756 2.208519 1.727422
-1.399494 2.193330 1.424862
-1.353702 2.131948 1.795627
-1.448400 2.259231 2.484276
-1.411876 2.210290 2.857910
-1.343540 2.118528 2.732633
-1.297341 2.056560 2.941954
-1.273686 2.024922 3.432848
-1.309643 2.073290 3.855222
-1.285263 2.040653 4.237165
-1.223837 1.958193 4.228280
-1.305393 2.067853 4.987652
-1.250371 1.994003 5.037713
-1.215659 1.947458 5.256753
-1.254886 2.000189 5.568388
-1.281160 2.035507 5.767311
-1.265958 2.015178 6.100743
-1.362807 2.145339 6.745916
-1.394527 2.187967 6.943402
-1.312146 2.077439 7.194675
-1.278917 2.032873 7.364687
-1.394788 2.188568 8.008907
-1.333101 2.105762 8.013902
-1.346423 2.123739 8.409811
-1.398195 2.193369 8.973542
-1.416161 2.217507 9.058329
-1.395302 2.189621 9.544991
-1.448584 2.261267 10.053932
-1.331281 2.103812 10.101329
-1.349942 2.128944 10.446855
-1.359075 2.141335 10.999405
-1.271521 2.023842 11.164245
-1.335907 2.110444 11.890688
-1.134892 1.840602 11.877793
-1.108209 1.804928 12.487782
-1.022014 1.689313 12.876323
-0.851026 1.459859 13.199143
-0.788051 1.375430 13.653828
-0.710990 1.272079 14.054935
-0.842460 1.448756 14.875118
-0.657585 1.200597 14.936838
-0.743586 1.316197 15.589839
-0.599888 1.123343 15.772667
-0.676241 1.225979 16.373109
-0.672498 1.221043 16.742091
-0.671565 1.219878 17.112784
-0.673462 1.222513 17.485131
-1.601131 2.133986 0.578106
-1.598171 2.130519 0.331383
-1.543636 2.067743 0.974887
-1.552667 2.078228 1.283160
-1.551838 2.077265 1.257984
-1.507421 2.026139 1.795192
-1.519974 2.040676 2.048409
-1.465664 1.978065 2.254625
-1.508351 2.027450 2.898727
-1.477041 1.991422 3.331699
-1.445195 1.954764 3.711120
-1.405476 1.909001 3.980547
-1.386262 1.886792 3.786890
-1.415858 1.921127 4.674895
-1.355110 1.851055 4.723609
-1.423346 1.929892 5.259240
-1.412488 1.917348 5.177854
-1.406736 1.910807 5.621380
-1.411149 1.915905 5.652025
-1.393472 1.895584 5.985120
-1.507259 2.027007 6.686525
-1.439558 1.948902 6.686565
-1.544679 2.070303 7.273377
-1.508320 2.028393 7.441561
-1.585549 2.117646 8.166962
-1.529348 2.052821 8.226731
-1.497086 2.015639 8.398272
-1.477858 1.993506 8.626431
-1.498308 2.017184 9.022944
-1.563555 2.092578 9.587079
-1.579511 2.111059 9.929466
-1.537747 2.062961 10.310198
-1.529682 2.053706 10.544073
-1.431876 1.940906 10.705894
-1.461525 1.975243 11.317408
-1.432996 1.942414 11.708258
-1.356655 1.854392 11.933419
-1.310431 1.801183 12.485338
-1.252962 1.734991 12.986231
-0.991037 1.432840 13.080824
-0.998810 1.441954 13.764036
-0.875157 1.299362 14.049311
-0.835714 1.253971 14.569404
-0.859451 1.281457 15.044654
-0.699942 1.097477 15.223352
-0.821281 1.237615 15.936716
-0.846178 1.266392 16.192684
-0.793429 1.205592 16.443729
-0.727676 1.129863 17.036105
-0.724196 1.125965 17.579643
-0.544199 0.918376 17.889418
-1.836126 2.064048 0.289059
-1.770764 2.000021 0.709671
-1.698925 1.929555 0.688626
-1.652724 1.884400 1.504340
-1.639346 1.871207 1.145734
-1.650728 1.882433 1.456426
-1.615179 1.847704 2.165165
-1.620608 1.853047 2.252880
-1.629958 1.862246 2.396395
-1.581201 1.814487 2.717743
-1.545014 1.779079 3.153295
-1.557969 1.791815 3.297389
-1.534709 1.769097 3.791712
-1.505040 1.740073 4.176038
-1.451689 1.687776 4.337038
-1.535910 1.770513 4.987751
-1.462207 1.698220 4.980660
-1.584458 1.818290 5.796825
-1.598447 1.832028 5.882698
-1.630787 1.863870 6.494837
-1.626087 1.859254 6.468887
-1.562313 1.796713 6.523432
-1.551012 1.785695 6.858906
-1.656998 1.889756 7.391934
-1.690376 1.922594 7.895976
-1.604173 1.838033 7.843761
-1.592504 1.826643 8.127147
-1.596215 1.830350 8.467565
-1.768568 1.999540 9.165306
-1.685727 1.918337 9.430311
-1.641534 1.875015 9.550725
-1.628048 1.861834 9.783402
-1.581093 1.815854 10.165448
-1.704025 1.936565 10.846972
-1.650814 1.884439 11.178795
-1.618514 1.852835 11.569029
-1.479986 1.716971 11.625320
-1.360688 1.600076 12.218274
-1.235525 1.477376 12.548102
-1.068987 1.314114 12.982929
-0.970514 1.217606 13.378490
-1.003827 1.250385 13.905554
-0.892225 1.140989 14.250937
-0.806115 1.056609 14.657920
-0.856800 1.106429 15.194565
-0.731660 0.983746 15.491889
-0.916182 1.164819 15.931052
-1.010317 1.257270 16.529336
-0.868853 1.118565 16.777991
-0.781629 1.033084 17.145143
-0.803454 1.054644 17.921364
-1.831405 1.797628 0.490927
-1.832821 1.798843 0.577615
-1.839701 1.804729 0.886718
-1.860644 1.822579 1.473460
-1.852685 1.815801 1.282292
-1.810951 1.780578 1.987298
-1.758789 1.736459 2.361505
-1.761009 1.738346 2.392689
-1.808440 1.778635 2.981402
-1.715942 1.700244 2.799935
-1.694839 1.682478 3.402438
-1.640025 1.636083 3.614958
-1.730369 1.712756 4.374161
-1.644609 1.640095 4.309462
-1.626520 1.624853 4.750836
-1.689009 1.677867 5.174352
-1.593241 1.596718 5.056116
-1.735688 1.717550 5.928340
-1.686938 1.676283 6.093739
-1.723571 1.707352 6.292296
-1.718826 1.703328 6.266950
-1.772067 1.748554 6.937074
-1.752189 1.731766 7.217584
-1.747193 1.727597 7.555169
-1.693687 1.682292 7.670209
-1.747376 1.727877 8.233919
-1.710136 1.696363 8.407250
-1.833309 1.800793 8.884094
-1.799421 1.772119 9.059078
-1.860439 1.823903 9.568858
-1.813897 1.784499 9.690259
-1.848010 1.813518 10.350152
-1.698789 1.687119 10.400162
-1.762012 1.740762 10.860460
-1.780763 1.756749 11.417259
-1.524905 1.540003 11.401316
-1.423395 1.454092 11.838171
-1.499276 1.518498 12.520937
-1.304720 1.353715 12.682763
-1.261355 1.317124 13.464597
-1.161757 1.232827 13.863944
-0.971951 1.072069 14.035429
-1.041704 1.131267 14.625956
-0.954168 1.057189 15.035938
-0.922534 1.030490 15.566201
-0.910415 1.020291 15.932686
-0.847739 0.967243 16.184302
-0.841528 0.962050 16.554373
-0.867165 0.983847 16.984603
-0.921606 1.030088 17.646103
-1.978533 1.649208 0.846973
-1.977882 1.648737 0.822865
-1.899043 1.592249 0.911837
-1.838010 1.548599 1.449489
-1.926021 1.611700 1.585130
-1.936649 1.619352 1.782135
-1.863984 1.567298 1.930917
-1.905776 1.597353 2.519349
-1.856458 1.562072 2.894988
-1.922508 1.609522 3.539135
-1.808940 1.528076 3.246814
-1.808848 1.528135 3.963469
-1.711385 1.458261 3.840012
-1.708785 1.456504 4.449288
-1.705119 1.453872 4.423104
-1.767211 1.498447 4.846968
-1.823592 1.539000 5.682444
-1.808907 1.528461 5.600361
-1.851358 1.559002 6.268917
-1.914523 1.604327 6.578092
-1.830374 1.544017 6.577038
-1.860313 1.565499 6.718897
-1.939675 1.622504 7.445260
-1.816260 1.534023 7.279362
-1.825007 1.540360 7.673491
-1.882094 1.581373 8.236537
-1.812600 1.531576 8.297208
-1.880801 1.580555 8.862519
-1.844363 1.554470 9.037278
-1.951344 1.631207 9.402046
-1.945972 1.627452 9.948273
-1.862023 1.567287 9.958649
-1.884861 1.583760 10.565968
-1.821325 1.538282 10.896952
-1.741748 1.481296 11.175839
-1.684829 1.440561 11.513316
-1.664231 1.425914 12.177856
-1.477899 1.292406 12.394791
-1.337506 1.191844 12.728187
-1.364877 1.211589 13.467280
-1.065090 0.996757 13.624692
-1.132641 1.045274 14.213874
-0.957686 0.919923 14.446921
-1.049517 0.985881 15.266099
-1.034004 0.974826 15.631647
-1.022274 0.966483 15.999078
-0.974287 0.932174 16.479009
-0.971298 0.930096 16.850891
-1.071013 1.001628 17.228332
-1.071139 1.001813 17.774160
-2.108069 1.481268 0.867606
-2.097869 1.475083 0.397714
-1.961468 1.393591 1.496280
-1.972154 1.400022 1.694976
-1.956296 1.390476 1.390009
-2.014079 1.425228 2.315486
-2.016495 1.426679 2.346239
-1.942707 1.382522 2.498355
-1.998120 1.415799 3.088685
-2.031949 1.436105 3.398617
-1.944037 1.383465 3.386685
-1.955178 1.390262 4.160201
-1.866982 1.337452 4.151008
-1.786610 1.289335 4.198043
-1.782312 1.286854 4.754037
-1.787242 1.289810 4.785112
-1.897996 1.356234 5.435147
-1.967042 1.397637 5.802289
-1.900438 1.357774 5.911479
-1.977308 1.403930 6.694649
-2.009670 1.423332 6.837211
-1.959957 1.393593 7.005953
-1.938296 1.380669 7.287680
-2.001562 1.418592 7.542294
-2.074852 1.462578 8.160201
-2.032648 1.437336 8.333138
-2.023520 1.431918 8.618583
-2.016905 1.428004 8.904403
-1.944932 1.384919 8.967514
-1.994115 1.414443 9.423132
-2.087456 1.470426 9.990677
-2.074741 1.462851 10.224557
-1.984443 1.408828 10.497209
-1.876328 1.344128 10.715930
-1.831577 1.317397 11.105505
-1.900740 1.358920 11.779213
-1.723734 1.252979 12.048064
-1.618341 1.189945 12.490352
-1.446668 1.087198 12.765789
-1.349070 1.028869 13.434391
-1.262264 0.976967 13.891571
-1.203753 0.941982 14.189907
-1.072519 0.863460 14.537989
-1.028721 0.837322 15.064616
-0.980458 0.808474 15.370214
-0.964308 0.798864 15.736116
-0.908903 0.765767 16.214069
-0.964222 0.798971 16.701690
-1.026812 0.836529 17.190751
-1.058509 0.855607 17.794715
-2.200021 1.316875 0.364034
-2.031710 1.232290 0.846944
-2.050057 1.241595 1.326584
-1.983791 1.208331 1.756689
-2.082075 1.257790 1.893133
-2.127383 1.280673 2.483166
-2.115849 1.274850 2.347111
-2.049093 1.241313 2.611901
-2.128494 1.281371 3.370065
-2.024122 1.228853 3.246595
-2.032054 1.232965 4.020828
-1.924891 1.179043 3.899179
-1.923539 1.178459 4.509999
-1.974266 1.204024 4.822832
-1.901381 1.167380 4.929378
-1.879459 1.156414 5.318889
-1.895829 1.164663 5.406996
-1.938349 1.186157 6.079958
-1.933164 1.183545 6.055340
-2.063681 1.249288 6.645916
-1.984045 1.209240 6.700447
-1.971814 1.203141 7.036515
-2.137384 1.286525 7.681635
-2.014896 1.224895 7.571692
-2.043937 1.239574 8.022421
-2.096627 1.266158 8.530016
-2.071440 1.253525 8.759017
-2.048051 1.241796 8.988954
-2.136398 1.286324 9.555301
-2.062540 1.249184 9.619653
-2.203273 1.320080 10.298901
-2.068605 1.252367 10.459195
-2.121844 1.279210 10.862204
-2.033307 1.234720 11.138205
-1.924999 1.180276 11.360098
-1.851418 1.143351 11.907583
-1.787747 1.111412 12.460800
-1.453926 0.943523 12.606697
-1.428124 0.930642 13.228805
-1.361101 0.897011 13.741088
-1.274626 0.853586 14.200309
-1.187855 0.809978 14.441579
-1.053259 0.742331 14.790998
-1.041141 0.736329 15.377978
-1.070415 0.751094 15.633959
-1.056173 0.743988 15.999939
-1.034137 0.732989 16.537018
-0.954567 0.693032 16.960841
-0.880160 0.655673 17.388019
-0.771296 0.601000 17.932672
-2.032048 1.043756 1.059464
-2.054654 1.053178 1.539690
-2.073744 1.061121 1.850998
-2.105307 1.074239 2.274185
-2.103212 1.073368 2.248561
-2.146284 1.091254 2.727144
-2.132856 1.085810 3.441380
-2.081764 1.064730 3.766065
-2.109466 1.076217 3.964783
-2.006475 1.033613 3.897640
-2.004800 1.033014 4.506920
-1.909537 0.993615 4.497904
-2.032471 1.044564 5.204701
-2.059503 1.055765 5.347189
-2.077625 1.063345 5.904025
-2.108230 1.076024 6.046231
-2.153752 1.094944 6.660342
-2.081916 1.065188 6.354117
-2.148381 1.092778 7.025848
-2.139841 1.089298 7.362719
-2.198484 1.113636 7.924512
-2.039634 1.047908 7.703495
-2.071991 1.061359 8.156316
-2.182036 1.106925 8.522376
-2.209648 1.118405 8.919668
-2.280781 1.147901 9.429224
-2.156433 1.096508 9.640635
-2.139709 1.089627 9.874072
-2.291754 1.152611 10.554938
-2.175787 1.104685 10.773401
-2.124253 1.083391 10.898265
-2.086285 1.067789 11.553076
-1.953911 1.013070 11.721796
-1.786691 0.943963 12.046980
-1.672882 0.896963 12.489933
-1.404521 0.786028 12.808927
-1.355142 0.765693 13.377360
-1.342399 0.760486 13.788829
-1.282648 0.735854 14.307842
-1.231640 0.714839 14.831475
-1.066459 0.646571 15.126078
-1.045676 0.638032 15.490059
-1.172712 0.690635 15.921762
-1.148742 0.680804 16.457599
-1.109866 0.664774 16.768826
-1.212756 0.707409 17.315004
-1.182379 0.694894 17.629725
-2.196488 0.899829 0.766824
-2.021783 0.844012 1.199679
-2.120980 0.875753 1.282616
-2.137635 0.881127 1.593018
-2.188584 0.897527 2.295866
-2.201063 0.901539 2.437296
-2.254834 0.918817 2.970347
-2.277400 0.926064 3.167249
-2.072224 0.860421 3.052460
-2.116270 0.874564 3.419584
-2.063198 0.857636 3.744291
-2.031236 0.847478 4.183718
-2.071884 0.860518 4.438727
-2.061437 0.857250 4.936862
-2.164700 0.890358 5.472417
-2.100795 0.869942 5.635337
-2.002153 0.838390 5.629821
-2.198288 0.901255 6.503296
-2.191848 0.899191 6.476586
-2.106604 0.871933 6.530528
-2.255775 0.919787 7.483569
-2.080477 0.863676 7.203800
-2.137418 0.881972 7.767377
-2.071101 0.860777 7.882163
-2.163504 0.890379 8.192713
-2.277734 0.927016 8.869502
-2.253748 0.919378 9.099549
-2.212337 0.906159 9.274523
-2.231542 0.912352 9.618341
-2.296794 0.933291 10.074736
-2.259804 0.921525 10.513805
-2.161255 0.890005 10.525073
-2.159707 0.889623 11.289077
-2.093495 0.868495 11.624660
-1.908262 0.809255 11.679900
-1.904693 0.808253 12.615881
-1.714760 0.747542 12.890940
-1.445329 0.661379 12.995559
-1.511331 0.682609 13.795577
-1.273081 0.606428 13.964600
-1.304664 0.616634 14.659755
-1.277652 0.608047 15.019587
-1.013507 0.523576 15.138530
-1.121773 0.558295 15.737487
-1.107506 0.553785 16.103888
-1.235646 0.594861 16.705705
-1.082090 0.545791 17.012600
-1.076047 0.543939 17.556860
-0.808605 0.458467 18.039281
-0.755434 0.369417 17.902105
-2.402573 0.560438 0.519955
-2.438391 0.566092 1.448585
-2.230797 0.534065 1.265926
-2.255073 0.537868 1.690000
-2.321320 0.548196 2.506014
-2.318870 0.547815 2.480630
-2.252316 0.537602 2.802067
-2.274613 0.541067 3.001208
-2.193468 0.528581 3.156289
-2.182719 0.527019 3.819992
-2.276652 0.541583 4.412962
-2.174922 0.525900 4.404398
-2.122247 0.517819 4.678193
-2.148408 0.521873 4.821909
-2.078313 0.511091 4.984410
-2.174874 0.526044 5.466873
-2.196991 0.529534 6.026318
-2.271098 0.541002 6.338113
-2.210554 0.531693 6.505476
-2.270309 0.540993 7.123821
-2.122279 0.518149 6.955143
-2.160022 0.524040 7.463574
-2.336608 0.551346 8.055449
-2.340845 0.552047 8.395881
-2.293459 0.544768 8.569329
-2.209672 0.531861 8.631120
-2.299878 0.545847 9.199445
-2.257780 0.539383 9.375706
-2.237524 0.536294 9.608945
-2.279289 0.542827 10.272726
-2.381928 0.558722 10.788683
-2.256750 0.539420 10.745333
-2.090784 0.513889 11.117925
-2.170622 0.526293 11.793599
-1.863408 0.478941 11.834855
-1.872196 0.480400 12.562579
-1.702660 0.454313 12.895925
-1.563935 0.433016 13.508679
-1.374315 0.403795 13.572739
-1.245687 0.384024 13.974560
-1.153465 0.369874 14.438902
-1.251743 0.385109 15.034524
-1.043756 0.353081 15.271992
-1.228317 0.381634 15.990354
-1.168587 0.372495 16.469587
-1.163659 0.371789 16.840703
-1.015838 0.349022 16.978576
-1.047209 0.353944 17.584032
-2.338318 0.374465 0.555326
-2.455307 0.383846 1.086450
-2.241552 0.366784 0.676237
-2.176847 0.361754 1.500545
-2.175392 0.361635 1.475425
-2.287155 0.370553 1.669377
-2.327711 0.373855 2.205629
-2.367660 0.377092 2.628961
-2.336208 0.374676 3.231705
-2.220347 0.365442 3.106581
-2.153688 0.360177 3.375900
-2.255914 0.368409 4.083364
-2.269916 0.369535 4.170769
-2.244040 0.367540 4.612449
-2.121590 0.357782 4.491942
-2.288727 0.371201 5.367813
-2.271803 0.369843 5.285955
-2.215926 0.365430 5.505821
-2.239030 0.367347 6.065012
-2.245594 0.367932 6.513168
-2.356147 0.376786 6.936615
-2.330117 0.374756 7.217835
-2.226956 0.366550 7.219195
-2.365806 0.377663 7.698867
-2.365540 0.377690 8.038609
-2.297694 0.372309 8.155220
-2.266630 0.369871 8.384883
-2.275358 0.370613 8.727982
-2.288615 0.371717 9.072092
-2.347694 0.376481 9.529313
-2.393160 0.380155 9.931124
-2.333861 0.375455 10.053852
-2.295154 0.372438 10.495251
-2.311717 0.373835 11.052125
-2.141757 0.360331 11.161849
-1.980062 0.347522 11.539526
-1.901754 0.341371 12.092792
-1.725450 0.327393 12.422630
-1.664782 0.322647 12.986525
-1.645158 0.321175 13.613359
-1.486298 0.308586 13.956635
-1.269151 0.291345 14.186527
-1.179820 0.284305 14.652957
-1.217653 0.287383 15.133164
-1.008739 0.270798 15.371772
-1.213562 0.287169 15.923886
-1.188185 0.285227 16.462037
-1.256359 0.290719 16.949701
-1.182175 0.284854 17.205055
-1.096756 0.278144 17.806390
-2.357783 0.183338 0.384522
-2.373798 0.183391 0.976518
-2.182491 0.183786 1.185347
-2.099127 0.183990 1.505067
-2.200832 0.183800 1.530952
-2.317253 0.183613 1.781256
-2.360313 0.183606 2.317764
-2.368412 0.183603 2.405338
-2.358972 0.183738 3.232143
-2.270964 0.183920 3.332151
-2.175880 0.184108 3.376341
-2.195181 0.184092 3.520523
-2.283427 0.184007 4.114993
-2.297390 0.184074 4.781571
-2.143713 0.184327 4.492383
-2.200230 0.184263 4.806046
-2.162467 0.184382 5.138519
-2.287976 0.184227 5.733314
-2.184782 0.184423 5.729955
-2.199291 0.184467 6.235243
-2.320427 0.184303 6.716677
-2.231877 0.184481 6.773236
-2.282803 0.184463 7.337434
-2.407470 0.184285 7.761182
-2.408239 0.184331 8.101579
-2.340677 0.184477 8.219014
-2.385144 0.184456 8.673749
-2.323500 0.184635 9.106747
-2.200509 0.184863 9.058680
-2.416268 0.184535 9.651560
-2.420366 0.184568 9.942048
-2.379984 0.184707 10.382660
-2.299942 0.184907 10.714174
-2.296929 0.184984 11.217122
-2.293453 0.185024 11.457216
-2.058871 0.185502 11.667495
-1.930214 0.185810 12.107933
-1.863539 0.186016 12.667587
-1.808289 0.186201 13.232696
-1.585932 0.186688 13.676615
-1.305223 0.187240 13.786869
-1.271155 0.187387 14.366185
-1.303808 0.187392 14.843232
-1.277987 0.187492 15.205557
-1.273188 0.187585 15.795724
-1.205340 0.187726 15.877461
-1.371479 0.187502 16.537490
-1.293776 0.187686 16.790725
-1.171067 0.187972 17.157657
-1.090770 0.188186 17.586330
-2.364213 -0.010257 0.338971
-2.368974 -0.010621 0.594082
-2.280682 -0.003146 0.964994
-2.180158 0.005301 0.943425
-2.205649 0.003235 1.482476
-2.317414 -0.006134 1.676178
-2.263734 -0.001536 2.277120
-2.287675 -0.003512 2.533136
-2.352915 -0.008913 3.125690
-2.237583 0.000765 2.999867
-2.155788 0.007663 3.155679
-2.269069 -0.001744 3.976351
-2.273866 -0.002142 4.007341
-2.216623 0.002708 4.279561
-2.224038 0.002172 4.891949
-2.240727 0.000781 4.979339
-2.291403 -0.003443 5.235452
-2.235216 0.001312 5.455648
-2.218566 0.002767 5.846303
-2.277311 -0.002076 6.520200
-2.343229 -0.007581 6.775873
-2.315583 -0.005218 7.057362
-2.290991 -0.003110 7.340069
-2.283821 -0.002511 7.314809
-2.363534 -0.009124 7.935741
-2.402814 -0.012362 8.389102
-2.336700 -0.006787 8.507311
-2.327996 -0.006015 8.794681
-2.342300 -0.007169 9.139194
-2.320113 -0.005270 9.372416
-2.406103 -0.012426 9.886973
-2.325056 -0.005604 9.953912
-2.353287 -0.007890 10.564084
-2.183431 0.006441 10.934603
-2.201166 0.004992 11.229769
-2.142282 0.010028 11.833851
-2.069948 0.016187 12.387307
-1.733265 0.044490 12.374854
-1.643185 0.052134 12.880352
-1.532004 0.061576 13.551950
-1.341650 0.077619 13.836313
-1.427936 0.070449 14.426599
-1.310106 0.080412 14.834797
-1.317529 0.079848 15.255732
-1.075739 0.100200 15.435761
-1.316246 0.080068 16.045098
-1.149581 0.094122 16.348408
-1.142815 0.094743 16.719269
-1.103626 0.098082 17.033069
-1.059846 0.101831 17.520558
-2.160198 -0.153269 0.388510
-2.280678 -0.172320 1.123607
-2.279579 -0.172149 1.098126
-2.190216 -0.157911 1.302633
-2.204381 -0.160127 1.559153
-2.225063 -0.163371 1.871877
-2.291271 -0.173788 2.634376
-2.300246 -0.175203 2.721309
-2.217507 -0.162026 2.875487
-2.233762 -0.164590 3.019014
-2.279159 -0.171755 3.387515
-2.240250 -0.165506 3.826152
-2.218017 -0.161900 4.323387
-2.302340 -0.175238 4.804397
-2.180062 -0.155813 4.684368
-2.152047 -0.151304 5.072746
-2.214724 -0.161224 5.385856
-2.281138 -0.171740 5.698174
-2.281429 -0.171722 6.144995
-2.192679 -0.157603 6.199101
-2.201547 -0.158949 6.649041
-2.233540 -0.163963 7.156718
-2.273288 -0.170262 7.300089
-2.284453 -0.171981 7.696248
-2.344145 -0.181443 7.895434
-2.361431 -0.184091 8.603276
-2.353492 -0.182788 8.889581
-2.251162 -0.166516 8.895931
-2.286260 -0.172040 9.296691
-2.369579 -0.185214 9.810405
-2.462999 -0.199994 10.324193
-2.269359 -0.169198 10.372745
-2.327047 -0.178313 10.777792
-2.234309 -0.163490 11.319621
-2.091251 -0.140720 11.486816
-2.050573 -0.134196 11.882517
-1.979726 -0.122852 12.437481
-1.699668 -0.078309 12.539785
-1.613327 -0.064508 13.046978
-1.448110 -0.038159 13.604734
-1.259783 -0.008174 13.889640
-1.377624 -0.026818 14.539809
-1.198079 0.001771 14.832054
-1.152439 0.009104 15.362231
-1.167319 0.006799 15.787219
-1.134615 0.012019 15.927937
-1.073426 0.021816 16.407717
-1.249845 -0.006139 17.072982
-1.057036 0.024553 17.324526
-0.809685 0.063984 18.038933
-2.247782 -0.336122 0.727228
-2.154918 -0.314240 0.874383
-2.169878 -0.317708 1.244434
-2.197147 -0.324057 1.726999
-2.233178 -0.332470 2.208956
-2.240666 -0.334220 2.296467
-2.248443 -0.336038 2.383951
-2.176062 -0.318960 2.650334
-2.106365 -0.302514 2.918431
-2.171371 -0.317739 3.458366
-2.198350 -0.324061 3.658869
-2.130581 -0.308076 3.873992
-2.214970 -0.327864 4.413201
-2.143540 -0.311025 4.574504
-2.264160 -0.339325 5.225788
-2.244576 -0.334659 5.615116
-2.180529 -0.319558 5.780651
-2.250238 -0.335923 6.091386
-2.284805 -0.343979 6.650423
-2.183703 -0.320179 6.648160
-2.354581 -0.360311 7.295559
-2.284718 -0.343849 7.408127
-2.330267 -0.354498 7.914714
-2.195629 -0.322819 7.804234
-2.338671 -0.356378 8.594517
-2.183158 -0.319792 8.429980
-2.229303 -0.330589 8.885375
-2.283243 -0.343221 9.341477
-2.242302 -0.333558 9.517336
-2.173991 -0.317421 9.898613
-2.223318 -0.328975 10.302385
-2.301579 -0.347331 10.762881
-2.180385 -0.318770 10.982222
-2.108675 -0.301840 11.316513
-1.927337 -0.259105 11.637299
-1.826171 -0.235217 12.133490
-1.680167 -0.200791 12.520011
-1.649905 -0.193577 13.141570
-1.459931 -0.148815 13.421544
-1.301379 -0.111441 13.762471
-1.176462 -0.081976 14.165378
-1.181682 -0.083112 14.807316
-1.168383 -0.079896 15.395252
-1.016463 -0.044114 15.525113
-1.200391 -0.087365 15.849537
-1.138464 -0.072717 16.327299
-1.310036 -0.113011 16.990075
-1.200963 -0.087306 17.186285
-1.235699 -0.095395 17.790335
-2.204215 -0.516097 0.280986
-2.219102 -0.520820 0.930499
-2.127208 -0.491060 1.021283
-2.159855 -0.501531 1.672600
-2.158266 -0.501021 1.646829
-2.156701 -0.500518 1.621057
-2.185654 -0.509827 2.046181
-2.272430 -0.537779 2.976435
-2.145649 -0.496783 2.680308
-2.160011 -0.501292 3.625613
-2.113651 -0.486339 3.261185
-2.139579 -0.494600 4.153081
-2.118673 -0.487853 4.014367
-2.046399 -0.464434 4.173855
-2.154595 -0.499361 4.826315
-2.222856 -0.521403 5.194816
-2.180129 -0.507531 5.470834
-2.116514 -0.486914 5.635337
-2.195765 -0.512513 6.004327
-2.228136 -0.522909 6.565018
-2.277261 -0.538781 6.764036
-2.265352 -0.534876 7.101235
-2.257636 -0.532328 7.439723
-2.190356 -0.510532 7.554473
-2.379495 -0.571661 8.202055
-2.247190 -0.528850 8.094667
-2.287216 -0.541739 8.548954
-2.245099 -0.528033 9.037201
-2.242225 -0.527060 9.326112
-2.242401 -0.527074 9.615970
-2.328958 -0.555016 10.131114
-2.142321 -0.494594 10.178849
-2.195267 -0.511672 10.584983
-2.075991 -0.473029 10.805007
-2.074359 -0.472426 11.310324
-1.946303 -0.430909 11.746488
-1.749259 -0.367084 12.015821
-1.657410 -0.337278 12.518437
-1.516056 -0.291430 13.128335
-1.388090 -0.249980 13.306946
-1.434009 -0.264733 14.056749
-1.286985 -0.217089 14.404288
-1.082502 -0.150862 14.637475
-1.003695 -0.125281 15.108763
-1.111872 -0.160210 15.711039
-1.162256 -0.176506 15.801431
-1.250809 -0.205090 16.345825
-1.269144 -0.210937 16.944908
-1.163058 -0.176566 17.142304
-1.001195 -0.124073 17.799107
-2.168509 -0.679551 0.717338
-2.165230 -0.678238 0.579964
-2.096810 -0.650288 1.291391
-2.127269 -0.662601 1.830489
-2.108568 -0.655038 1.522138
-2.123821 -0.661206 1.777647
-2.149922 -0.671770 2.145616
-2.213584 -0.697568 2.850333
-2.113111 -0.656695 2.778578
-2.093989 -0.648813 3.441170
-2.083851 -0.644700 3.358256
-2.095090 -0.649155 4.136547
-2.074722 -0.640888 3.997157
-2.029968 -0.622627 4.325796
-2.061662 -0.635494 4.525502
-2.116371 -0.657627 5.364712
-2.068921 -0.638358 5.112479
-2.165648 -0.677572 6.065891
-2.111864 -0.655725 5.814143
-2.139409 -0.666848 6.374408
-2.150352 -0.671232 6.823398
-2.157710 -0.674222 6.853307
-2.236442 -0.706156 7.528309
-2.171128 -0.679561 7.642642
-2.170000 -0.679051 7.982879
-2.206947 -0.694016 8.436686
-2.093885 -0.648017 8.385016
-2.284176 -0.725312 9.290711
-2.150847 -0.671074 9.185922
-2.187923 -0.686100 9.587646
-2.164793 -0.676612 10.082638
-2.110038 -0.654313 10.205514
-2.248531 -0.710571 10.835649
-2.134137 -0.663989 11.056222
-1.913503 -0.574179 11.261554
-1.895837 -0.566921 11.713819
-1.752608 -0.508581 12.097946
-1.588881 -0.441907 12.428686
-1.449555 -0.385121 13.038528
-1.295528 -0.322393 13.378310
-1.200673 -0.283725 13.838666
-1.170660 -0.271424 14.420817
-1.142341 -0.259845 14.783253
-1.037546 -0.217139 15.196778
-1.177079 -0.273817 15.858008
-1.115081 -0.248576 15.941249
-1.137683 -0.257708 16.370194
-1.190560 -0.279124 17.029992
-0.932019 -0.173873 17.336259
-0.782724 -0.113048 17.823580
-2.008476 -0.804829 0.237989
-2.105945 -0.854024 0.718436
-2.124613 -0.863375 1.255825
-2.137029 -0.869611 1.511816
-2.062683 -0.831987 1.774564
-2.079702 -0.840550 2.031219
-2.070282 -0.835810 1.893450
-2.130753 -0.866258 2.656332
-2.144404 -0.873135 2.799873
-2.081896 -0.841495 3.067422
-2.137269 -0.869410 3.548685
-2.018978 -0.809651 3.311491
-1.909379 -0.754159 3.879967
-1.969840 -0.784655 4.308110
-1.895082 -0.746848 4.412847
-1.953981 -0.776563 4.784558
-1.910107 -0.754340 5.061431
-2.054244 -0.827080 5.828241
-2.004744 -0.802098 5.577293
-2.026995 -0.813257 6.139130
-1.983631 -0.791301 6.363521
-2.093918 -0.846975 6.846270
-2.001709 -0.800363 6.846800
-2.048624 -0.823989 7.412911
-2.176378 -0.888492 7.894120
-2.115245 -0.857571 8.011005
-2.001491 -0.800027 8.271613
-2.230297 -0.915568 9.033999
-2.209695 -0.905117 9.266647
-2.209525 -0.904985 9.556231
-2.090154 -0.844610 9.768758
-2.036113 -0.817273 9.890677
-2.162741 -0.881183 10.520250
-2.071217 -0.834874 10.795346
-1.982123 -0.789794 11.072643
-1.984905 -0.791120 11.578801
-1.915470 -0.755934 12.130145
-1.637915 -0.615624 12.172833
-1.523372 -0.557617 12.835300
-1.398273 -0.494318 13.229857
-1.358065 -0.473902 13.803007
-1.134879 -0.361055 13.972343
-1.214612 -0.401266 14.565772
-1.052399 -0.319221 14.858354
-1.179153 -0.383191 15.516131
-1.055992 -0.320877 15.874651
-1.012890 -0.299039 16.184784
-1.102156 -0.344077 16.732116
-0.991801 -0.288235 17.099416
-1.022189 -0.303500 17.705942
-0.809096 -0.195695 18.250463
-2.023467 -1.018203 0.383656
-2.033677 -1.024372 0.865238
-2.040180 -1.028319 1.065395
-1.995516 -1.000846 1.890809
-1.977755 -0.990027 1.584048
-2.011018 -1.010296 2.122740
-2.034765 -1.024778 2.435593
-2.028297 -1.020833 2.354499
-1.985118 -0.994324 2.846639
-2.004742 -1.006302 3.047180
-1.966306 -0.982705 3.485920
-1.964440 -0.981453 4.152860
-1.861534 -0.918491 4.030408
-1.889471 -0.935459 4.815527
-1.931555 -0.961173 5.073409
-1.946445 -0.970272 5.161465
-1.878011 -0.928371 5.269400
-1.966053 -0.982175 5.753322
-1.933030 -0.961917 6.033000
-1.926349 -0.957763 6.427137
-1.982102 -0.991843 6.684510
-2.037552 -1.025678 7.305362
-1.921957 -0.954949 7.192753
-1.972799 -0.985972 7.758412
-2.003347 -1.004593 8.212108
-1.899503 -0.941046 8.158936
-2.034281 -1.023403 8.953526
-2.030578 -1.021089 9.241328
-1.976763 -0.988133 9.361083
-2.068137 -1.043962 9.932194
-2.017005 -1.012648 10.054055
-2.023696 -1.016695 10.345490
-2.075598 -1.048350 11.013755
-1.867933 -0.921262 10.952317
-1.976509 -0.987583 11.740746
-1.711057 -0.825111 11.780698
-1.740508 -0.843006 12.564806
-1.398187 -0.633479 12.652912
-1.399017 -0.633874 13.336228
-1.285099 -0.564086 13.734882
-1.097185 -0.449039 13.961805
-1.200154 -0.511952 14.613236
-1.045355 -0.417161 14.905680
-1.080781 -0.438763 15.386999
-1.020257 -0.401642 15.862239
-0.996696 -0.387133 16.400354
-1.094761 -0.447089 16.777508
-0.989577 -0.382653 17.144556
-0.914894 -0.336845 17.746488
-0.470871 -0.065037 18.046689
-1.945503 -1.166167 0.547431
-1.954208 -1.172355 0.916436
-1.956907 -1.174279 1.004102
-1.887394 -1.124292 1.321811
-1.899247 -1.132762 1.578981
-1.934675 -1.158106 2.173989
-1.966868 -1.181157 2.599243
-1.999414 -1.204471 2.967665
-1.901057 -1.133852 2.785187
-1.977554 -1.188668 3.548466
-1.881917 -1.119993 3.424414
-1.893620 -1.128264 4.204214
-1.856748 -1.101720 4.534774
-1.789495 -1.053394 4.640460
-1.863802 -1.106685 5.124837
-1.868692 -1.110192 5.155067
-1.812692 -1.069938 5.318298
-1.856598 -1.101432 5.574865
-1.932364 -1.155709 6.417529
-1.871245 -1.111787 6.528443
-1.986375 -1.194393 7.065480
-1.852820 -1.098499 6.839956
-1.882050 -1.119406 7.348551
-1.850872 -1.096971 7.575986
-1.849216 -1.095723 7.917593
-1.851204 -1.097091 8.260353
-2.058868 -1.246125 9.021756
-1.914310 -1.142271 9.118366
-1.879247 -1.117055 9.294957
-1.930454 -1.153757 9.754460
-2.006450 -1.208256 10.270535
-2.033830 -1.227863 10.618614
-1.837269 -1.086682 10.555837
-1.931273 -1.154069 11.341403
-1.875549 -1.113984 11.678582
-1.770981 -1.038795 12.117068
-1.583645 -0.904193 12.331832
-1.397244 -0.770262 12.548276
-1.370967 -0.751241 13.390914
-1.214725 -0.638961 13.674176
-1.206956 -0.633308 14.088934
-1.055842 -0.524712 14.377981
-0.958926 -0.455025 14.787508
-0.947840 -0.446959 15.377991
-0.904413 -0.415711 15.686276
-0.879477 -0.397706 16.224892
-1.060037 -0.527308 16.779800
-1.021063 -0.499228 17.264773
-0.857660 -0.381780 17.690102
-0.695303 -0.265053 18.294270
-1.765281 -1.253954 0.368206
-1.842570 -1.319633 0.454005
-1.845942 -1.322463 0.653818
-1.779127 -1.265601 1.026355
-1.802658 -1.285492 1.621718
-1.809913 -1.291632 1.765536
-1.842493 -1.319225 2.303502
-1.844632 -1.321038 2.334497
-1.876819 -1.348318 2.759058
-1.860741 -1.334530 3.419365
-1.800057 -1.282919 3.575609
-1.797290 -1.280572 3.549390
-1.803806 -1.285977 4.271411
-1.777417 -1.263475 4.657241
-1.675975 -1.177283 4.478484
-1.734967 -1.227346 4.905521
-1.747641 -1.238103 4.992363
-1.804284 -1.286094 5.833748
-1.780594 -1.265983 5.694675
-1.790968 -1.274708 6.198880
-1.743482 -1.234314 6.365731
-1.860477 -1.333649 6.959892
-1.865014 -1.337432 7.354124
-1.835825 -1.312580 7.580867
-1.782307 -1.267069 7.695809
-1.808930 -1.289614 8.150250
-1.757310 -1.245716 8.267198
-1.806140 -1.287126 8.780388
-1.756656 -1.245042 8.899430
-1.799380 -1.281272 9.358219
-1.767708 -1.254318 9.535669
-1.903386 -1.369507 10.277329
-1.929146 -1.391339 10.625399
-1.762367 -1.249578 10.619221
-1.776831 -1.261769 11.179057
-1.703822 -1.199660 11.459148
-1.703111 -1.198921 12.180648
-1.445989 -0.980372 12.166778
-1.438054 -0.973501 12.843223
-1.307887 -0.862758 13.397915
-1.184191 -0.757554 13.739427
-1.133989 -0.714786 14.259239
-1.060359 -0.652156 14.501806
-1.070835 -0.660941 15.146189
-0.988212 -0.590635 15.560724
-0.896343 -0.512512 15.751304
-0.819818 -0.447388 16.171495
-1.016159 -0.614163 16.785298
-0.922509 -0.534493 17.152842
-0.826686 -0.452943 17.696114
-0.523592 -0.195258 18.001343
-1.740766 -1.449418 0.382557
-1.746682 -1.455167 0.749205
-1.704586 -1.413569 1.627886
-1.788123 -1.495722 1.875120
-1.738152 -1.446476 2.249417
-1.723221 -1.431833 1.996892
-1.756999 -1.464966 2.532477
-1.780205 -1.487739 2.842436
-1.640844 -1.350595 2.893676
-1.672212 -1.381389 3.262068
-1.620045 -1.330014 3.473885
-1.657294 -1.366595 3.842634
-1.634577 -1.344153 4.283347
-1.574537 -1.285052 4.385785
-1.549750 -1.513912 0.440373
-1.629387 -1.606359 1.143815
-1.632020 -1.609402 1.230130
-1.571671 -1.539198 1.378017
-1.594263 -1.565351 1.915682
-1.587724 -1.557778 1.776766
-1.637070 -1.614966 2.651282
-1.555990 -1.520741 2.409536
-1.624075 -1.599707 3.341599
-1.543274 -1.505793 3.158770
-1.550307 -1.513953 3.245517
-1.567748 -1.534040 4.136988
-1.488987 -1.442485 4.013133
-1.445412 -1.391771 4.229534
-1.473650 -1.424550 4.487131
-1.489003 -1.442256 5.159809
-1.538866 -1.500155 5.529822
-1.503619 -1.459123 5.751189
-1.550285 -1.513316 6.064342
-1.554927 -1.518708 6.094572
-1.578361 -1.545834 6.656753
-1.641019 -1.618533 7.388813
-1.511657 -1.468187 7.051072
-1.570551 -1.536521 7.730643
-1.514023 -1.470779 7.789634
-1.576738 -1.543634 8.102449
-1.604280 -1.575561 8.558338
-1.598864 -1.569201 8.846215
-1.595522 -1.565252 9.135096
-1.607740 -1.579383 9.481275
-1.662423 -1.642799 10.258040
-1.609850 -1.581654 10.325700
-1.678417 -1.661271 10.843753
-1.538216 -1.498192 11.104455
-1.540878 -1.501178 11.611271
-1.464534 -1.412358 11.837728
-1.312916 -1.236015 12.050520
-1.191587 -1.094819 12.596304
-1.098247 -0.986201 12.989603
-1.046620 -0.926060 13.503464
-1.021078 -0.896236 14.080513
-0.961654 -0.827038 14.545678
-0.879351 -0.731299 14.731878
-0.783396 -0.619649 15.085696
-0.778623 -0.613970 15.679584
-0.870595 -0.720817 16.115913
-0.864522 -0.713676 16.486563
-0.861525 -0.710110 16.858973
-0.727139 -0.553759 17.281669
-0.694558 -0.515693 18.120640
-1.493305 -1.705808 0.492036
-1.491904 -1.703944 0.354637
-1.499869 -1.714602 0.892486
-1.446668 -1.642502 1.153376
-1.460246 -1.660786 1.579862
-1.472896 -1.677841 1.893230
-1.476848 -1.683172 1.981048
-1.526015 -1.749539 2.856256
-1.472895 -1.677588 2.955186
-1.419999 -1.605939 3.054758
-1.422236 -1.608961 3.086343
-1.395892 -1.573185 3.526766
-1.358828 -1.522934 3.799263
-1.386270 -1.559878 4.698028
-1.383579 -1.556239 4.673011
-1.393147 -1.569174 4.761326
-1.390648 -1.565672 5.265195
-1.409127 -1.590545 5.884114
-1.413412 -1.596340 5.915719
-1.367473 -1.534110 6.025374
-1.370989 -1.538763 6.476527
-1.401245 -1.579684 6.677094
-1.402259 -1.580964 7.072968
-1.406858 -1.587096 7.470152
-1.404877 -1.584332 7.811968
-1.537898 -1.764284 8.518710
-1.443514 -1.636521 8.355027
-1.459795 -1.658471 8.755496
-1.456106 -1.653407 9.044137
-1.442227 -1.634559 9.277314
-1.386256 -1.558693 9.602599
-1.495416 -1.706387 10.084836
-1.445415 -1.638605 10.414520
-1.383884 -1.555224 10.690198
-1.479848 -1.685014 11.324903
-1.324704 -1.474903 11.476214
-1.324423 -1.474350 12.200028
-1.220136 -1.333062 12.530367
-1.115169 -1.190799 13.081231
-0.947588 -0.963858 13.187548
-0.884761 -0.878678 13.645569
-0.807944 -0.774567 14.049291
-0.829098 -0.803044 14.751379
-0.735338 -0.676057 14.879424
-0.728385 -0.666502 15.471592
-0.748582 -0.693788 15.730560
-0.680070 -0.600879 16.320988
-0.625189 -0.526465 16.746341
-0.786020 -0.744094 17.364105
-0.694183 -0.619667 17.677150
-1.352449 -1.825819 0.705689
-1.351308 -1.824000 0.624145
-1.364175 -1.844589 1.273832
-1.313960 -1.763531 1.366335
-1.321883 -1.776248 1.623039
-1.326911 -1.784323 1.766857
-1.349479 -1.820598 2.304821
-1.353701 -1.827387 2.392082
-1.352371 -1.825004 3.278089
-1.310039 -1.756649 3.434776
-1.304353 -1.747495 3.352963
-1.274674 -1.699513 3.679574
-1.256559 -1.670161 4.121405
-1.216883 -1.606092 4.281487
-1.295647 -1.732977 5.105416
-1.218249 -1.608137 4.871562
-1.293863 -1.729969 5.582150
-1.265659 -1.684395 5.803847
-1.317964 -1.768689 6.229954
-1.336410 -1.798418 6.373088
-1.289265 -1.722323 6.427578
-1.285775 -1.716488 7.187452
-1.273744 -1.697094 7.104808
-1.260927 -1.676335 7.388758
-1.285626 -1.716056 7.900366
-1.337039 -1.798940 8.212989
-1.311176 -1.757157 8.386780
-1.325878 -1.780775 8.787216
-1.408493 -1.913897 9.525592
-1.332220 -1.790840 9.421865
-1.352076 -1.822704 10.086155
-1.404924 -1.907849 10.603070
-1.425102 -1.940318 10.952072
-1.325324 -1.779216 11.269867
-1.288768 -1.720133 11.607075
-1.254404 -1.664587 11.946758
-1.118381 -1.445039 12.103089
-1.020906 -1.287592 12.649020
-0.976028 -1.215032 13.158162
-0.920296 -1.124973 13.614261
-0.900882 -1.093489 14.191241
-0.737426 -0.829697 14.246498
-0.741616 -0.836286 14.891441
-0.781257 -0.900113 15.431915
-0.753463 -0.855177 15.739507
-0.727331 -0.812923 16.048824
-0.778709 -0.895688 16.595061
-0.737954 -0.829853 16.849324
-0.713285 -0.789912 17.335575
-0.604821 -0.614718 17.935514
-1.212805 -1.918546 0.612496
-1.210164 -1.913576 0.306050
-1.214281 -1.921338 0.731184
-1.170180 -1.836761 0.878354
-1.181445 -1.858188 1.417247
-1.199921 -1.893423 2.011856
-1.198997 -1.891660 1.986330
-1.220929 -1.933534 2.523691
-1.173736 -1.843080 2.507911
-1.148666 -1.794892 2.944952
-1.172882 -1.841178 3.371489
-1.146964 -1.791398 3.698583
-1.185401 -1.864911 4.237926
-1.125205 -1.749580 4.058532
-1.116928 -1.733563 4.559605
-1.128887 -1.756442 4.704005
-1.115946 -1.731518 5.093789
-1.191115 -1.875368 5.859957
-1.125784 -1.750194 5.686552
-1.183376 -1.860422 6.226429
-1.201432 -1.894861 6.789079
-1.174462 -1.843113 6.958451
-1.155239 -1.806197 7.185243
-1.204071 -1.899686 7.554693
-1.171628 -1.837463 7.670225
-1.187710 -1.868150 8.125362
-1.148116 -1.792238 8.186346
-1.230988 -1.950828 9.038298
-1.210909 -1.912286 9.214949
-1.210484 -1.911384 9.505025
-1.182087 -1.856914 9.626971
-1.224349 -1.937765 10.144159
-1.249941 -1.986697 10.549184
-1.181069 -1.854632 10.712526
-1.168275 -1.829972 11.160084
-1.070118 -1.641741 11.424182
-1.044622 -1.592685 12.033078
-1.054397 -1.611266 12.547434
-0.910488 -1.335405 12.592247
-0.855606 -1.230002 13.260658
-0.821066 -1.163638 13.775314
-0.776421 -1.077920 14.236456
-0.760913 -1.048084 14.595443
-0.676901 -0.886961 14.887766
-0.671466 -0.876362 15.477605
-0.679118 -0.890901 15.903139
-0.600790 -0.740667 16.205251
-0.664037 -0.861714 16.812547
-0.646156 -0.827344 17.126598
-0.573268 -0.687537 17.437190
-1.048753 -2.009681 0.480165
-1.049991 -2.012573 0.623486
-1.051538 -2.016200 0.766787
-1.021375 -1.944262 1.308805
-1.039259 -1.986541 2.016257
-1.045675 -2.001728 2.215993
-1.061319 -2.038780 2.640524
-1.055937 -2.026030 2.502603
-1.025267 -1.953009 2.712481
-1.002952 -1.899795 3.093410
-0.974155 -1.831227 3.306517
-0.990510 -1.870010 3.620766
-0.991041 -1.871031 4.289538
-0.951153 -1.776165 4.280155
-1.000585 -1.893475 4.991479
-1.002911 -1.898996 5.022402
-0.993932 -1.877498 5.412501
-1.002229 -1.897026 5.974043
-1.047314 -2.004082 6.456235
-1.028679 -1.959831 6.261681
-1.010239 -1.915891 6.485858
-1.009844 -1.914808 6.880794
-0.999532 -1.890178 7.164036
-0.996755 -1.883450 7.505076
-1.022715 -1.944986 8.073358
-1.082968 -2.088116 8.554213
-1.035674 -1.975651 8.503982
-1.039746 -1.985210 8.848415
-1.016780 -1.930431 9.282828
-1.032877 -1.968569 9.685571
-1.059968 -2.032833 10.145257
-1.054650 -2.020099 10.380656
-1.032471 -1.967208 10.767825
-1.050668 -2.010264 11.383404
-1.024242 -1.947290 11.720253
-0.893707 -1.636832 11.703051
-0.885245 -1.616461 12.373188
-0.796361 -1.404979 12.589542
-0.785073 -1.377906 13.213479
-0.732764 -1.253348 13.611085
-0.647124 -1.049581 13.837294
-0.622144 -0.989977 14.359416
-0.613471 -0.969136 14.944930
-0.578079 -0.884871 15.191253
-0.636171 -1.022795 15.851140
-0.570482 -0.866451 16.153001
-0.552834 -0.824364 16.464532
-0.608086 -0.955554 17.072573
-0.546958 -0.810053 17.382929
-0.419711 -0.507193 17.978849
-0.883436 -2.084602 0.301653
-0.885263 -2.090016 0.613815
-0.892852 -2.112794 1.263291
-0.896210 -2.122910 1.462648
-0.864557 -2.026693 1.442811
-0.871934 -2.048953 1.811995
-0.888958 -2.100413 2.462179
-0.904852 -2.148515 2.942449
-0.883443 -2.083308 3.209943
-0.842961 -1.960349 2.970586
-0.864216 -2.024723 3.509944
-0.837046 -1.942077 3.611036
-0.837415 -1.942899 4.279809
-0.829926 -1.919930 4.724369
-0.848481 -1.976196 5.038302
-0.864575 -2.025007 5.295089
-0.835966 -1.938011 5.346168
-0.818649 -1.885265 5.567812
-0.878199 -2.065931 6.390251
-0.880597 -2.073206 6.421049
-0.866169 -2.029244 6.645516
-0.881113 -2.074419 7.207979
-0.873788 -2.052023 7.489995
-0.888992 -2.098017 7.998481
-0.873112 -2.049662 8.170288
-0.898755 -2.127504 8.424616
-0.895589 -2.117749 8.710200
-0.881179 -2.073862 8.884275
-0.843880 -1.960351 9.148825
-0.875925 -2.057514 9.720574
-0.884082 -2.082153 10.067249
-0.865520 -2.025668 10.189428
-0.868553 -2.034638 10.745138
-0.822149 -1.893493 10.908241
-0.837761 -1.940674 11.527077
-0.800776 -1.828138 11.751819
-0.769076 -1.731542 12.248685
-0.748891 -1.669926 12.808060
-0.650145 -1.369610 13.071799
-0.625727 -1.295145 13.584541
-0.585023 -1.171221 13.985508
-0.585619 -1.172744 14.624411
-0.518772 -0.969419 14.857894
-0.541988 -1.039755 15.397773
-0.514569 -0.956285 15.645774
-0.471725 -0.825874 16.005080
-0.501772 -0.916972 16.552372
-0.477288 -0.842424 16.806138
-0.535948 -1.020455 17.474361
-0.411274 -0.641300 17.777745
-0.726911 -2.144631 0.332872
-0.731082 -2.161025 0.982132
-0.734485 -2.174527 1.293595
-0.706486 -2.062153 0.933941
-0.712676 -2.086725 1.472340
-0.741585 -2.202792 1.777746
-0.729222 -2.152730 2.378236
-0.732536 -2.165971 2.521055
-0.709250 -2.072314 2.561273
-0.737736 -2.186279 3.549124
-0.716777 -2.101946 3.649619
-0.710572 -2.076705 4.146247
-0.687941 -1.985675 4.192662
-0.672204 -1.922269 4.409741
-0.701139 -2.038238 5.063032
-0.686922 -1.981251 4.753581
-0.697210 -2.022193 5.482333
-0.692980 -2.005232 5.399237
-0.704425 -2.050860 6.072949
-0.713026 -2.085117 6.634939
-0.732888 -2.164799 6.946493
-0.713246 -2.085997 6.638464
-0.740280 -2.194239 7.426560
-0.723166 -2.125360 7.540613
-0.739486 -2.190650 8.105860
-0.741765 -2.199799 8.135699
-0.706815 -2.059142 8.339145
-0.713370 -2.085266 8.739191
-0.758719 -2.267302 9.274961
-0.768772 -2.307491 9.675154
-0.721223 -2.116270 9.719474
-0.727593 -2.141681 10.066809
-0.746362 -2.216729 10.790069
-0.722316 -2.119878 11.066786
-0.727015 -2.138601 11.361858
-0.707279 -2.058923 11.909789
-0.670628 -1.911321 12.293303
-0.589095 -1.583485 12.279630
-0.587283 -1.575802 12.957753
-0.560921 -1.469407 13.629675
-0.515058 -1.284825 13.914597
-0.498572 -1.218360 14.213664
-0.484793 -1.162650 14.738022
-0.465285 -1.083932 15.208246
-0.435695 -0.964841 15.397102
-0.456234 -1.047107 15.940790
-0.450008 -1.021760 16.478983
-0.401676 -0.827270 16.725910
-0.428277 -0.933914 17.277075
-0.410863 -0.863740 17.534362
-0.582636 -2.299084 0.701584
-0.564660 -2.193922 0.397506
-0.569155 -2.219593 1.215855
-0.568510 -2.215878 1.134150
-0.574181 -2.248640 1.726856
-0.562102 -2.177488 2.102502
-0.567678 -2.209880 2.470967
-0.566361 -2.202222 2.389005
-0.563612 -2.185452 3.162006
-0.569153 -2.217730 3.417608
-0.559857 -2.162941 3.743411
-0.545396 -2.078051 3.845063
-0.529551 -1.985090 3.890606
-0.529328 -1.983270 4.504865
-0.545131 -2.075981 4.461908
-0.541650 -2.055192 4.906405
-0.531714 -1.996740 5.126139
-0.524075 -1.951706 5.403910
-0.539714 -2.043064 5.831714
-0.565932 -2.196272 6.483277
-0.558268 -2.151134 6.707635
-0.574890 -2.248306 7.075791
-0.557494 -2.146286 7.076580
-0.578640 -2.269636 7.866288
-0.564155 -2.184637 7.926159
-0.549688 -2.099742 7.986245
-0.559614 -2.157524 8.498699
-0.577922 -2.264364 9.124069
-0.586530 -2.314729 9.266647
-0.604337 -2.418677 9.835064
-0.586023 -2.311049 10.105735
-0.572419 -2.231215 10.172922
-0.566414 -2.195849 10.352964
-0.572793 -2.232742 10.966141
-0.568909 -2.209586 11.413731
-0.520887 -1.927885 11.509322
-0.527338 -1.965243 12.077377
-0.473358 -1.648464 12.334673
-0.462891 -1.586606 12.898362
-0.419679 -1.332873 13.280588
-0.437496 -1.436817 13.925856
-0.421857 -1.344712 14.388674
-0.402002 -1.227935 14.797388
-0.366398 -1.018935 15.033536
-0.368214 -1.029228 15.458297
-0.394625 -1.183560 16.119663
-0.354685 -0.949180 16.306368
-0.357782 -0.966836 16.908577
-0.364294 -1.004658 17.342480
-0.345950 -0.896913 17.541987
-0.385739 -2.241804 0.793159
-0.385123 -2.235204 0.542595
-0.385754 -2.241969 0.798433
-0.387292 -2.258777 1.222883
-0.382095 -2.198611 1.878922
-0.390664 -2.296116 1.846174
-0.383291 -2.211925 2.053222
-0.388139 -2.266115 2.646672
-0.380784 -2.182209 2.800607
-0.384588 -2.224882 3.169483
-0.383022 -2.206093 3.776864
-0.374762 -2.112075 3.822315
-0.375169 -2.116653 3.853234
-0.378561 -2.153886 4.691425
-0.370446 -2.061510 4.740304
-0.373765 -2.098933 4.941104
-0.368632 -2.040205 5.161138
-0.375750 -2.119795 6.005844
-0.374078 -2.100914 5.923674
-0.387991 -2.258099 6.574901
-0.381489 -2.183969 6.686933
-0.376343 -2.125170 6.856072
-0.385365 -2.226597 7.590763
-0.389122 -2.269087 7.734015
-0.380062 -2.166047 7.737256
-0.391279 -2.292431 8.473542
-0.402179 -2.415806 8.840259
-0.390028 -2.277277 9.048833
-0.391622 -2.294846 9.394131
-0.399282 -2.381143 9.908397
-0.392165 -2.300092 9.975184
-0.380798 -2.170458 10.191412
-0.393957 -2.319109 10.821847
-0.385294 -2.220132 11.098907
-0.383475 -2.198728 11.547446
-0.375459 -2.107105 11.829433
-0.369179 -2.034792 12.383098
-0.341973 -1.725306 12.428235
-0.346775 -1.778637 13.221288
-0.327293 -1.556356 13.663982
-0.313399 -1.397785 14.007518
-0.297085 -1.211776 14.295834
-0.297972 -1.220829 14.938880
-0.276593 -0.977406 15.116603
-0.286638 -1.090679 15.718617
-0.309672 -1.351932 16.159387
-0.296377 -1.200509 16.294405
-0.280935 -1.024114 16.770215
-0.304772 -1.294226 17.382946
-0.290855 -1.135170 17.868100
-0.218031 -2.261448 0.697337
-0.218336 -2.279230 1.178738
-0.218498 -2.289269 1.378788
-0.218299 -2.276980 1.129098
-0.219071 -2.326289 1.947036
-0.218132 -2.252362 2.267666
-0.218099 -2.250176 2.242820
-0.218533 -2.279443 2.555540
-0.217883 -2.225999 2.991724
-0.217551 -2.195234 3.543220
-0.217177 -2.169255 3.348992
-0.216826 -2.137659 3.846388
-0.215825 -2.060795 4.006267
-0.217235 -2.160291 4.603854
-0.216150 -2.077765 4.709760
-0.216983 -2.136958 5.024390
-0.217065 -2.137765 5.528277
-0.218030 -2.206879 5.842118
-0.217567 -2.169101 6.121927
-0.217671 -2.176598 6.153465
-0.218047 -2.199440 6.660498
-0.219435 -2.295891 7.393861
-0.217838 -2.176542 7.340172
-0.218865 -2.250958 7.597140
-0.219346 -2.278953 8.362922
-0.219479 -2.288607 8.392568
-0.219380 -2.278145 8.678578
-0.220966 -2.390570 9.302302
-0.219032 -2.246518 9.197358
-0.219911 -2.307648 9.655033
-0.219999 -2.311145 9.944918
-0.219825 -2.292848 10.441492
-0.220029 -2.305094 10.733925
-0.218730 -2.204613 11.010203
-0.219170 -2.231698 11.570995
-0.217134 -2.074917 11.950964
-0.213712 -1.816384 12.106666
-0.214027 -1.832285 12.838010
-0.210661 -1.577887 13.000522
-0.210120 -1.528942 13.789733
-0.206399 -1.248489 13.900605
-0.206487 -1.248344 14.539968
-0.206585 -1.251200 14.959669
-0.205161 -1.139979 15.372552
-0.204026 -1.052162 15.620930
-0.205768 -1.176502 16.223918
-0.205707 -1.168050 16.593686
-0.205209 -1.127319 16.906496
-0.205775 -1.165273 17.338388
-0.201538 -0.842790 17.759820
-0.034791 -2.263596 0.284064
-0.027415 -2.373380 0.762883
-0.034414 -2.269877 0.628761
-0.025301 -2.406097 1.498029
-0.023710 -2.430328 1.865175
-0.030304 -2.333154 1.904064
-0.029271 -2.348808 2.103971
-0.034871 -2.266644 2.312735
-0.029106 -2.353393 3.130949
-0.038189 -2.218799 2.836728
-0.038526 -2.215447 3.613940
-0.041572 -2.171327 3.998922
-0.042971 -2.150398 3.861184
-0.045143 -2.119298 4.304573
-0.050820 -2.035779 4.409741
-0.042058 -2.166498 5.121306
-0.047509 -2.086318 5.229338
-0.041479 -2.176164 5.657178
-0.034075 -2.286374 6.139723
-0.040176 -2.196492 6.192929
-0.044423 -2.134201 6.359544
-0.031040 -2.333185 7.122067
-0.037004 -2.245345 7.178722
-0.031925 -2.321553 7.798971
-0.030161 -2.347740 7.884916
-0.033663 -2.296446 8.056690
-0.032189 -2.319023 8.454238
-0.035437 -2.271475 8.628043
-0.033369 -2.302812 9.027762
-0.033638 -2.299444 9.316014
-0.026530 -2.405484 9.885661
-0.023144 -2.456264 10.287544
-0.025578 -2.421273 10.728623
-0.030782 -2.345214 11.060673
-0.040700 -2.199268 11.226243
-0.038630 -2.230974 11.788756
-0.050865 -2.051192 12.114187
-0.059186 -1.929381 12.557234
-0.080715 -1.612376 12.819072
-0.082427 -1.588440 13.445092
-0.089352 -1.487255 13.902759
-0.093670 -1.424646 14.422966
-0.112535 -1.146633 14.538391
-0.105762 -1.247781 15.135220
-0.110877 -1.173320 15.608416
-0.106201 -1.242950 15.924572
-0.111846 -1.160206 16.175566
-0.119906 -1.042918 16.939216
-0.112235 -1.157208 17.489956
