-1.736703 1.795726 2.293269
-1.668316 1.717950 2.255931
-1.678771 1.729822 2.435123
-1.709414 1.764625 2.895200
-1.727174 1.784799 3.130061
-1.766002 1.828911 3.588719
-1.651861 1.699071 3.795415
-1.736217 1.794929 4.592858
-1.711917 1.767315 4.378683
-1.772381 1.836029 4.893528
-1.623184 1.666353 4.771602
-1.681118 1.732195 5.230835
-1.931669 2.017073 6.034411
-1.894959 1.975300 6.232326
-1.814410 1.883697 6.152548
-1.907527 1.989544 6.717506
-1.894226 1.974383 7.029257
-1.852352 1.926742 7.175362
-1.821508 1.891640 7.378030
-1.869468 1.946124 7.972056
-1.854515 1.929090 8.233012
-1.769898 1.832858 8.159916
-1.867781 1.944104 8.925188
-1.756667 1.817747 8.742567
-1.790504 1.856154 9.488920
-1.696124 1.748790 9.678813
-1.540795 1.572102 9.905638
-1.860783 1.691659 0.879635
-1.805327 1.636203 1.399692
-1.754415 1.585292 1.864653
-1.749435 1.580327 1.760488
-1.755265 1.586139 1.881827
-1.767651 1.598491 2.115802
-1.778055 1.608867 2.293318
-1.821789 1.652499 2.920430
-1.860580 1.691209 3.377801
-1.823627 1.654255 3.736390
-1.841914 1.672507 3.913324
-1.784980 1.615612 4.049281
-1.851862 1.682376 4.619581
-1.845936 1.676460 4.572046
-1.805991 1.636527 4.822899
-1.763197 1.593701 5.545734
-1.859388 1.689788 5.701792
-1.947337 1.777647 5.800479
-1.944058 1.774329 6.222083
-1.964707 1.794947 6.342083
-1.967755 1.797950 6.765208
-1.975761 1.805907 7.189720
-1.887378 1.717613 7.113258
-1.899461 1.729642 7.540615
-1.880373 1.710546 7.801370
-1.838633 1.668829 7.951081
-2.032934 1.862869 8.796819
-1.834316 1.664454 8.590132
-1.891647 1.721677 9.135397
-1.913022 1.742995 9.513373
-1.888111 1.489348 0.441636
-1.893673 1.494166 0.788511
-1.924947 1.521353 1.697344
-1.837794 1.445379 1.430864
-1.931441 1.527004 1.828104
-1.965652 1.556782 2.398394
-1.916076 1.513519 2.754082
-1.916802 1.514151 2.763302
-1.917531 1.514786 2.772522
-1.956936 1.549105 3.230857
-1.927859 1.523706 3.702167
-1.905313 1.504001 4.175851
-1.906422 1.504968 4.185076
-1.949923 1.542869 4.531289
-1.930837 1.526186 4.951289
-1.768039 1.384231 4.884638
-1.918362 1.515268 5.382386
-2.102905 1.676173 5.573968
-1.984896 1.573248 5.793487
-1.941707 1.535569 5.992985
-2.172912 1.737104 6.815040
-2.158627 1.724618 7.126865
-2.053145 1.632650 6.994610
-2.052443 1.632004 7.364515
-2.030728 1.613044 7.624022
-2.103218 1.676195 8.275203
-1.979972 1.568741 8.090363
-2.047178 1.627289 8.688755
-2.006541 1.591839 8.840962
-2.000759 1.586744 9.419447
-1.908378 1.506164 9.665197
-1.351326 0.866096 0.349861
-1.997297 1.350841 0.753784
-2.001583 1.354041 0.931799
-1.932860 1.302436 1.283163
-1.965965 1.327221 1.969229
-1.996345 1.349980 2.428969
-1.985050 1.341517 2.269347
-1.993598 1.347921 2.391160
-2.011287 1.361176 2.624744
-2.050936 1.390891 3.082714
-1.988641 1.344124 3.271876
-2.024909 1.371312 3.617898
-1.985810 1.341938 3.978263
-2.060163 1.397687 4.548820
-2.030794 1.375666 4.332827
-1.980171 1.337607 5.108145
-1.885525 1.266585 5.022823
-2.076033 1.409497 5.687123
-2.165490 1.476628 5.730086
-2.150280 1.465181 6.095840
-2.162468 1.474322 6.160179
-2.118794 1.441529 6.359821
-2.134230 1.453072 6.840370
-2.156876 1.470024 7.322215
-2.094636 1.423307 7.414043
-2.085347 1.416309 7.730708
-2.269670 1.554572 8.464347
-2.181283 1.488243 8.448421
-2.106500 1.432089 8.799652
-2.079486 1.411798 9.008751
-2.053805 1.392507 9.218727
-1.570853 0.888659 0.369339
-1.739506 0.999260 0.490294
-2.005268 1.173509 1.115574
-2.089118 1.228502 1.120317
-2.027551 1.188079 1.641095
-2.019799 1.183009 1.480676
-2.047730 1.201284 1.996964
-2.075560 1.219503 2.399953
-2.080551 1.222770 2.465014
-2.094871 1.232147 2.642535
-2.107727 1.240497 3.618776
-2.045934 1.199954 3.810385
-2.060899 1.209759 3.931854
-2.098621 1.234475 4.221972
-2.147230 1.266326 4.567664
-2.066152 1.213148 4.593701
-1.991273 1.163988 5.203247
-2.060968 1.209663 5.606902
-2.196372 1.298486 5.405906
-2.156029 1.272005 5.659531
-2.322385 1.381039 6.506068
-2.266676 1.344525 6.236247
-2.355532 1.402733 7.049221
-2.276889 1.351152 7.084377
-2.277297 1.351389 7.454719
-2.185589 1.291244 7.435260
-2.190221 1.294250 7.808149
-2.199372 1.300221 8.182213
-2.291791 1.360779 8.836450
-2.215215 1.310553 8.877663
-2.237394 1.325067 9.254841
-2.082624 1.223555 9.331182
-1.953688 1.138954 9.781878
-2.079784 1.023100 0.966471
-2.081867 1.024255 1.032645
-2.182521 1.080304 1.375978
-2.119332 1.045063 1.841973
-2.113327 1.041726 1.738903
-2.147071 1.060484 2.255711
-2.152033 1.063243 2.321684
-2.170894 1.073732 2.556426
-2.186483 1.082402 2.734762
-2.237619 1.110850 3.249697
-2.170777 1.073596 3.440460
-2.147877 1.060795 3.970565
-2.179693 1.078502 4.204184
-2.188851 1.083598 4.268958
-2.246480 1.115630 5.193469
-2.066835 1.015548 5.184708
-2.108264 1.038610 5.419118
-2.205589 1.092827 5.463578
-2.219074 1.100298 5.998904
-2.278742 1.133517 6.287691
-2.292475 1.141162 6.352173
-2.296363 1.143294 6.776813
-2.347674 1.171832 7.370401
-2.363784 1.180803 7.434681
-2.324805 1.159070 7.638642
-2.393580 1.197338 8.234317
-2.424845 1.214722 8.663561
-2.196575 1.087561 8.511607
-2.165022 1.069966 8.720315
-2.345322 1.170343 9.602812
-2.258551 1.121978 9.905701
-1.960283 0.955812 9.851550
-1.678870 0.661954 0.356741
-2.146037 0.882533 1.038821
-2.255705 0.934292 1.494541
-2.174947 0.896137 1.678987
-2.172351 0.894915 1.632282
-2.186201 0.901438 1.867515
-2.194177 0.905195 1.989920
-2.248576 0.930834 2.675038
-2.300425 0.955280 3.190106
-2.187800 0.902106 2.986494
-2.079919 0.851106 3.642551
-2.199778 0.907695 3.864088
-2.273149 0.942306 4.379999
-2.283195 0.947046 4.445796
-2.195546 0.905649 4.472254
-2.210819 0.912812 5.119583
-2.196700 0.906112 5.543533
-2.166591 0.891904 5.384083
-2.332950 0.970442 5.766358
-2.453020 1.027104 6.334682
-2.505558 1.051899 6.566897
-2.446154 1.023832 6.712746
-2.400939 1.002462 6.915230
-2.283986 0.947206 7.201380
-2.271397 0.941236 7.519034
-2.333689 0.970637 7.753029
-2.375127 0.990170 8.239894
-2.340864 0.973972 8.448084
-2.308769 0.958774 8.969773
-2.191288 0.903296 8.899544
-2.364728 0.985143 9.729136
-2.196569 0.723050 0.797923
-2.200069 0.724395 0.920587
-2.299340 0.762798 1.095712
-2.247454 0.742659 1.899221
-2.237372 0.738769 1.739784
-2.245033 0.741725 1.862231
-2.278705 0.754721 2.322564
-2.298845 0.762497 2.557304
-2.239594 0.739541 2.915146
-2.258550 0.746863 3.093914
-2.242159 0.740472 3.736406
-2.306992 0.765527 4.196497
-2.308438 0.766085 4.206161
-2.335724 0.776631 4.384386
-2.290884 0.759256 4.692194
-2.108923 0.688837 4.737237
-2.175135 0.714394 5.615517
-2.234641 0.737435 5.433438
-2.503707 0.841497 6.260646
-2.518154 0.847083 6.324233
-2.585094 0.872966 6.610324
-2.537294 0.854453 6.810246
-2.577749 0.870069 7.345337
-2.385621 0.795718 7.352113
-2.468730 0.827830 8.003841
-2.398214 0.800535 8.097365
-2.239047 0.738931 8.221401
-2.220044 0.731557 8.485475
-2.311599 0.766942 9.088628
-2.338864 0.777464 9.467302
-2.234810 0.737198 9.453159
-2.112631 0.689879 9.961454
-2.355405 0.616382 1.365437
-2.343742 0.612735 1.094393
-2.253378 0.584314 1.221426
-2.280252 0.592726 1.737361
-2.312450 0.602816 2.196324
-2.308703 0.601641 2.148145
-2.381671 0.624525 2.943683
-2.348623 0.614158 2.614640
-2.187800 0.563571 2.925655
-2.159635 0.554672 3.512225
-2.248136 0.582502 3.450784
-2.285916 0.594360 3.741031
-2.266574 0.588239 4.271831
-2.322556 0.605815 4.618111
-2.309938 0.601813 5.094946
-2.103305 0.536850 5.027838
-2.262432 0.586857 5.356313
-2.425479 0.638097 5.681211
-2.444418 0.644013 6.215950
-2.538815 0.673663 6.615368
-2.434740 0.640942 6.592245
-2.501445 0.661867 7.241702
-2.503876 0.662605 7.612673
-2.478697 0.654669 7.873066
-2.389795 0.626714 7.910304
-2.317372 0.603937 8.003923
-2.347635 0.613420 8.436079
-2.312453 0.602343 8.644240
-2.244108 0.580824 9.055083
-2.330587 0.607974 9.604335
-2.173865 0.402873 0.733407
-2.364715 0.448950 0.568263
-2.377346 0.451966 1.027163
-2.292331 0.431425 1.321966
-2.318010 0.437590 1.782072
-2.347092 0.444580 2.185325
-2.377005 0.451775 2.531818
-2.362625 0.448316 2.371814
-2.389409 0.454760 2.661861
-2.232379 0.416831 3.030428
-2.206068 0.410438 3.617776
-2.192390 0.407145 3.513332
-2.316929 0.437142 4.370093
-2.309273 0.435298 4.322512
-2.396905 0.456412 4.838049
-2.355277 0.446342 5.146855
-2.222084 0.414170 5.477640
-2.330542 0.440345 5.522402
-2.561621 0.496076 6.126379
-2.508329 0.483199 6.326167
-2.458188 0.471112 6.110875
-2.445020 0.467907 6.479676
-2.495480 0.480044 7.074122
-2.464424 0.472529 7.332628
-2.358658 0.446976 7.676664
-2.418400 0.461357 8.219617
-2.369386 0.449538 8.058668
-2.344676 0.443532 8.634120
-2.328871 0.439698 8.899103
-2.315678 0.436495 9.165075
-2.226633 0.414999 9.206013
-1.795221 0.184699 0.360340
-2.291770 0.268987 0.590505
-2.389453 0.285575 0.541883
-2.303306 0.270916 1.005294
-2.305752 0.271327 1.071465
-2.348541 0.278534 1.871038
-2.353170 0.279316 1.937089
-2.362188 0.280838 2.059469
-2.297863 0.269888 2.472504
-2.376524 0.283190 3.215358
-2.259925 0.263404 3.067551
-2.249741 0.261626 3.768146
-2.250986 0.261836 3.776987
-2.244298 0.260704 3.729238
-2.387399 0.284935 4.641197
-2.388938 0.285196 4.649991
-2.293416 0.268976 4.676306
-2.207036 0.254267 5.288253
-2.112141 0.238154 5.316842
-2.437999 0.293436 5.905691
-2.536103 0.310093 5.892322
-2.493273 0.302803 6.147663
-2.551297 0.312608 6.796474
-2.429360 0.291912 6.718320
-2.470449 0.298849 7.258372
-2.473366 0.299318 7.631290
-2.303236 0.270425 7.753049
-2.313174 0.272085 8.129726
-2.346715 0.277749 8.563907
-2.274348 0.265456 8.660535
-2.355723 0.279233 9.209774
-2.172940 0.248194 9.285372
-1.901429 0.074374 0.047695
-1.901423 0.074372 0.057781
-2.106577 0.095194 0.637236
-2.209010 0.105602 0.758436
-2.214392 0.106137 0.938495
-2.419825 0.127015 1.110431
-2.346423 0.119514 1.632282
-2.357824 0.120661 1.811363
-2.263115 0.111025 1.884631
-2.232365 0.107841 2.695834
-2.276461 0.112296 3.102017
-2.185507 0.103041 3.180384
-2.186696 0.103162 3.190360
-2.286674 0.113276 3.936721
-2.239848 0.108537 3.607157
-2.306760 0.115309 4.069610
-2.255216 0.110046 4.378111
-2.227635 0.107211 4.801660
-2.241093 0.108538 5.397141
-2.089062 0.093096 5.142720
-2.219872 0.106353 5.777791
-2.319212 0.116456 5.766251
-2.437853 0.128484 6.283154
-2.523490 0.137169 6.629667
-2.532825 0.138088 7.057063
-2.343531 0.118834 7.119529
-2.296958 0.114083 7.325478
-2.251994 0.109496 7.532414
-2.259163 0.110199 7.910269
-2.344151 0.118799 8.515227
-2.308645 0.115173 8.725873
-2.274436 0.111680 8.936313
-2.167828 0.100817 9.237468
-1.901804 -0.064543 0.102832
-1.909067 -0.064378 0.687086
-2.117546 -0.058492 0.977411
-2.329201 -0.052515 1.263099
-2.424541 -0.049806 1.156345
-2.327576 -0.052558 1.227379
-2.371605 -0.051363 1.970990
-2.376603 -0.051226 2.037681
-2.277727 -0.054029 2.055670
-2.217815 -0.055759 2.527594
-2.153968 -0.057594 2.888661
-2.161335 -0.057390 2.955912
-2.247255 -0.055004 3.646975
-2.256580 -0.054744 3.713983
-2.200630 -0.056351 4.022187
-2.216474 -0.055952 4.729486
-2.249465 -0.055029 4.909853
-2.131869 -0.058355 4.823368
-2.198062 -0.056504 5.173069
-2.122232 -0.058696 5.790811
-2.246966 -0.055169 5.891538
-2.411374 -0.050530 6.160143
-2.329594 -0.052853 6.248415
-2.361416 -0.051989 6.789136
-2.373117 -0.051688 7.218412
-2.326796 -0.053015 7.423437
-2.217105 -0.056121 7.402961
-2.290354 -0.054088 8.006159
-2.322285 -0.053214 8.440497
-2.266869 -0.054816 8.908028
-2.233940 -0.055764 9.119314
-2.243347 -0.055521 9.444825
-2.184474 -0.057218 9.863080
-1.821758 -0.067487 9.747909
-1.896831 -0.192366 0.508490
-2.194378 -0.203942 0.343724
-2.297880 -0.207989 0.579029
-2.202120 -0.204272 0.759987
-2.335616 -0.209527 1.556485
-2.339450 -0.209681 1.621706
-2.276010 -0.207247 2.145796
-2.217605 -0.205006 2.616376
-2.142408 -0.202094 2.862466
-2.175465 -0.203402 3.155330
-2.183330 -0.203713 3.220951
-2.227987 -0.205477 3.569987
-2.229182 -0.205524 3.578837
-2.163161 -0.202970 3.828415
-2.163790 -0.203040 4.477484
-2.146278 -0.202351 4.372748
-2.128654 -0.201698 4.853580
-2.173084 -0.203445 5.089719
-2.185825 -0.203946 5.155339
-2.147467 -0.202507 5.943622
-2.215158 -0.205164 6.236234
-2.287889 -0.207987 6.108980
-2.274296 -0.207484 6.480367
-2.251288 -0.206610 6.796625
-2.247548 -0.206491 7.170829
-2.216834 -0.205313 7.433072
-2.325740 -0.209604 8.149128
-2.233126 -0.206001 8.187797
-2.249477 -0.206664 8.566847
-2.194902 -0.204549 8.720374
-2.224977 -0.205769 9.418274
-2.053244 -0.199069 9.233275
-1.981944 -0.196340 9.915681
-2.076384 -0.343592 0.398831
-2.177635 -0.354548 0.520523
-2.193970 -0.356355 1.097037
-2.293688 -0.367137 1.102562
-2.246821 -0.362134 2.022088
-2.260863 -0.363665 2.201229
-2.049984 -0.340854 2.056267
-2.123477 -0.348857 2.862688
-2.118476 -0.348313 2.815396
-2.192706 -0.356384 3.449354
-2.095356 -0.345860 3.471817
-2.020869 -0.337820 3.665604
-2.022182 -0.337962 3.675187
-2.064266 -0.342533 3.969814
-2.058717 -0.341975 4.564978
-2.188096 -0.355975 4.727715
-2.285915 -0.366588 5.246495
-2.287804 -0.366793 5.255981
-2.227143 -0.360282 5.929134
-2.048233 -0.340946 6.039794
-2.213486 -0.358832 6.310594
-2.299000 -0.368102 6.658024
-2.293128 -0.367494 7.030247
-2.292573 -0.367460 7.403809
-2.202089 -0.357705 7.807190
-2.042768 -0.340466 7.616216
-2.128629 -0.349770 7.909026
-2.287205 -0.366974 8.740655
-2.121058 -0.348997 8.553586
-2.126441 -0.349624 9.194194
-2.136450 -0.350729 9.520084
-1.859086 -0.320748 9.630752
-1.852024 -0.441848 0.311495
-2.051323 -0.476478 0.490016
-2.156130 -0.494703 0.781472
-2.161598 -0.495665 0.961083
-2.074721 -0.480596 1.258552
-2.016631 -0.470556 1.957403
-2.025723 -0.472144 2.080979
-2.049716 -0.476333 2.375370
-2.125490 -0.489547 3.122956
-2.083368 -0.482203 2.733669
-1.966553 -0.461964 3.449062
-2.013552 -0.470153 3.799955
-1.917213 -0.453421 3.822587
-1.951749 -0.459436 4.059848
-2.182312 -0.499539 4.848355
-2.398291 -0.537059 4.932861
-2.453724 -0.546708 5.221712
-2.325907 -0.524497 5.080865
-2.275101 -0.515691 5.334269
-2.070432 -0.480174 5.801479
-2.037883 -0.474573 6.538636
-2.012342 -0.470130 6.433112
-2.098773 -0.485167 6.783113
-2.188389 -0.500783 7.498575
-2.080062 -0.481966 7.477680
-2.102690 -0.485927 7.912134
-2.114710 -0.488042 8.290892
-2.041213 -0.475283 8.386449
-2.022839 -0.472111 8.653605
-1.988160 -0.466102 8.864724
-1.901072 -0.451001 9.223873
-1.623599 -0.517522 0.270891
-1.819866 -0.565365 0.451119
-1.915735 -0.588721 0.344952
-2.035625 -0.617999 1.207223
-2.049709 -0.621453 1.501135
-1.970069 -0.602066 1.801481
-1.978317 -0.604085 1.925110
-1.908079 -0.586994 2.285033
-1.928714 -0.592040 2.523235
-1.957221 -0.599009 2.818304
-1.946746 -0.596448 2.713741
-1.900104 -0.585116 3.191409
-2.062108 -0.624633 3.701263
-1.951925 -0.597775 3.610543
-2.098619 -0.633595 4.587690
-2.254511 -0.671567 4.337492
-2.384014 -0.703180 5.078242
-2.385799 -0.703616 5.087666
-2.292238 -0.680817 5.116284
-2.265410 -0.674306 5.483653
-2.211885 -0.661310 6.157317
-1.879029 -0.580183 6.006864
-1.770048 -0.553654 6.406138
-1.963561 -0.600840 6.792479
-1.994745 -0.608449 6.916083
-1.992925 -0.608032 7.293558
-2.078492 -0.628933 7.956735
-1.845316 -0.572101 7.852574
-1.856213 -0.574784 8.233727
-1.836476 -0.569993 8.501385
-1.951448 -0.598060 9.170652
-1.843166 -0.571671 9.154495
-1.583468 -0.627940 0.148942
-1.679092 -0.658364 0.225580
-1.974372 -0.752337 0.802670
-1.882716 -0.723190 0.929348
-1.904113 -0.730035 1.452894
-1.935485 -0.740053 1.975886
-1.819252 -0.703055 1.649282
-1.877756 -0.721725 2.459852
-1.764608 -0.685716 2.249071
-1.794839 -0.695359 2.602898
-1.740967 -0.678253 3.024667
-1.862219 -0.716841 3.251943
-1.833537 -0.707756 3.789497
-1.678363 -0.658414 4.057806
-1.956648 -0.746979 4.608148
-2.185745 -0.819828 4.227086
-2.351261 -0.872551 5.191936
-2.331779 -0.866346 5.088323
-2.304916 -0.857827 5.453487
-2.295013 -0.854708 5.876506
-2.148030 -0.807968 6.098825
-1.923258 -0.736489 6.403930
-1.701751 -0.666049 6.713798
-1.703857 -0.666720 6.722564
-1.835470 -0.708625 7.247808
-1.745838 -0.680115 7.282956
-1.796719 -0.696341 7.835558
-1.807303 -0.699736 8.217165
-1.805477 -0.699179 8.542583
-1.879657 -0.722794 8.780183
-1.865739 -0.718386 9.049492
-1.733356 -0.676312 9.558950
-1.427755 -0.579098 9.553239
-1.536730 -0.734984 0.154362
-1.537385 -0.735252 0.280150
-1.725284 -0.809568 0.459187
-1.825311 -0.849149 0.809056
-1.839010 -0.854596 1.217388
-1.868624 -0.866351 1.796580
-1.791431 -0.835844 2.040613
-1.800294 -0.839358 2.163516
-1.717031 -0.806443 2.294808
-1.731827 -0.812307 2.475445
-1.713753 -0.805218 3.240463
-1.788270 -0.834671 3.065374
-1.728841 -0.811194 3.372259
-1.588040 -0.755545 3.752240
-1.928402 -0.890168 4.175070
-2.293442 -1.034558 4.698187
-2.313883 -1.042650 4.818530
-2.223880 -1.007062 4.845074
-2.247992 -1.016645 5.490776
-2.227048 -1.008391 5.857410
-2.108031 -0.961352 6.192398
-1.884104 -0.872855 6.881578
-1.762902 -0.824949 7.169971
-1.704469 -0.801854 7.319523
-1.692377 -0.797097 7.642325
-1.765522 -0.826067 8.253194
-1.798847 -0.839278 8.692869
-1.695599 -0.798448 8.675220
-1.680911 -0.792660 8.945085
-1.580914 -0.753141 9.248726
-1.474661 -0.711167 9.820881
-1.394628 -0.792960 0.265537
-1.672557 -0.924905 0.732347
-1.757895 -0.965386 0.454127
-1.685226 -0.930951 1.153925
-1.700588 -0.938269 1.507865
-1.613808 -0.897088 1.580954
-1.627241 -0.903482 1.821000
-1.646632 -0.912708 2.118328
-1.588583 -0.885190 2.539433
-1.632184 -0.905920 3.009630
-1.627445 -0.903667 2.962268
-1.954885 -1.059168 4.164605
-2.134773 -1.144544 4.143339
-2.241674 -1.195289 4.249582
-2.280877 -1.213958 5.060211
-2.255299 -1.201847 5.425360
-2.137377 -1.145869 5.287084
-2.071513 -1.114656 5.902032
-1.920731 -1.043106 6.069627
-1.713584 -0.944849 6.817608
-1.507925 -0.847265 7.132439
-1.700852 -0.938889 7.889060
-1.601196 -0.891589 7.868851
-1.644125 -0.912003 8.366674
-1.746883 -0.960800 8.719230
-1.715596 -0.945967 8.931270
-1.547092 -0.865999 9.004050
-1.599899 -0.891121 9.770612
-1.225119 -0.713247 9.800832
-1.601355 -1.045425 0.776038
-1.596153 -1.042449 0.499525
-1.514917 -0.996348 0.799421
-1.545543 -1.013803 1.615319
-1.543174 -1.012454 1.568151
-1.552769 -1.017916 1.750954
-1.480329 -0.976805 1.998409
-1.543119 -1.012523 2.813838
-1.577267 -1.031940 3.167806
-1.636556 -1.065581 2.879100
-1.904296 -1.217672 3.735871
-2.042762 -1.296323 4.125103
-2.100594 -1.329192 4.527345
-2.078443 -1.316649 4.947121
-2.098683 -1.328151 5.068380
-2.094567 -1.325852 5.546250
-1.979916 -1.260781 5.879340
-1.705056 -1.104714 5.840128
-1.589452 -1.039167 6.992144
-1.490993 -0.983291 7.340908
-1.509103 -0.993609 7.780713
-1.472582 -0.972889 7.991222
-1.536054 -1.008948 8.230847
-1.486809 -0.980999 8.385034
-1.570387 -1.028504 9.000744
-1.425562 -0.946284 9.132091
-1.424254 -0.945589 9.728190
-1.081886 -0.751202 9.815966
-1.269613 -0.979582 0.031596
-1.188388 -0.926020 0.449666
-1.364450 -1.042235 0.919574
-1.540658 -1.158531 1.210131
-1.545435 -1.161693 1.335065
-1.475455 -1.115543 1.637778
-1.389819 -1.059032 1.596380
-1.412494 -1.074029 2.010571
-1.357445 -1.037740 2.433178
-1.391063 -1.059958 2.847873
-1.359117 -1.038924 3.389521
-1.648889 -1.230159 3.725550
-1.910241 -1.402673 4.442317
-1.919707 -1.408925 4.508787
-1.980392 -1.449002 4.912675
-1.981978 -1.450050 4.922768
-2.025787 -1.479021 5.682305
-1.762510 -1.305293 5.643101
-1.675384 -1.247841 6.094776
-1.374590 -1.049378 6.310691
-0.732785 -0.625935 6.955523
-0.960558 -0.776253 7.211720
-1.270677 -0.980905 7.435939
-1.383933 -1.055678 7.909397
-1.409140 -1.072348 8.351477
-1.362374 -1.041502 8.506082
-1.363748 -1.042436 8.834938
-1.335595 -1.023877 9.049189
-1.280875 -0.987806 9.471252
-1.064881 -0.845295 9.639034
-1.042316 -0.941059 -0.004306
-1.205462 -1.065134 0.586950
-1.372072 -1.191822 0.938846
-1.462836 -1.260851 1.289841
-1.379605 -1.197571 1.189749
-1.413928 -1.223729 1.947590
-1.414515 -1.224177 1.957913
-1.290278 -1.129779 2.503164
-1.207556 -1.066891 2.464732
-1.319187 -1.151789 2.870417
-1.625888 -1.385063 4.250172
-1.749315 -1.478865 3.944671
-1.792581 -1.511787 4.292105
-1.816187 -1.529748 4.469833
-1.847096 -1.553311 5.228637
-1.804807 -1.521139 4.955614
-1.652838 -1.405664 5.532224
-1.547585 -1.325680 5.867780
-1.347016 -1.173230 6.114523
-0.994911 -0.905659 7.239462
-0.957900 -0.877542 7.450470
-1.165166 -1.035121 7.639235
-1.261778 -1.108602 8.054068
-1.258595 -1.106212 8.381608
-1.243659 -1.094881 8.652347
-1.246330 -1.096940 8.982035
-1.129183 -1.007903 9.171136
-1.087648 -0.976393 9.921492
-0.975721 -1.009867 0.020132
-1.063897 -1.087016 1.026288
-1.285588 -1.280731 0.850696
-1.223945 -1.226906 1.323722
-1.241064 -1.241904 1.735692
-1.247128 -1.247216 1.858961
-1.178523 -1.187275 1.989415
-1.113819 -1.130749 2.178829
-1.107332 -1.125169 3.125765
-1.657540 -1.606071 4.059018
-1.713936 -1.655397 4.518028
-1.678636 -1.624578 4.825177
-1.680109 -1.625915 5.359840
-1.569588 -1.529358 5.634900
-1.451677 -1.426339 5.855962
-1.305941 -1.298987 5.907019
-1.032879 -1.060384 6.118164
-0.802808 -0.859371 6.568934
-0.636656 -0.714245 7.326627
-0.529273 -0.620427 7.565734
-0.870841 -0.918929 7.703559
-1.068061 -1.091294 7.890091
-1.049960 -1.075500 8.159527
-1.047673 -1.073532 8.488311
-1.134344 -1.149306 8.845064
-1.138415 -1.152894 9.174885
-1.013128 -1.043420 9.306069
-0.927760 -0.968873 9.883073
-0.829228 -1.009081 0.353958
-1.183910 -1.368615 0.656376
-1.118230 -1.302066 0.899710
-1.121200 -1.305090 1.025203
-1.138349 -1.322524 1.554893
-1.096051 -1.279711 2.149455
-1.051261 -1.234354 2.573491
-0.967252 -1.149181 2.359952
-0.990608 -1.172891 2.719272
-1.198181 -1.383367 3.536268
-1.458908 -1.647687 4.018198
-1.478534 -1.667598 4.198033
-1.478262 -1.667381 4.791257
-1.334057 -1.521214 4.779750
-1.357388 -1.544880 4.960795
-1.267468 -1.453778 5.350934
-1.235386 -1.421332 6.090417
-1.040840 -1.224155 6.224444
-0.510115 -0.686364 7.710595
-0.682542 -0.861148 7.843610
-0.867494 -1.048633 8.032192
-0.881660 -1.062999 8.099880
-0.984593 -1.167410 8.897784
-0.933672 -1.115807 8.996711
-0.882983 -1.064439 9.096060
-0.759683 -1.060564 0.079786
-0.828691 -1.140510 0.616427
-0.957550 -1.289670 0.448690
-0.960530 -1.293145 0.691202
-1.035856 -1.380399 1.161506
-0.974103 -1.308923 1.290645
-0.930827 -1.258886 1.885872
-0.948338 -1.279198 2.243469
-0.965420 -1.299005 2.542680
-0.927786 -1.255483 2.968243
-1.206623 -1.578390 3.937459
-1.250772 -1.629476 3.703713
-1.360319 -1.756344 4.152871
-1.339645 -1.732456 4.575055
-1.147439 -1.510008 5.187826
-1.089885 -1.443440 5.754384
-0.907706 -1.232549 5.884869
-0.824201 -1.135960 6.661805
-0.543514 -0.811006 6.588556
-0.368981 -0.609015 7.172095
-0.422341 -0.670822 7.480959
-0.540877 -0.808079 7.761699
-0.701489 -0.994031 7.893349
-0.822708 -1.134392 8.167518
-0.845207 -1.160487 8.615393
-0.821951 -1.133587 8.830586
-0.939833 -1.270114 9.364235
-0.886336 -1.208221 9.731186
-0.628696 -0.909965 9.817420
-0.693775 -1.104806 0.051360
-0.760971 -1.192998 0.831508
-0.892942 -1.366080 1.299703
-0.885983 -1.356924 1.019754
-0.831307 -1.285266 1.266147
-0.853784 -1.314811 1.915837
-0.879411 -1.348472 2.448415
-0.889777 -1.362084 2.632384
-0.844276 -1.302456 2.884674
-1.003517 -1.511299 3.412166
-1.182852 -1.746503 4.081257
-1.222847 -1.798988 4.489018
-1.152455 -1.706687 4.401531
-1.048553 -1.570605 5.649928
-0.857057 -1.319528 5.606014
-0.718265 -1.137599 5.970524
-0.649814 -1.047900 6.377187
-0.499807 -0.851254 6.634030
-0.329203 -0.627636 7.158971
-0.378540 -0.692356 7.467407
-0.519171 -0.876792 7.925879
-0.658046 -1.058880 7.996790
-0.815066 -1.264809 8.503102
-0.736638 -1.161971 8.424923
-0.736875 -1.162321 8.756542
-0.825006 -1.277956 9.497775
-0.807617 -1.255182 9.714798
-0.664378 -1.067406 9.943117
-0.834439 -1.493765 0.708275
-0.781594 -1.412893 0.837366
-0.789950 -1.425737 1.253960
-0.737037 -1.344754 1.327290
-0.697052 -1.283613 1.809730
-0.711213 -1.305335 2.170342
-0.731003 -1.335681 2.588787
-0.737729 -1.345992 2.715863
-0.840917 -1.504037 3.487483
-0.989338 -1.731284 3.986380
-1.019414 -1.777364 4.338245
-0.987289 -1.728224 4.592447
-0.824485 -1.479168 5.692333
-0.611561 -1.153263 5.784749
-0.623686 -1.171895 6.343875
-0.441150 -0.892588 7.081515
-0.353629 -0.758695 7.644839
-0.453756 -0.911992 7.924721
-0.545760 -1.052847 8.142516
-0.609347 -1.150182 8.182002
-0.608036 -1.148218 8.514299
-0.619467 -1.165766 8.906348
-0.718971 -1.318141 9.441816
-0.585113 -1.284716 0.702738
-0.683785 -1.460566 0.765986
-0.638512 -1.379922 1.011508
-0.601471 -1.313988 1.550747
-0.610474 -1.330075 1.852575
-0.625714 -1.357294 2.270738
-0.641391 -1.385283 2.630167
-0.593151 -1.299318 2.649768
-0.760323 -1.597401 3.827046
-0.905492 -1.856192 4.437175
-0.839761 -1.739026 4.234398
-0.714053 -1.515044 4.523021
-0.699502 -1.489316 5.942350
-0.503127 -1.139364 5.980041
-0.421473 -0.993875 6.151482
-0.360635 -0.885505 6.503126
-0.291661 -0.762685 7.181634
-0.198243 -0.596215 7.242250
-0.326510 -0.824882 7.825213
-0.358613 -0.882072 7.689259
-0.465490 -1.072593 8.086314
-0.565007 -1.250036 8.742823
-0.548227 -1.220162 8.959714
-0.512970 -1.157346 9.060036
-0.506964 -1.146683 9.335534
-0.518651 -1.167604 9.998671
-0.410667 -1.138895 0.621670
-0.497805 -1.322084 0.744293
-0.544723 -1.420759 1.042660
-0.547879 -1.427423 1.227048
-0.515663 -1.359780 1.708298
-0.493398 -1.313085 2.368048
-0.495948 -1.318458 2.436334
-0.518566 -1.366088 2.971772
-0.592719 -1.522060 3.570724
-0.702616 -1.753133 3.956546
-0.760697 -1.875261 4.180142
-0.718049 -1.785712 4.795224
-0.569602 -1.473721 5.126525
-0.441765 -1.205089 5.680403
-0.396894 -1.110843 6.143188
-0.187057 -0.669976 7.500262
-0.257765 -0.818644 7.721783
-0.366793 -1.047912 8.236982
-0.393872 -1.104810 8.098755
-0.408042 -1.134669 8.549083
-0.482998 -1.292320 9.086002
-0.477886 -1.281620 9.360900
-0.415623 -1.150768 9.552683
-0.344840 -1.002001 9.686823
-0.331423 -1.162195 0.504110
-0.410772 -1.363341 1.096750
-0.455721 -1.477313 1.569750
-0.419220 -1.384839 1.582900
-0.423234 -1.395043 1.765513
-0.399206 -1.334258 2.247655
-0.414914 -1.374147 2.722778
-0.407048 -1.354174 2.496613
-0.495630 -1.578837 3.729843
-0.565856 -1.756742 3.652431
-0.597259 -1.836415 4.233950
-0.531989 -1.671080 4.388165
-0.446572 -1.454856 5.351131
-0.348386 -1.206223 6.025753
-0.298991 -1.081052 5.877808
-0.192575 -0.811623 6.845048
-0.149653 -0.703022 7.586746
-0.239416 -0.930465 7.720145
-0.281684 -1.037562 7.759949
-0.339865 -1.185069 8.298727
-0.312242 -1.115104 8.394554
-0.340188 -1.186014 8.962867
-0.355454 -1.224716 9.088039
-0.331282 -1.163555 9.513353
-0.299049 -1.082014 10.153785
-0.220631 -1.084195 0.285648
-0.251132 -1.180099 0.353641
-0.346508 -1.480093 1.000820
-0.315716 -1.383277 0.955694
-0.288963 -1.299243 1.262068
-0.290757 -1.304914 1.389160
-0.302888 -1.343201 2.043323
-0.300567 -1.335879 1.936082
-0.281719 -1.276739 2.422675
-0.293850 -1.314972 2.842990
-0.375367 -1.571382 3.432552
-0.449835 -1.805570 3.762239
-0.432978 -1.752648 4.074004
-0.414644 -1.695204 4.924012
-0.340196 -1.461230 5.240804
-0.239596 -1.145050 5.622039
-0.198559 -1.016221 6.405840
-0.186895 -0.979613 6.676240
-0.086184 -0.662976 6.577004
-0.087672 -0.667849 7.416989
-0.122582 -0.777609 7.460397
-0.167411 -0.918578 7.622344
-0.193672 -1.001210 7.928659
-0.230820 -1.118166 8.677130
-0.214798 -1.067760 8.509059
-0.232815 -1.124520 9.021631
-0.229054 -1.112757 9.298876
-0.251594 -1.183739 9.813021
-0.138561 -0.828419 9.958170
-0.169561 -1.193278 0.183374
-0.170299 -1.196394 0.499509
-0.195562 -1.299926 0.802046
-0.200965 -1.322225 1.399234
-0.203300 -1.331840 1.585806
-0.206835 -1.346389 1.830870
-0.211951 -1.367428 2.134305
-0.213234 -1.372700 2.203554
-0.203846 -1.334457 2.867478
-0.282728 -1.657759 3.920250
-0.338161 -1.884799 4.130256
-0.349386 -1.930848 4.425935
-0.298451 -1.722268 4.352547
-0.237806 -1.474201 5.204160
-0.156079 -1.139653 5.525467
-0.110601 -0.953598 6.070776
-0.059626 -0.745120 6.906999
-0.024987 -0.603360 7.145832
-0.102713 -0.921859 7.967363
-0.138519 -1.068521 8.126771
-0.160430 -1.158328 8.431657
-0.151632 -1.122366 8.648064
-0.120669 -0.995659 8.896246
-0.130603 -1.036372 9.024350
-0.156879 -1.144147 9.657574
-0.148697 -1.110791 10.148707
-0.089782 -1.204911 0.486625
-0.108310 -1.311380 0.848106
-0.110949 -1.326693 1.269626
-0.111494 -1.329850 1.339243
-0.114835 -1.349172 1.701834
-0.118284 -1.369086 2.005598
-0.104387 -1.289441 2.258740
-0.095735 -1.240020 2.807778
-0.127339 -1.421671 3.532751
-0.195616 -1.813741 4.197016
-0.212866 -1.912731 4.192301
-0.179235 -1.719760 4.234141
-0.121773 -1.390419 5.224871
-0.075408 -1.124638 5.903656
-0.042253 -0.934401 5.956947
-0.025805 -0.840554 7.275898
0.009600 -0.637388 7.277973
-0.043443 -0.941924 7.655807
-0.080882 -1.156924 8.054052
-0.089700 -1.207737 8.565878
-0.064438 -1.062720 8.429528
-0.071662 -1.104491 9.212090
-0.073374 -1.114455 9.549150
-0.054159 -1.004183 9.531899
-0.033076 -0.883301 9.785762
0.003981 -1.106375 0.281260
-0.006304 -1.205208 0.173480
-0.017533 -1.313601 0.770650
-0.017412 -1.312398 0.722754
-0.019561 -1.333473 1.320007
-0.021182 -1.349267 1.623799
-0.012032 -1.261406 1.816759
-0.013782 -1.278400 2.062599
-0.016793 -1.307603 2.425655
-0.007678 -1.220038 2.562967
-0.032212 -1.456777 3.756258
-0.052039 -1.647395 3.681645
-0.056420 -1.689733 3.981717
-0.061093 -1.735270 4.875526
-0.035090 -1.485754 5.676021
0.001315 -1.135848 5.944033
0.021341 -0.943306 5.995057
0.045964 -0.706726 6.307704
0.057196 -0.598993 6.722655
0.057762 -0.593817 7.116890
0.049421 -0.674238 7.426375
0.015593 -0.999844 7.859360
0.008208 -1.071023 8.105037
0.006717 -1.085628 8.497735
0.006443 -1.088274 8.506286
-0.005758 -1.206071 9.195074
0.019698 -0.961194 9.089572
0.010315 -1.051818 9.664611
0.027324 -0.888345 9.799499
0.082931 -1.003093 0.203700
0.072150 -1.308315 0.624203
0.072003 -1.312838 0.811441
0.071229 -1.335864 1.406332
0.071112 -1.339288 1.473414
0.073783 -1.264735 1.898723
0.076546 -1.187341 2.208842
0.079887 -1.093163 2.284440
0.078577 -1.130980 2.706709
0.067108 -1.456874 3.765604
0.059484 -1.672317 3.862379
0.056323 -1.762731 4.448563
0.058031 -1.715126 4.762480
0.072223 -1.315594 5.345305
0.080813 -1.074661 6.143160
0.091112 -0.784032 6.217365
0.096933 -0.620907 6.834598
0.098177 -0.586339 7.108418
0.096457 -0.635258 7.297710
0.090130 -0.814463 7.580206
0.084296 -0.979599 7.800218
0.083014 -1.016051 7.927501
0.079390 -1.119736 8.616219
0.076631 -1.198087 8.860749
0.082587 -1.030214 8.990548
0.085708 -0.942817 9.359478
0.086054 -0.933594 9.638696
0.094757 -0.688874 10.140891
0.157896 -1.194762 0.152311
0.154632 -1.095599 0.290729
0.158420 -1.208954 0.947601
0.162035 -1.317921 1.188778
0.162869 -1.342146 1.667509
0.163541 -1.361875 1.970156
0.159998 -1.254768 1.869567
0.155185 -1.107565 2.543551
0.154858 -1.097892 2.435268
0.165111 -1.406288 3.443051
0.174656 -1.694069 4.064845
0.176220 -1.740791 4.363369
0.172090 -1.616020 4.215261
0.173919 -1.669515 5.111023
0.166767 -1.453061 5.041537
0.154980 -1.095527 5.302096
0.154592 -1.082818 5.745715
0.147121 -0.855760 6.115826
0.141650 -0.689688 6.289187
0.137151 -0.552806 6.584928
0.134260 -0.464220 7.065317
0.142270 -0.705714 7.590963
0.147185 -0.854224 7.752544
0.154440 -1.073105 8.149425
0.156907 -1.147315 8.394554
0.153845 -1.054499 8.432766
0.152017 -0.998091 8.916876
0.152918 -1.024548 9.313093
0.154009 -1.056753 9.710185
0.144792 -0.777375 9.819505
0.235199 -1.082663 0.427212
0.237546 -1.104035 1.205418
0.237077 -1.099731 1.097189
0.250533 -1.224843 1.632799
0.250595 -1.225415 1.642676
0.232812 -1.059283 2.137935
0.235506 -1.084200 2.443581
0.239202 -1.118421 2.807971
0.276303 -1.463579 3.984062
0.297539 -1.661589 3.963641
0.303390 -1.715915 4.318951
0.301431 -1.697329 4.806265
0.256499 -1.278078 5.273109
0.223791 -0.972787 5.774096
0.199599 -0.746984 6.144206
0.170024 -0.471137 6.278530
0.171937 -0.488637 6.793773
0.186878 -0.627582 7.345156
0.194079 -0.694814 7.208644
0.221956 -0.954350 7.788154
0.235177 -1.077348 8.211809
0.235459 -1.079972 8.220586
0.231323 -1.041269 8.436004
0.231398 -1.041742 8.770838
0.232540 -1.051952 9.434793
0.219375 -0.929038 9.687483
0.189550 -0.650888 9.796256
0.283905 -0.965454 -0.024160
0.267161 -0.866733 0.105089
0.301693 -1.069988 0.647273
0.303097 -1.078137 0.953167
0.303155 -1.078473 0.963554
0.308201 -1.107929 1.623608
0.310777 -1.123005 1.870018
0.297811 -1.046471 2.183003
0.304877 -1.087910 2.666332
0.307001 -1.100369 2.794825
0.353150 -1.372031 3.449443
0.397103 -1.630845 3.898098
0.398766 -1.640617 3.966126
0.397884 -1.635165 4.570491
0.336186 -1.271280 5.332014
0.278860 -0.933347 5.657181
0.240684 -0.708234 6.027950
0.205662 -0.501684 6.464963
0.199357 -0.464418 6.740184
0.214845 -0.555521 7.112889
0.247323 -0.746761 7.458294
0.274908 -0.909214 7.680897
0.301356 -1.064833 8.224974
0.285863 -0.973523 8.264226
0.314262 -1.140641 8.806880
0.302129 -1.069100 8.907182
0.284029 -0.962318 9.216248
0.273456 -0.899832 9.647061
0.251979 -0.773055 10.175416
0.307123 -0.747373 0.144687
0.332039 -0.847837 0.512213
0.381382 -1.046929 0.755789
0.382697 -1.052183 0.943472
0.390636 -1.084017 1.662572
0.364371 -0.978051 1.501125
0.378209 -1.033661 2.340345
0.350979 -0.923798 2.181037
0.368341 -0.993649 2.962443
0.454034 -1.339397 3.429582
0.509346 -1.562590 3.646791
0.525744 -1.628642 4.119941
0.508916 -1.560660 4.319195
0.507032 -1.552898 4.867814
0.433881 -1.257633 4.871227
0.381901 -1.047686 5.347122
0.346554 -0.904932 5.632114
0.304223 -0.733891 6.240496
0.231066 -0.438603 6.254911
0.231725 -0.441128 6.709719
0.223138 -0.406387 6.984464
0.265527 -0.577402 7.270454
0.324040 -0.813540 7.407817
0.360613 -0.961001 7.951825
0.365388 -0.980256 8.019899
0.364300 -0.975766 8.353629
0.391912 -1.087018 9.043303
0.356536 -0.944174 9.233865
0.326377 -0.822369 9.485633
0.284320 -0.652492 9.892863
0.351999 -0.727258 0.123438
0.352180 -0.727805 0.253967
0.413159 -0.922292 0.560184
0.478216 -1.129721 1.153861
0.422653 -0.952372 1.466865
0.427881 -0.968981 1.771649
0.434132 -0.988852 2.076218
0.403192 -0.890146 2.032786
0.423441 -0.954572 2.812721
0.459011 -1.068017 2.988256
0.409951 -0.911410 3.315287
0.460600 -1.072888 3.843559
0.565171 -1.406456 4.160187
0.603297 -1.528059 4.327344
0.591648 -1.490804 4.700160
0.583160 -1.463764 4.534364
0.510363 -1.231416 4.885883
0.449250 -1.036304 5.420750
0.398215 -0.873434 5.587075
0.329547 -0.654257 5.955382
0.320677 -0.625879 6.285437
0.263496 -0.443323 6.784096
0.210450 -0.274047 6.900851
0.267565 -0.456198 7.248787
0.335538 -0.673050 7.327110
0.399192 -0.876051 7.727111
0.435913 -0.993114 8.150812
0.435014 -0.990166 8.484329
0.452650 -1.046316 8.996263
0.425096 -0.958393 9.036154
0.417615 -0.934395 9.583343
0.346489 -0.707408 9.810859
0.436059 -0.795255 0.041807
0.399848 -0.702065 0.111763
0.400679 -0.704144 0.420915
0.476980 -0.900384 0.903146
0.522330 -1.016961 1.500930
0.482135 -0.913575 1.279322
0.487733 -0.927920 1.585839
0.463005 -0.864196 2.077105
0.432184 -0.784852 2.273508
0.445923 -0.820121 2.700546
0.457332 -0.849418 3.008104
0.421720 -0.757780 3.029086
0.511636 -0.989070 3.431842
0.681417 -1.425849 3.916020
0.697778 -1.467890 4.216167
0.665881 -1.385797 4.299778
0.634899 -1.305945 4.984553
0.568271 -1.134480 5.089586
0.482841 -0.914587 5.451491
0.417716 -0.746891 6.058265
0.338305 -0.542568 5.991138
0.257192 -0.333779 6.368163
0.280595 -0.393863 7.066735
0.311036 -0.472207 6.990914
0.398069 -0.696055 7.515064
0.482402 -0.912969 7.973132
0.464767 -0.867624 7.803930
0.542539 -1.067603 8.522618
0.529326 -1.033562 8.738458
0.495855 -0.947431 8.777776
0.499682 -0.957148 9.441729
0.398089 -0.695714 9.548588
0.358692 -0.594226 10.137374
0.493493 -0.760942 0.047856
0.450924 -0.671512 0.297631
0.499036 -0.772442 0.902961
0.590874 -0.965228 1.261948
0.597437 -0.978961 1.567807
0.559291 -0.898827 1.761701
0.523546 -0.823727 2.016310
0.533779 -0.845166 2.323892
0.500257 -0.774731 2.579659
0.505475 -0.785668 2.707984
0.500272 -0.774612 3.502065
0.599374 -0.982676 3.722552
0.724354 -1.245129 3.633132
0.788540 -1.379854 3.977723
0.777872 -1.357374 4.466952
0.748808 -1.296311 4.667252
0.387462 -0.537306 6.099175
0.315888 -0.386983 6.272390
0.323490 -0.402862 6.788109
0.328459 -0.413221 7.244776
0.391544 -0.545664 7.409479
0.482579 -0.736821 7.426915
0.548158 -0.874438 7.971280
0.587142 -0.956248 8.276459
0.547205 -0.872380 8.314729
0.546851 -0.871583 8.650024
0.532865 -0.842125 9.195844
0.514503 -0.803488 9.686089
0.421938 -0.609069 9.975305
0.495374 -0.640129 0.356939
0.496674 -0.642417 0.545126
0.501976 -0.651795 0.972302
0.606989 -0.838692 1.330266
0.616501 -0.855573 1.694604
0.579562 -0.789760 2.065968
0.573722 -0.779388 1.896549
0.533556 -0.707847 2.150595
0.553831 -0.743872 2.635924
0.517061 -0.678375 2.892980
0.551011 -0.738728 3.497880
0.652418 -0.919250 3.540790
0.834362 -1.243082 4.036417
0.834993 -1.244204 4.045066
0.866984 -1.301096 4.461049
0.780653 -1.147384 4.619334
0.569457 -0.771268 5.581038
0.448107 -0.555129 6.330904
0.285824 -0.266243 6.224535
0.330465 -0.345597 7.044518
0.386536 -0.445411 7.089353
0.497624 -0.643161 7.168561
0.569731 -0.771451 7.713876
0.676716 -0.961852 8.109352
0.657351 -0.927348 8.324685
0.620827 -0.862312 8.422589
0.639813 -0.896047 8.876466
0.636176 -0.889486 9.481942
0.509226 -0.663460 9.649656
0.457136 -0.570644 10.239542
0.595768 -0.693354 0.697602
0.598521 -0.697532 0.886218
0.656747 -0.786394 1.071106
0.668935 -0.804938 1.555288
0.618264 -0.727569 1.689669
0.639056 -0.759239 2.234382
0.653407 -0.781106 2.541068
0.599336 -0.698562 2.560127
0.564590 -0.645473 2.937502
0.575826 -0.662602 3.126459
0.704460 -0.858931 3.409907
0.861929 -1.099232 4.039693
0.872356 -1.115134 4.165984
0.925769 -1.196595 4.758720
0.836044 -1.059598 4.978600
0.619822 -0.729451 5.573607
0.433394 -0.444819 5.903467
0.317398 -0.267690 6.339735
0.303757 -0.246825 6.675413
0.382318 -0.366729 6.843327
0.521292 -0.578804 7.429312
0.602294 -0.702436 7.591659
0.631084 -0.746361 7.779568
0.670066 -0.805836 8.026379
0.687690 -0.832682 8.479244
0.720085 -0.882069 8.992111
0.661330 -0.792337 9.301746
0.593062 -0.688091 9.554525
0.486092 -0.524753 9.902939
0.577386 -0.566734 0.319113
0.516558 -0.486372 0.209415
0.640605 -0.650231 0.634568
0.707015 -0.737939 0.997671
0.665322 -0.682771 1.664818
0.677219 -0.698456 1.971288
0.631049 -0.637413 2.285610
0.623054 -0.626868 2.116134
0.661669 -0.677808 2.839966
0.605924 -0.604140 2.919088
0.626340 -0.631081 3.226587
0.695410 -0.722333 3.343108
0.867849 -0.950111 3.975453
0.966243 -1.080077 4.379306
0.907558 -1.002530 4.404369
0.931966 -1.034753 4.647669
0.898315 -0.990258 4.908324
0.674888 -0.695011 5.107432
0.539678 -0.516303 5.531329
0.499006 -0.462486 6.181784
0.407178 -0.341123 6.415904
0.366636 -0.287536 6.568863
0.326595 -0.234609 6.722594
0.565326 -0.549969 7.466005
0.664145 -0.680561 7.304330
0.714326 -0.746832 7.610471
0.783134 -0.837665 8.357666
0.705369 -0.734920 8.277665
0.738697 -0.778898 8.790726
0.790070 -0.846712 9.363442
0.620798 -0.623033 9.470263
0.584924 -0.575581 9.904041
0.618734 -0.530578 0.697574
0.627430 -0.540526 1.126317
0.642708 -0.558028 1.614486
0.713261 -0.639086 1.738205
0.667187 -0.586097 2.172247
0.680529 -0.601402 2.421037
0.688071 -0.610053 2.550592
0.703675 -0.627957 2.799077
0.668748 -0.587777 3.237063
0.789840 -0.726850 3.888145
0.961014 -0.923499 4.281438
0.938539 -0.897697 4.057100
0.843695 -0.788612 5.020109
0.671199 -0.590324 5.759711
0.504745 -0.399031 6.010168
0.394986 -0.272892 6.182136
0.294942 -0.157910 6.416651
0.308170 -0.173055 6.935053
0.520467 -0.416991 6.992210
0.689357 -0.611036 7.190452
0.775288 -0.709726 7.674131
0.803958 -0.742615 8.184088
0.852875 -0.798797 8.428892
0.779907 -0.714954 8.407783
0.817623 -0.758238 8.919881
0.764812 -0.697480 9.616694
0.594888 -0.502208 9.784682
0.450403 -0.336125 10.350456
0.578851 -0.412233 0.356588
0.509406 -0.342660 0.489109
0.580883 -0.414249 0.558584
0.659335 -0.492789 0.986071
0.662651 -0.496097 1.116517
0.670145 -0.503579 1.363806
0.681644 -0.515067 1.670668
0.698566 -0.531980 2.036956
0.715396 -0.548809 2.343325
0.660366 -0.493662 2.599094
0.690593 -0.523896 3.025358
0.607038 -0.440135 3.715267
0.742345 -0.575674 3.637816
0.942551 -0.776156 4.209796
0.943450 -0.777056 4.218074
0.894242 -0.727746 4.418734
0.889847 -0.723289 4.975149
0.721833 -0.554960 5.335140
0.617753 -0.450679 5.621168
0.515763 -0.348490 5.910285
0.425397 -0.257939 6.262942
0.406957 -0.239436 6.596291
0.349767 -0.182142 6.688455
0.605911 -0.438649 7.311665
0.755248 -0.588232 7.328484
0.885632 -0.718768 7.988571
0.894799 -0.727911 8.379801
0.790866 -0.623819 8.239659
0.842596 -0.675578 8.811071
0.832145 -0.665083 9.087286
0.714086 -0.546815 9.218341
0.692990 -0.525602 10.041155
0.763779 -0.511068 0.882032
0.768493 -0.515176 1.069912
0.776185 -0.521885 1.317244
0.788073 -0.532261 1.623940
0.724459 -0.476562 1.877618
0.755789 -0.503932 2.423364
0.768490 -0.515030 2.611281
0.777726 -0.523101 2.739591
0.736866 -0.487300 3.176296
0.725373 -0.477178 3.854065
0.782686 -0.527355 3.671275
0.915354 -0.643417 4.200039
1.063396 -0.772928 4.781881
1.006255 -0.722905 4.926054
0.769378 -0.515597 4.869550
0.680514 -0.437780 5.332606
0.486896 -0.268304 5.579781
0.387628 -0.181393 5.931829
0.271479 -0.079718 6.165675
0.335019 -0.135293 6.540404
0.548464 -0.322068 6.866091
0.848646 -0.584717 7.600050
0.935233 -0.660494 7.640472
0.902389 -0.631729 7.853081
0.965102 -0.686557 8.480258
0.937213 -0.662129 8.695348
0.910591 -0.638809 8.911338
0.874366 -0.607060 9.397100
0.765223 -0.511522 9.589413
0.586059 -0.354697 9.816666
0.551314 -0.271427 0.526032
0.639189 -0.338385 0.954053
0.730098 -0.407662 1.319021
0.740044 -0.415224 1.567624
0.737903 -0.413596 1.517726
0.761909 -0.431856 2.004814
0.769429 -0.437577 2.133830
0.806638 -0.465898 2.679627
0.728225 -0.406113 2.698957
0.791370 -0.454192 3.423691
0.690717 -0.377472 3.205827
0.641255 -0.339734 3.526338
0.765584 -0.434486 3.940717
0.996088 -0.610174 4.512539
0.958869 -0.581769 4.833496
0.837710 -0.489372 5.115092
0.752104 -0.424109 5.082754
0.622049 -0.324890 5.807780
0.586611 -0.297848 6.078044
0.432820 -0.180593 6.129891
0.311360 -0.087971 6.364594
0.403944 -0.158514 6.859761
0.644816 -0.342121 7.241903
0.916156 -0.548949 7.734744
0.931555 -0.560684 7.802944
0.898055 -0.535124 8.017353
0.970491 -0.590323 8.322147
0.879145 -0.520653 8.627092
0.959915 -0.582177 9.259187
0.844113 -0.493872 9.451421
0.637591 -0.336404 9.618302
0.741961 -0.343682 0.803786
0.830385 -0.401489 0.988533
0.748751 -0.348100 1.060514
0.782036 -0.369800 1.845463
0.785837 -0.372280 1.913964
0.804646 -0.384554 2.220903
0.830886 -0.401682 2.587100
0.767646 -0.360307 2.844021
0.773542 -0.364157 2.912562
0.844702 -0.410629 3.636422
0.756185 -0.352749 3.598550
0.925259 -0.463251 4.307304
0.903619 -0.449114 4.138186
0.910777 -0.453738 4.815610
0.856269 -0.418077 5.020128
0.749656 -0.348327 5.423640
0.648028 -0.281836 5.831454
0.485775 -0.175731 5.881445
0.436181 -0.143246 6.538590
0.344616 -0.083372 6.509537
0.487978 -0.177096 6.798494
0.780128 -0.368091 7.358426
0.970516 -0.492584 7.434087
1.112587 -0.585437 8.032622
1.005484 -0.515406 7.951660
1.000947 -0.512412 8.284306
0.983548 -0.500984 8.885012
1.005418 -0.515252 9.280188
0.770312 -0.361503 9.385912
0.648998 -0.282157 9.579640
0.581850 -0.190882 0.366575
0.324806 -0.046547 0.684818
0.505034 -0.147711 0.932656
0.772247 -0.297716 1.113017
0.808328 -0.317909 1.899519
0.798934 -0.312649 1.731038
0.850493 -0.341532 2.516406
0.856050 -0.344647 2.586402
0.877052 -0.356417 2.834856
0.802068 -0.314308 2.974792
0.826157 -0.327813 3.223794
0.893133 -0.365366 3.829436
0.887272 -0.362079 3.780445
0.933056 -0.387754 4.147225
0.914300 -0.377184 4.648231
0.838467 -0.334602 4.733484
0.733435 -0.275598 5.195713
0.614163 -0.208608 5.542620
0.487666 -0.137566 5.832814
0.435034 -0.107965 6.490090
0.401993 -0.089393 6.764780
0.527363 -0.159765 6.931761
0.862902 -0.348121 7.226256
0.962956 -0.404290 7.269179
1.093069 -0.477295 7.810052
1.216874 -0.546763 8.289236
1.250799 -0.565799 8.415320
0.952688 -0.398413 8.661836
0.924411 -0.382494 9.207438
0.879573 -0.357308 9.367377
0.744142 -0.281237 9.833056
0.784185 -0.242226 0.910688
0.788087 -0.244074 1.040912
0.807713 -0.253382 1.529385
0.827758 -0.262898 1.898121
0.839821 -0.268627 2.087725
0.857482 -0.277017 2.336809
0.892605 -0.293708 2.764223
0.939979 -0.316229 3.250357
0.884475 -0.289775 3.570417
0.775858 -0.238067 3.414648
0.908318 -0.301113 3.770227
0.963706 -0.327453 4.196585
0.936076 -0.314262 4.638489
0.914943 -0.304166 5.082361
0.709760 -0.206474 4.949640
0.725251 -0.213802 5.578128
0.529766 -0.120684 6.010727
0.367212 -0.043273 6.124420
0.407087 -0.062210 6.764780
0.383269 -0.050877 6.654306
0.843296 -0.269897 7.050841
1.048293 -0.367504 7.130240
1.049438 -0.368018 7.521403
1.142397 -0.412254 7.885988
1.155652 -0.418483 8.948385
0.869621 -0.282260 9.263011
0.813467 -0.255488 9.696527
0.549463 -0.129726 10.357525
0.603691 -0.112064 0.494048
0.415833 -0.037566 0.326096
0.514357 -0.076616 0.698568
0.807564 -0.192876 1.180448
0.840370 -0.205838 1.847793
0.833998 -0.203318 1.739196
0.861460 -0.214179 2.167358
0.890087 -0.225505 2.535477
0.896076 -0.227876 2.605701
0.862389 -0.214468 3.222397
0.890189 -0.225475 3.471370
0.912751 -0.234410 3.660588
0.952114 -0.249999 3.968447
0.961531 -0.253729 4.038495
0.921806 -0.237944 4.420764
0.887081 -0.224142 4.804904
0.808715 -0.193011 5.448373
0.764343 -0.175391 5.717959
0.504964 -0.072502 5.849813
0.361152 -0.015443 6.084067
0.348320 -0.010324 6.481512
0.562684 -0.095308 7.012352
0.849282 -0.208984 7.007990
1.177537 -0.339140 7.558128
1.152308 -0.329112 7.829847
1.275683 -0.378040 7.928503
1.237495 -0.362877 8.141870
1.074487 -0.298189 8.592443
0.846368 -0.207692 8.810947
0.944720 -0.246654 9.446780
0.869240 -0.216688 9.819518
0.434599 -0.044281 9.996881
0.800662 -0.132066 0.512440
0.911658 -0.167566 1.116410
0.816870 -0.137211 1.130517
0.832867 -0.142307 1.499071
0.873837 -0.155378 2.165496
0.874589 -0.155617 2.175739
0.914436 -0.168342 2.661496
0.837320 -0.143632 2.859409
0.856247 -0.149680 3.047725
0.948429 -0.179142 3.831061
0.957553 -0.182059 3.899766
0.983300 -0.190290 4.087188
0.907450 -0.165989 4.230200
0.888230 -0.159798 4.731856
0.846157 -0.146301 5.056653
0.852935 -0.148430 5.621842
0.622509 -0.074617 5.931913
0.462955 -0.023510 6.104115
0.370467 0.006143 6.582181
0.441939 -0.016722 6.895032
0.707586 -0.101800 6.772820
1.069924 -0.217782 7.447027
1.118930 -0.233462 7.633553
1.185327 -0.254706 7.878627
1.179458 -0.252802 8.210647
1.177461 -0.252138 8.543791
1.107254 -0.229625 8.968118
1.023976 -0.202929 9.336707
0.866218 -0.152400 9.470263
0.638910 -0.079592 9.697650
0.513023 -0.005114 0.038119
0.416401 0.018831 0.229675
0.518002 -0.006307 0.601332
0.820400 -0.081175 1.023410
0.822834 -0.081773 1.092716
0.862356 -0.091505 1.878317
0.859180 -0.090722 1.828220
0.898633 -0.100454 2.374272
0.931118 -0.108474 2.740985
0.871916 -0.093783 3.118307
0.866535 -0.092454 3.068226
0.937612 -0.110015 3.673366
0.938836 -0.110317 3.682892
1.023119 -0.131149 4.286231
1.024552 -0.131503 4.295725
1.026440 -0.131926 4.914516
0.942918 -0.111233 5.001082
0.937169 -0.109773 5.505084
0.701115 -0.051285 5.813640
0.513048 -0.004700 5.864214
0.401628 0.022927 6.279541
0.418907 0.018684 6.797239
0.806157 -0.077205 7.155486
1.075648 -0.143962 7.030673
1.200141 -0.174761 7.512362
1.206406 -0.176285 7.902318
1.099249 -0.149746 7.880564
1.145306 -0.161117 8.389944
1.163499 -0.165594 8.782236
1.000011 -0.125092 8.911314
0.973103 -0.118388 9.458150
0.720819 -0.055890 9.624392
0.512121 0.032688 0.153318
0.812817 -0.018603 0.600224
0.927207 -0.038088 1.143842
0.834037 -0.022177 1.277032
0.875172 -0.029146 2.002950
0.991876 -0.049047 2.243195
0.899168 -0.033219 2.320520
0.920453 -0.036834 2.568498
0.883787 -0.030532 3.184213
0.878229 -0.029587 3.134378
0.838595 -0.022787 3.633538
0.994364 -0.049344 4.046379
1.021902 -0.054031 4.232958
0.962824 -0.043929 4.494609
0.906228 -0.034251 4.757682
0.841544 -0.023196 4.962464
0.681453 0.004144 5.186647
0.570158 0.023173 5.654710
0.415613 0.049566 5.885169
0.343341 0.061944 6.483413
0.540958 0.028245 6.893094
0.874382 -0.028655 7.008921
1.082513 -0.064177 7.027437
1.129722 -0.072194 7.593877
1.164724 -0.078160 7.720461
1.279825 -0.097752 8.463840
1.243328 -0.091507 8.678756
