-0.192046 -3.120910 0.379480
-0.308227 -5.027691 2.817597
-0.313377 -5.112128 2.872603
-0.388673 -6.347985 4.500635
-0.376735 -6.153253 4.962447
-0.360984 -5.895035 4.802926
-0.350745 -5.727591 4.948536
-0.332253 -5.425576 5.443515
-0.323571 -5.283545 5.536516
-0.275872 -4.503551 6.233716
-0.265839 -4.340086 6.728335
-0.273691 -4.469102 6.982229
0.024516 -5.270117 0.420225
0.024294 -5.219080 0.715268
0.022753 -4.874909 2.234044
0.023618 -5.048300 2.334647
0.024129 -5.141701 2.830387
0.030618 -6.420673 4.611982
0.030940 -6.483733 4.718762
0.028879 -6.060857 4.952041
0.027079 -5.687558 5.346475
0.026385 -5.545020 5.437668
0.025796 -5.424845 5.471876
0.024135 -5.080831 5.822572
0.022282 -4.687740 6.653864
0.021821 -4.587863 6.964380
0.425823 -6.284235 1.039270
0.417323 -6.159180 1.057867
0.400295 -5.908349 1.304520
0.387593 -5.721302 1.440033
0.360854 -5.327850 1.542050
0.340054 -5.021332 1.918331
0.341824 -5.046769 2.314398
0.342094 -5.050059 2.766046
0.478442 -7.052033 5.133813
0.360362 -5.314283 5.733793
0.350309 -5.166671 5.558011
0.317525 -4.682332 6.963443
0.296807 -4.377107 7.275770
0.874456 -6.254129 1.214071
0.844082 -6.037100 1.403302
0.809353 -5.788771 1.870785
0.792014 -5.664944 1.894057
0.708961 -5.071348 2.642883
0.715993 -5.121633 2.538087
0.689132 -4.929358 3.182139
0.994640 -7.109416 5.129273
0.974849 -6.968039 5.211157
0.726230 -5.192418 5.671426
0.665324 -4.756575 6.948101
0.656993 -4.696949 7.139445
0.601513 -4.300575 7.425376
1.226326 -6.122517 1.135948
1.170103 -5.841874 1.657938
1.174788 -5.865258 1.613480
1.091495 -5.449814 1.772212
1.037530 -5.180652 1.867182
0.995618 -4.971427 2.290477
1.001594 -5.001024 2.685133
1.017900 -5.081937 3.454263
1.403641 -7.004755 4.955220
1.339297 -6.683753 5.217890
1.013493 -5.058836 5.609334
0.915228 -4.568549 6.112933
0.912099 -4.552764 6.470259
0.906940 -4.526827 6.873375
1.703974 -6.360581 1.346104
1.619932 -6.047227 1.106923
1.569502 -5.859000 1.458639
1.489374 -5.559920 2.041944
1.401726 -5.232932 2.266089
1.316182 -4.913797 2.483047
1.331890 -4.972247 2.818233
1.774726 -6.622869 5.384300
1.423150 -5.311645 5.279701
1.340842 -5.004442 5.840016
1.258221 -4.696175 6.139610
1.133647 -4.231097 7.298408
2.036379 -6.025098 1.134077
1.968321 -5.823888 1.103766
1.964084 -5.811287 1.333449
1.931018 -5.713395 1.733512
1.862017 -5.509326 1.927326
1.680124 -4.971399 2.382750
1.678101 -4.965414 2.395545
1.757220 -5.199132 3.033622
1.736296 -5.137070 3.652455
2.248957 -6.652372 4.985767
2.160992 -6.392081 5.656747
1.643224 -4.861246 5.684550
1.476943 -4.369442 6.249391
1.459876 -4.318829 6.726678
1.464601 -4.332708 7.010036
2.385986 -5.688723 1.065808
2.310489 -5.508742 1.418327
2.293731 -5.468681 1.923717
2.291202 -5.462652 1.936186
2.173240 -5.181424 2.534701
2.266420 -5.403334 2.952784
2.230064 -5.316532 3.622942
2.633500 -6.277371 5.240262
2.658684 -6.337348 5.345230
1.940848 -4.626788 5.999089
1.825922 -4.352890 6.242586
1.782910 -4.250230 6.897696
1.788679 -4.263989 6.850931
2.544752 -5.104732 1.286475
2.709468 -5.434816 1.867770
2.574549 -5.164250 2.232783
2.571800 -5.158736 2.244880
2.655095 -5.325552 2.993670
2.724878 -5.465366 3.362216
2.622842 -5.260749 3.616276
2.995849 -6.008296 4.690032
2.952764 -5.921747 5.443240
2.304771 -4.622638 5.593292
2.100227 -4.212486 5.976710
2.032119 -4.075844 6.420760
1.960520 -3.932193 6.914826
2.465865 -4.298442 0.779049
2.949942 -5.141383 2.364992
3.079905 -5.367750 2.513570
3.157643 -5.503049 3.098211
3.002657 -5.232976 3.519438
2.987039 -5.205754 3.587113
2.861813 -4.987545 3.899380
2.900304 -5.054532 4.220167
2.517375 -4.387184 5.594670
2.372964 -4.135513 6.105038
2.238617 -3.901312 6.917155
2.500111 -3.724132 0.388659
3.515310 -5.234897 2.503903
3.452254 -5.140954 2.953922
3.488737 -5.195200 3.277737
3.462143 -5.155553 3.613285
3.350606 -4.989491 3.809226
3.217374 -4.791163 3.852548
2.819252 -4.198279 5.313924
2.893972 -4.309515 5.243995
2.757037 -4.105562 5.903370
2.690366 -4.006313 5.940809
2.422067 -3.606796 6.739669
2.398476 -3.571656 6.872720
3.890535 -5.063198 2.789914
3.941859 -5.129956 2.845109
3.942788 -5.131128 3.067404
3.840908 -4.998534 3.413884
3.670684 -4.777029 3.777718
3.580819 -4.660109 3.861077
3.216077 -4.185423 5.020921
3.157723 -4.109471 5.265976
3.074003 -4.000498 5.629648
2.773228 -3.609087 6.429197
2.594853 -3.376998 6.679749
3.375270 -3.852050 0.276928
2.972910 -3.393112 0.342163
4.463230 -5.092590 2.690865
4.459090 -5.087866 2.703147
4.237895 -4.835467 3.382003
4.112821 -4.692747 3.787279
4.126080 -4.707877 3.743518
3.951291 -4.508498 3.842750
3.759830 -4.290096 4.002585
3.326626 -3.795781 5.339697
3.400413 -3.879943 5.326917
3.324890 -3.793755 5.631259
2.835421 -3.235330 6.546729
2.757420 -3.146357 6.587092
3.592729 -3.603941 0.334573
3.308534 -3.319010 0.438746
4.844728 -4.858769 2.734913
4.738388 -4.752147 2.810373
4.656384 -4.669902 3.042650
4.527268 -4.540370 3.654092
4.386459 -4.399176 3.847589
4.182113 -4.194289 4.003090
3.925682 -3.937159 4.336066
3.681696 -3.692431 5.184041
3.696812 -3.707553 5.406779
3.519553 -3.529788 5.794637
3.082500 -3.091545 6.354197
2.874330 -2.882761 6.942424
5.152118 -4.529508 2.958572
5.059686 -4.448272 2.980917
5.034500 -4.426128 3.048277
4.888085 -4.297399 3.449063
4.756301 -4.181563 3.586350
4.434661 -3.898796 4.293248
4.368202 -3.840429 3.996870
3.994150 -3.511571 4.920594
3.923435 -3.449353 5.437183
3.767092 -3.311915 5.708870
3.209450 -2.821710 6.634281
3.206229 -2.818878 6.647540
4.505197 -3.477981 0.489036
4.007431 -3.093927 0.380555
5.461496 -4.215536 2.881123
5.434310 -4.194551 2.949126
5.249795 -4.052150 3.193879
5.159648 -3.982564 3.429474
4.949031 -3.819981 4.002857
4.700097 -3.627881 4.218418
4.570132 -3.527617 4.094664
4.049234 -3.125564 5.162929
4.012662 -3.097294 5.565458
3.991224 -3.080742 5.638395
3.523516 -2.719767 6.414178
3.457381 -2.668706 6.668383
5.720119 -3.854017 2.884768
5.646425 -3.804362 3.061737
5.376104 -3.622215 3.739097
5.361317 -3.612280 3.541448
5.151982 -3.471254 3.847809
4.883866 -3.290616 4.329806
4.529146 -3.051680 4.570192
4.151667 -2.797336 5.448182
4.166232 -2.807151 5.401635
3.975419 -2.678596 5.734715
3.613948 -2.435102 6.066887
3.429868 -2.311079 6.411696
4.300838 -2.473005 0.154566
5.933256 -3.410664 2.991218
5.786642 -3.326378 3.334405
5.497980 -3.160456 3.805519
5.303550 -3.048706 4.058292
5.197680 -2.987870 4.086802
4.841097 -2.782922 4.535907
4.383416 -2.519845 5.316455
4.460168 -2.563942 5.364974
4.260187 -2.448992 5.696631
3.981904 -2.289055 5.999577
3.759833 -2.161437 6.127806
3.715576 -2.135951 6.596410
3.743835 -2.152162 6.821886
4.485836 -2.241300 0.466200
5.974108 -2.984079 2.875641
5.934989 -2.964486 3.418174
5.638964 -2.816634 3.889287
5.622375 -2.808375 3.690128
5.264199 -2.629472 4.340510
5.051375 -2.523209 4.387874
4.596879 -2.296210 5.103265
4.432331 -2.214000 5.586387
4.448061 -2.221859 5.539059
4.140665 -2.068343 5.898777
3.995991 -1.996093 6.057658
3.964652 -1.980362 6.795396
4.216915 -2.106299 6.898646
4.470176 -2.232614 8.044072
4.568128 -1.922516 0.365999
6.015959 -2.531046 2.954591
5.820586 -2.448816 3.625600
5.850957 -2.461569 3.792373
5.785822 -2.434189 3.706821
5.439355 -2.288432 4.301716
5.107542 -2.148866 4.638629
4.891938 -2.058228 4.419966
4.411074 -1.855969 4.907387
4.450156 -1.872385 5.073787
4.560102 -1.918559 5.606020
4.536256 -1.908523 5.676280
4.240790 -1.784246 5.977114
4.104429 -1.726858 6.408768
4.431156 -1.864189 6.934168
4.485104 -1.886820 7.420265
4.528523 -1.905017 7.972665
5.308064 -1.836622 0.418280
4.899034 -1.695199 0.572945
4.551787 -1.575146 0.616511
6.054220 -2.094301 2.972599
6.015258 -2.080773 3.518441
5.838618 -2.019662 3.923177
5.723641 -1.979910 3.949720
5.379811 -1.861008 4.280170
5.154757 -1.783199 4.328361
5.035344 -1.741883 4.630571
4.765547 -1.648563 5.073754
4.763674 -1.647885 5.356960
4.634823 -1.603300 5.723003
4.223200 -1.460961 6.052016
4.870476 -1.684647 6.838080
4.782497 -1.654164 7.467480
5.059828 -1.749995 7.885353
5.175941 -1.790105 8.183993
5.232653 -1.405756 0.362563
4.729737 -1.270783 0.470724
5.866346 -1.575513 3.198238
6.148515 -1.651226 3.282814
5.864655 -1.574983 3.914061
5.649461 -1.517207 4.169452
5.460302 -1.466423 4.370773
5.343003 -1.434942 4.400901
5.132305 -1.378371 4.664516
4.924099 -1.322469 4.931641
4.852637 -1.303271 5.120039
4.829625 -1.297060 5.462475
4.364651 -1.172233 5.907571
5.003348 -1.343508 7.080256
5.021121 -1.348249 7.356242
5.202286 -1.396858 7.426702
5.250363 -1.409704 7.960374
4.864454 -0.976719 0.153873
4.383989 -0.880393 0.208001
5.936522 -1.191317 3.238770
6.055765 -1.215200 3.449262
5.871170 -1.178151 3.857631
5.815902 -1.167058 3.983274
5.501424 -1.103963 4.471423
5.173994 -1.038292 4.755276
5.032056 -1.009800 5.118865
5.072560 -1.017931 5.013637
4.868863 -0.977039 5.555678
4.729557 -0.949102 5.651824
5.142589 -1.031775 6.880104
5.216447 -1.046537 7.302252
5.289079 -1.061088 7.401025
5.259957 -1.055203 7.848044
5.018909 -1.006866 7.979198
5.293745 -0.744982 0.693231
5.745650 -0.808208 3.071674
5.927263 -0.833684 3.385200
6.047953 -0.850613 3.596995
5.914972 -0.831905 3.890961
5.645171 -0.793972 4.261302
5.265247 -0.740570 4.657452
5.308596 -0.746669 4.551358
5.071160 -0.713287 4.875154
4.930039 -0.693428 5.239231
4.930127 -0.693412 5.521520
4.590055 -0.645610 5.879848
5.413218 -0.761126 6.846922
5.321324 -0.748155 7.468756
5.412870 -0.761009 7.508421
5.245682 -0.737505 7.722870
5.787012 -0.434286 3.069437
6.024233 -0.452019 3.267581
5.924284 -0.444492 3.719814
5.983846 -0.448939 3.830093
5.612086 -0.421055 4.431774
5.539590 -0.415639 4.347131
5.345257 -0.401074 4.552723
5.082121 -0.381343 4.937155
4.917747 -0.368998 5.362553
4.984157 -0.373957 5.469392
4.629649 -0.347355 6.161040
5.560910 -0.416979 6.832688
5.432109 -0.407264 7.570074
5.263713 -0.394640 7.786739
5.017804 -0.376223 7.919637
5.985670 -0.019243 2.921643
5.916718 -0.018973 3.532908
6.027846 -0.019308 3.530970
5.906371 -0.018890 4.040514
5.634896 -0.018034 4.415111
5.440223 -0.017427 4.620976
5.270730 -0.016901 4.771023
5.125728 -0.016427 5.135845
5.030131 -0.016113 5.384591
4.821189 -0.015456 5.659018
4.939984 -0.015787 5.918388
5.260744 -0.016660 6.832139
5.674533 -0.017904 6.854768
5.521341 -0.017394 7.329604
5.202020 -0.016395 7.692249
5.970100 0.334908 2.707565
6.013409 0.337408 3.306168
6.187756 0.347235 3.404732
5.972799 0.335180 3.870961
5.890718 0.330577 4.055000
5.711710 0.320540 4.468989
5.446712 0.305658 4.848195
5.094027 0.285836 5.196915
4.977201 0.279290 5.504448
4.863878 0.272941 5.813293
5.025916 0.282079 5.953022
5.369582 0.301483 6.482634
5.665634 0.318190 6.854768
5.441526 0.305644 7.561005
5.318262 0.298675 7.282205
5.395552 0.672284 0.530995
4.771600 0.594358 0.425006
4.144913 0.516092 0.327083
6.127195 0.763899 2.990520
6.112476 0.762112 3.484779
5.875247 0.732543 4.008212
5.721112 0.713333 4.364051
5.740104 0.715700 4.319484
5.474780 0.682607 4.696723
5.354089 0.667539 4.729708
5.049281 0.629529 5.232296
4.890064 0.609691 5.658478
5.071572 0.632365 5.740555
5.388709 0.672028 6.331150
5.623374 0.701387 6.877702
5.562975 0.693864 7.063438
5.409258 0.674685 7.219461
4.918371 0.613412 7.466020
4.790216 0.936042 0.296080
4.072343 0.795546 0.377474
5.958754 1.165054 3.203773
5.923197 1.158153 3.753765
5.918036 1.157144 3.765297
5.641147 1.103017 4.404839
5.708835 1.116248 4.244534
5.352545 1.046578 4.851595
5.188066 1.014401 5.000844
5.092218 0.995639 4.975850
4.975252 0.972778 5.281491
4.879009 0.954029 6.129151
5.391082 1.054287 6.455282
5.532603 1.082040 6.967252
5.419954 1.060029 7.325534
5.960031 1.568246 3.014565
5.895324 1.551271 3.621765
5.764760 1.516920 3.918084
5.661604 1.489781 4.158734
5.584343 1.469455 4.342995
5.326184 1.401512 4.720247
5.140405 1.352612 4.927886
4.912141 1.292536 5.255740
4.820926 1.268542 5.504448
4.994288 1.314266 6.183425
5.441571 1.432105 6.682551
5.454912 1.435647 6.957347
5.343847 1.406438 7.315360
5.144812 1.354060 7.646286
5.158858 1.679775 0.551868
4.687386 1.526082 0.210012
4.055040 1.319991 0.168634
5.782780 1.883399 3.182520
5.822062 1.896242 3.563394
5.742117 1.870207 3.745783
5.497237 1.790461 4.326649
5.492935 1.789060 4.337173
5.194783 1.691943 4.828250
4.948324 1.611662 5.210121
4.921243 1.602814 5.008598
4.771767 1.554174 5.701958
5.446012 1.774022 6.696662
5.477880 1.784431 6.911193
5.243129 1.707972 7.352218
5.149201 1.677358 7.333120
4.624219 1.852452 0.321219
4.058254 1.625540 0.387914
5.488071 2.199137 3.306143
5.735122 2.298206 3.445072
5.584474 2.237843 3.795910
5.391980 2.160716 4.263319
5.273981 2.113438 4.561517
5.137381 2.058708 4.918968
5.025387 2.013809 4.950960
4.805566 1.925679 5.005162
4.679488 1.875199 5.640236
5.091096 2.040257 5.882881
5.317009 2.130925 6.695316
5.419446 2.171994 6.681409
5.186497 2.078644 7.120933
4.950147 2.399534 0.419074
4.295703 2.082090 0.487505
3.927056 1.903237 0.195532
5.435969 2.635516 3.267581
5.428265 2.631835 3.759753
5.391274 2.613930 4.095242
5.327582 2.583025 4.008212
5.166616 2.504992 4.419188
4.906938 2.379079 4.853182
4.840177 2.346716 5.038197
4.670283 2.264330 5.246055
4.507356 2.185354 5.727306
4.954277 2.402186 6.117722
5.253162 2.547196 6.377397
5.176562 2.510103 6.935845
5.056895 2.452103 7.349090
4.194624 2.381478 0.398080
3.663018 2.079455 0.471203
5.377304 3.053720 2.971556
5.386836 3.059187 3.410242
5.323444 3.023218 3.804784
5.041007 2.862808 4.290164
4.971926 2.823582 4.475946
4.844618 2.751263 4.566142
4.534699 2.575255 5.182440
4.468853 2.537835 5.101430
4.409811 2.504344 5.559249
4.731490 2.687193 6.300072
5.087023 2.889230 6.647012
4.919214 2.793958 7.231129
4.884751 2.774393 7.356749
4.669095 2.651883 7.481944
3.932877 2.579273 0.203861
4.850274 3.181691 3.074806
5.094812 3.342187 3.158621
4.999105 3.279464 3.878516
4.952304 3.248765 4.003536
4.927031 3.232188 4.071719
4.778051 3.134466 4.483802
4.656527 3.054723 4.571558
4.456023 2.923176 4.893258
4.280467 2.808028 5.431510
4.414838 2.896230 5.572102
4.689920 3.076865 6.426148
4.841928 3.176673 6.821840
4.838792 3.174616 6.833031
4.692887 3.078888 7.042930
4.438167 2.911758 7.341903
4.243238 3.194809 0.347696
3.659825 2.755303 0.422519
4.796462 3.611879 2.657591
4.787067 3.604893 3.370317
4.926562 3.709995 3.468893
4.796291 3.611900 3.822322
4.590852 3.457206 4.407081
4.605776 3.468444 4.363379
4.298804 3.237271 5.032287
4.238722 3.191997 4.950905
4.088883 3.079178 5.433346
4.171577 3.141550 6.020211
4.527253 3.409532 6.260011
4.577819 3.447721 7.003115
4.589299 3.456363 6.959383
4.482567 3.376010 7.375901
4.179079 3.147404 7.592532
3.958666 3.405089 0.303345
3.521432 3.028782 0.307929
4.381670 3.769530 3.118228
4.623261 3.977460 3.147118
4.614021 3.969574 3.642121
4.530926 3.898090 3.882516
4.449517 3.828058 4.123913
4.300134 3.699518 4.326916
4.097287 3.524988 4.706766
3.986552 3.429733 5.070227
3.846055 3.308878 5.553270
4.006237 3.446780 5.846857
4.351772 3.744234 6.352643
4.430091 3.811725 6.978614
4.384316 3.772354 7.163772
4.267231 3.671605 7.319359
4.006484 3.447204 7.415556
3.779337 3.690527 0.398774
3.281231 3.203856 0.413623
4.135896 4.039258 2.885041
4.433982 4.330543 3.171720
4.370227 4.268346 3.833742
4.293426 4.193342 4.072813
4.117289 4.021293 4.387803
4.047809 3.953403 4.360650
3.957392 3.865105 4.661454
3.786366 3.698051 4.984877
3.684951 3.599016 5.348465
3.649702 3.564595 5.478352
3.837271 3.747922 5.922107
4.135963 4.039846 6.539324
4.144826 4.048545 6.812887
4.047938 3.953940 7.227080
3.818744 3.730058 7.585704
3.658707 4.056239 0.486557
3.179474 3.524625 0.330414
2.896252 3.210451 0.267794
4.156080 4.608359 3.155637
4.166076 4.619514 3.590825
4.110231 4.557595 3.771424
3.937852 4.366472 4.350993
3.791525 4.204198 4.610081
3.710424 4.114242 4.640889
3.659498 4.057779 4.826211
3.531708 3.916060 5.033473
3.363709 3.729808 5.690899
3.549381 3.935782 5.806034
3.777855 4.189298 6.334705
3.872784 4.294676 6.845792
3.770385 4.181162 7.317107
3.954597 5.013347 3.015020
3.896866 4.940240 3.674099
3.845396 4.874994 3.854857
3.722509 4.719179 4.052169
3.600521 4.564505 4.252136
3.494587 4.430182 4.397102
3.359320 4.258677 4.659998
3.254498 4.125809 5.080275
3.195183 4.050626 5.326917
3.219163 4.081163 6.088155
3.458240 4.384433 6.498300
3.619112 4.588482 6.665325
3.569817 4.526057 7.224242
3.497097 4.433839 7.263529
3.180369 4.032209 7.565211
3.664378 5.305980 3.343147
3.645808 5.279093 3.411492
3.546429 5.135248 4.027270
3.462705 5.013985 4.112029
3.327065 4.817512 4.157841
3.187604 4.615552 4.475705
3.036920 4.397347 4.856373
3.033948 4.393045 4.869349
2.917195 4.224068 5.679044
2.899012 4.197692 5.478811
2.923718 4.233618 6.238443
3.176389 4.599724 6.792534
3.251690 4.708903 7.356533
3.205878 4.642529 7.279734
3.024465 4.379807 7.637629
2.754519 4.595237 0.267315
2.404097 4.010232 0.049632
2.179263 3.634949 0.216022
3.318616 5.537496 3.327656
3.376068 5.633400 3.325986
3.291843 5.492873 3.671358
3.202643 5.343998 3.808623
2.824729 4.713332 4.750796
2.750506 4.589448 4.840441
2.748187 4.585634 5.121678
2.609397 4.354094 5.835676
2.660865 4.440071 6.149288
2.761107 4.607538 6.815562
2.867070 4.784490 7.151388
2.982128 4.976548 7.108717
2.946200 4.916684 7.665774
2.394177 4.718107 0.383947
2.055194 4.049603 0.288206
1.958147 3.858218 0.262595
2.983008 5.879895 3.045471
2.924056 5.763756 3.544938
2.921821 5.759350 3.555407
2.796398 5.512094 3.917002
2.307272 4.547948 5.770870
2.366966 4.665784 6.293328
2.473981 4.876944 6.840578
2.575565 5.077259 6.799035
2.582575 5.091145 7.071116
2.586087 5.098216 7.716261
1.728998 4.027434 0.367629
2.567699 5.983615 3.212815
2.517365 5.866391 3.714438
2.494820 5.813860 3.838398
2.377044 5.539373 4.261111
3.049871 7.108569 6.151101
2.000760 4.662472 5.842573
2.015880 4.697852 6.333440
2.154334 5.020796 6.855986
2.242684 5.226773 6.815661
2.278884 5.311268 7.177206
2.231726 5.201509 7.907025
1.444323 4.076110 0.474095
2.166340 6.116812 3.258547
2.132519 6.021396 3.705469
2.087655 5.894737 3.999119
1.762807 4.977457 5.571189
1.774076 5.009445 6.059618
1.787388 5.047301 6.867424
1.856418 5.242428 7.202623
1.851171 5.227722 7.590021
1.896707 5.356447 7.831254
1.841205 5.199708 8.045028
1.143915 4.042004 0.702649
1.821947 6.441768 2.842780
1.777885 6.286080 3.398580
1.382995 4.889826 5.820503
1.387743 4.906831 6.370645
1.493860 5.282437 6.777165
1.539125 5.442640 6.910541
1.517584 5.366518 7.153870
1.508169 5.333376 7.600866
0.882919 4.111267 0.484255
1.409216 6.567235 2.798712
1.386283 6.460486 3.243515
1.592810 7.425130 5.963313
1.099856 5.125813 5.963753
1.122992 5.233724 5.952592
1.159557 5.404473 6.356655
1.157395 5.394712 7.012502
1.164782 5.429274 7.229720
1.116262 5.202989 7.299062
1.078647 5.027834 7.897515
1.000092 6.701157 2.683539
0.970430 6.502434 3.083673
0.955025 6.399390 3.529674
0.950259 6.367462 3.598178
0.905543 6.067754 4.018961
1.054289 7.066333 4.953946
1.061061 7.112236 5.624287
0.769019 5.153034 5.760362
0.765425 5.129384 6.425561
0.806218 5.403359 6.856892
0.811793 5.441138 7.393845
0.794503 5.325169 7.434657
0.751672 5.037761 7.358967
0.435087 5.243800 0.638717
0.429110 5.171680 0.768811
0.554935 6.695221 2.359071
0.545832 6.585957 3.014669
0.552769 6.669915 3.069886
0.536740 6.476583 3.469531
0.509505 6.147820 3.943468
0.489097 5.901417 4.254485
0.599645 7.239404 5.183787
0.556769 6.721855 5.939687
0.501709 6.056478 6.302125
0.438615 5.293584 6.368117
0.441133 5.324305 6.586823
0.459438 5.546004 6.867445
0.452897 5.467207 7.110256
0.430804 5.200273 7.294471
0.102439 5.696643 0.478478
0.118587 6.615946 1.910197
0.115863 6.466410 2.626986
0.117839 6.577884 2.628410
0.115326 6.439020 3.130668
0.114405 6.388982 3.465487
0.111029 6.200864 3.870717
0.104525 5.835834 4.198937
0.101032 5.639948 4.401154
0.121207 6.784828 5.559771
0.115008 6.435513 5.627937
0.106375 5.949319 5.778606
0.098686 5.519009 6.378360
0.097785 5.472604 7.149209
0.097052 5.432024 7.277519
0.093277 5.219101 7.288525
-0.299172 6.384936 1.281297
-0.312420 6.665685 1.598963
-0.299516 6.389978 2.326260
-0.291183 6.212189 2.675348
-0.299317 6.384760 2.777009
-0.302292 6.447258 3.101426
-0.289525 6.174787 3.674988
-0.280142 5.975032 3.872294
-0.275593 5.878450 3.843456
-0.258424 5.512983 4.177572
-0.268660 5.729319 4.691877
-0.282849 6.028863 5.555620
-0.288377 6.145746 5.809243
-0.276363 5.890295 5.921572
-0.267326 5.698422 5.864344
-0.249513 5.319001 6.330295
-0.245571 5.234733 6.576469
-0.249085 5.307747 7.324126
-0.248917 5.304145 7.335749
-0.235587 5.020438 7.582575
-0.728823 6.554307 1.125463
-0.730803 6.571915 1.297077
-0.725730 6.525923 1.794043
-0.702049 6.313001 2.196272
-0.691744 6.220341 2.376208
-0.698233 6.278282 2.703054
-0.695199 6.250790 2.983653
-0.677760 6.093738 3.545718
-0.657133 5.908226 3.954564
-0.630699 5.670917 3.999441
-0.598002 5.377045 4.433177
-0.573934 5.160772 4.697736
-0.674874 6.065627 5.940707
-0.649010 5.833426 5.995618
-0.635858 5.715349 6.029208
-0.607694 5.462448 6.145102
-0.576791 5.184610 6.647567
-0.587225 5.277626 7.335065
-0.578985 5.203441 7.579732
-0.553532 4.974919 7.651242
-1.154992 6.534549 1.053488
-1.132041 6.404725 1.285871
-1.109461 6.276992 1.519447
-1.066349 6.033112 1.979932
-1.065459 6.027949 2.206082
-1.041170 5.890277 2.930085
-1.092106 6.178049 3.015281
-1.067587 6.039325 3.307405
-1.009661 5.711727 3.787852
-0.991062 5.606488 4.027740
-0.939693 5.315966 4.461339
-0.911049 5.154179 4.336047
-1.026943 5.808295 5.633550
-1.000265 5.657306 6.044453
-0.946634 5.353919 6.619790
-0.936017 5.293626 7.126550
-0.902939 5.106552 7.399278
-0.850605 4.810650 7.706272
-1.594944 6.355470 1.199728
-1.526672 6.083544 1.497654
-1.467422 5.847647 1.526016
-1.405789 5.601981 2.222481
-1.429313 5.695339 2.926895
-1.467343 5.846589 3.295520
-1.453040 5.789592 3.420312
-1.391255 5.543485 3.732823
-1.355209 5.399942 3.818385
-1.252620 4.991214 4.547587
-1.194632 4.760329 4.601324
-1.419479 5.655094 5.531227
-1.389341 5.534847 6.150805
-1.319567 5.257103 6.060616
-1.251083 4.984243 6.564898
-1.296332 5.164358 6.640109
-1.299754 5.177865 6.916132
-1.257395 5.009134 7.130884
-1.141129 4.546182 7.320010
-1.925745 6.107909 1.259214
-1.850555 5.869525 1.504741
-1.724047 5.468604 1.440930
-1.557338 4.940035 2.071080
-1.645373 5.218941 2.380200
-1.738201 5.512892 3.117332
-1.782576 5.653477 3.273181
-1.701657 5.396818 3.859107
-1.641768 5.206941 4.063115
-1.597315 5.066027 4.153005
-1.508829 4.785436 4.597009
-1.478684 4.689717 5.120105
-1.732667 5.494370 6.000521
-1.653701 5.243952 6.439892
-1.583545 5.021583 6.503152
-1.558732 4.942859 6.749179
-1.575228 4.994978 7.232287
-1.550924 4.917978 7.155636
-1.420068 4.503115 7.553342
-2.166328 5.601397 0.745242
-2.223085 5.747953 1.076398
-2.132079 5.512738 1.325013
-1.992723 5.152460 2.054948
-1.992012 5.150496 2.504109
-2.006699 5.188272 3.109410
-2.044957 5.286988 3.593769
-2.010147 5.197054 3.564233
-1.961332 5.070837 3.865838
-1.880575 4.862101 4.129583
-1.681520 4.347622 4.677861
-2.057432 5.318656 5.585291
-2.020582 5.223282 6.150317
-1.917077 4.955869 6.061213
-1.815500 4.693267 6.568443
-1.868539 4.830163 7.085294
-1.862258 4.813823 7.478997
-2.400896 5.106062 0.777933
-2.289290 4.868749 1.254325
-2.226030 4.734074 2.191042
-2.252399 4.789983 2.745699
-2.338333 4.972611 2.787612
-2.335462 4.966337 3.507834
-2.321702 4.937075 3.578966
-2.242279 4.768173 3.999793
-2.469419 5.250466 5.889020
-2.269390 4.825087 6.935714
-2.227963 4.736969 7.240972
-2.185558 4.646848 7.224431
-2.097241 4.459063 7.562369
-1.846836 3.926814 7.795622
-2.633236 4.775639 0.502423
-2.503594 4.540698 0.367416
-2.669468 4.840932 2.268410
-2.583017 4.684168 2.629966
-2.569324 4.659290 2.919691
-2.587927 4.692924 3.309139
-2.522646 4.574436 4.104427
-2.427324 4.401626 4.313698
-2.356285 4.272851 4.406955
-2.351707 4.264493 4.695314
-2.756711 4.998296 5.855138
-2.612146 4.736100 6.703763
-2.573179 4.665422 6.948468
-2.462747 4.465186 7.340128
-2.279159 4.132396 7.561728
-1.978721 3.587791 7.919288
-1.829179 3.316755 7.913714
-2.908322 4.589551 2.458185
-2.813938 4.440613 2.820781
-2.799921 4.418450 3.110473
-2.703476 4.266208 3.750402
-2.736020 4.317518 3.860884
-2.675172 4.221445 4.382834
-2.586935 4.082296 4.258273
-2.977254 4.697714 5.394533
-2.970898 4.687574 5.996327
-2.834397 4.472254 6.114329
-2.726953 4.302734 6.385807
-2.722572 4.295698 7.048337
-2.791726 4.404786 6.972914
-2.608712 4.116044 7.396171
-2.420172 3.818571 7.888953
-2.263737 3.571846 7.819635
-1.967682 3.104864 7.943963
-3.322018 4.515940 0.436758
-2.994422 4.070824 0.601549
-3.226301 4.385549 2.435957
-3.222838 4.380842 2.447750
-3.090423 4.200816 3.144315
-3.055051 4.152735 3.273459
-2.965640 4.031157 3.855890
-2.971805 4.039494 4.084464
-3.356905 4.562433 5.686645
-3.142203 4.270552 6.707564
-3.061107 4.160298 7.129051
-2.937663 3.992522 7.464866
-2.832634 3.849843 7.359749
-2.674623 3.635128 7.553932
-2.362934 3.211584 7.942447
-3.523912 4.189481 1.933237
-3.597593 4.276967 2.370421
-3.501749 4.163028 2.671915
-3.408116 4.051716 2.975080
-3.334089 3.963711 3.221217
-3.236169 3.847261 3.803584
-3.162133 3.759202 4.327800
-3.584341 4.260697 5.659068
-3.300758 3.923517 6.919044
-3.287976 3.908265 7.313945
-3.259490 3.874446 7.119843
-2.996027 3.561269 7.786562
-2.764507 3.286129 7.957070
-2.441275 2.902044 7.896853
-3.468915 3.626241 4.333510
-3.351224 3.503244 4.483422
-3.393932 3.547812 4.865278
-3.683029 3.849806 5.445808
-3.779231 3.950299 5.643326
-3.475347 3.632582 6.903242
-3.551931 3.712607 6.885777
-3.380942 3.533873 7.338280
-3.172612 3.316141 7.649447
-2.983418 3.118472 7.516106
-2.518310 2.632395 8.066406
-4.041759 3.714632 5.583535
-3.729831 3.427882 6.784939
-3.783073 3.476784 6.885777
-3.561344 3.272984 7.516704
-3.457471 3.177582 7.291562
-3.159465 2.903696 7.968663
-2.789728 2.564010 7.908896
-4.478093 3.610256 0.584313
-4.261220 3.435492 0.669947
-4.015685 3.237030 5.330126
-4.286026 3.454840 5.542345
-4.165330 3.357530 5.960329
-3.966569 3.197355 6.079952
-3.736291 3.011768 6.321501
-3.832550 3.089256 6.902113
-3.934301 3.171212 7.151362
-3.656676 2.947442 7.638633
-4.438831 3.130574 0.338962
-3.985502 2.811019 0.507304
-5.133461 3.619887 2.774168
-4.896849 3.453062 3.138642
-4.693231 3.309562 2.964360
-4.406470 3.107401 3.238430
-4.358782 3.073477 5.715118
-4.188608 2.953416 6.605737
-4.199669 2.961178 6.883942
-4.041960 2.849980 7.160213
-3.744722 2.640448 7.322330
-3.340721 2.355650 7.584301
-4.290099 2.619212 0.241919
-5.672561 3.462380 2.717582
-5.324350 3.249886 3.089153
-4.917716 3.001783 3.157202
-4.610822 2.814534 3.216849
-4.505521 2.750285 3.245101
-4.462780 2.723912 5.710736
-4.319286 2.636271 6.485124
-4.329742 2.642617 6.764471
-4.100828 2.502891 7.278898
-3.918769 2.391811 7.292601
-3.451938 2.106936 7.737430
-6.215692 3.225249 2.678957
-5.988955 3.107590 3.185596
-5.664857 2.939511 3.021583
-5.089929 2.641295 3.214369
-4.676590 2.426877 3.506941
-4.661559 2.419105 3.303089
-4.863529 2.523625 5.330412
-4.697267 2.437367 5.540393
-4.335082 2.249382 6.697656
-4.399113 2.282543 7.127184
-4.144715 2.150567 7.378802
-3.876890 2.011619 7.696238
-4.533036 1.992129 0.786440
-6.617554 2.907254 2.896615
-4.860719 2.135728 3.417984
-4.567504 2.006946 3.642522
-4.709624 2.069130 5.650372
-4.516817 1.984363 6.548212
-4.479165 1.967742 7.332956
-4.350820 1.911407 7.108960
-4.072358 1.789093 7.421050
-4.715153 1.719143 0.871780
-6.898382 2.514177 3.335834
-4.948030 1.803688 3.511963
-4.848053 1.767039 5.607500
-4.823589 1.758120 5.677668
-4.660505 1.698660 6.160547
-4.364392 1.590759 6.464185
-4.431220 1.615092 6.567152
-4.607557 1.679248 7.294771
-4.497331 1.639091 7.336509
-4.107273 1.496964 7.682790
-4.933950 1.471314 0.842816
-7.340200 2.187913 2.933178
-7.209233 2.148797 3.878093
-7.401859 2.206176 3.921548
-4.959463 1.478379 5.856049
-4.637779 1.382445 6.834149
-4.744739 1.414275 7.143120
-4.597101 1.370277 7.302821
-4.198900 1.251616 7.648353
-5.160732 1.160404 0.589196
-7.347029 1.651094 3.184356
-7.750679 1.741709 3.474249
-7.772171 1.746444 4.343778
-5.001115 1.124023 5.699695
-4.923966 1.106644 6.216545
-4.879984 1.096754 6.346924
-4.797917 1.078298 6.595838
-4.941172 1.110448 6.789079
-4.610048 1.036010 7.542162
-4.257269 0.956771 7.711104
-5.200508 0.819786 0.839351
-7.795219 1.227776 3.805061
-4.980357 0.784787 4.277316
-4.647817 0.732429 4.569163
-4.548697 0.716806 4.820642
-4.846584 0.763618 5.429384
-5.105335 0.804288 5.874834
-5.204689 0.819890 6.187567
-5.097791 0.803003 6.816533
-5.000922 0.787729 7.121684
-4.903186 0.772351 7.102939
-4.550113 0.716742 7.591653
-4.288552 0.675563 7.788537
-5.045089 0.463618 0.578544
-6.811798 0.625185 3.222625
-7.161187 0.657124 3.876325
-4.850216 0.445423 3.913439
-4.660799 0.427913 5.462788
-5.340065 0.490089 5.925973
-5.617180 0.515463 6.038584
-5.372841 0.493008 6.743511
-5.294373 0.485828 6.663803
-5.044435 0.462886 7.112023
-4.759798 0.436786 7.359284
-4.364289 0.400526 7.644344
-5.013534 0.138914 0.670168
-5.150333 0.142648 0.836167
-6.161923 0.170185 2.785108
-6.184939 0.170821 2.738795
-5.751425 0.158890 3.173785
-5.457537 0.150816 3.330183
-5.164329 0.142760 3.490914
-5.041978 0.139402 3.519248
-4.712991 0.130330 4.023501
-5.391763 0.148755 5.840268
-5.524893 0.152353 6.358012
-5.481130 0.151140 6.484261
-5.341232 0.147261 6.901562
-5.149004 0.141962 7.173976
-4.918111 0.135624 7.242958
-5.011785 -0.191907 0.670168
-5.171196 -0.198091 1.003089
-5.564352 -0.213336 1.752345
-5.885025 -0.225778 2.440527
-6.057582 -0.232446 2.542279
-5.682641 -0.218036 3.081307
-5.387440 -0.206663 3.239566
-5.264203 -0.201912 3.267924
-4.878533 -0.187096 3.886804
-4.747011 -0.182053 4.196228
-5.382264 -0.206732 5.860946
-5.659397 -0.217436 5.976034
-5.585396 -0.214633 6.482736
-5.427435 -0.208554 6.636124
-5.194294 -0.199599 7.025309
-4.889221 -0.187861 7.331336
-5.610329 -0.579722 0.986943
-5.888729 -0.608704 2.379689
-5.683993 -0.587539 2.793793
-5.368715 -0.554925 3.226843
-5.191856 -0.536621 3.373710
-4.989537 -0.515685 3.581430
-4.712293 -0.487007 3.970402
-4.798660 -0.495958 4.021717
-4.456068 -0.460530 4.593520
-5.260582 -0.543964 5.549289
-5.595119 -0.578671 6.082266
-5.582966 -0.577447 6.415782
-5.347791 -0.553126 6.801011
-5.155009 -0.533152 6.750095
-4.943095 -0.511235 7.084472
-4.509193 -0.466331 7.485422
-4.131937 -0.427276 7.716503
-5.651252 -0.950445 2.534198
-5.539678 -0.931702 2.994390
-5.417135 -0.911068 3.022756
-5.134475 -0.863505 3.402074
-4.934114 -0.829784 3.610009
-4.760755 -0.800605 3.761230
-4.670423 -0.785441 4.230907
-4.567749 -0.768176 4.483753
-4.443938 -0.747387 5.074206
-5.420612 -0.911977 6.143292
-5.601599 -0.942466 6.224041
-5.423857 -0.912554 6.435366
-5.190369 -0.873273 6.824376
-4.904898 -0.825223 7.070624
-4.603749 -0.774540 7.382069
-4.203949 -0.707206 7.341558
-5.596628 -1.321415 2.494282
-5.344648 -1.261918 3.026151
-5.092056 -1.202254 3.346274
-5.086253 -1.200884 3.359305
-4.737094 -1.118423 3.921085
-4.633259 -1.093908 4.172033
-5.207859 -1.229898 5.957371
-5.457620 -1.288944 6.130030
-5.334507 -1.259886 6.489922
-5.105072 -1.205702 6.878733
-5.008408 -1.182854 6.860778
-4.616196 -1.090188 7.137816
-4.261623 -1.006405 7.303361
-5.184317 -1.584598 0.559584
-5.458454 -1.668661 2.356350
-5.347675 -1.634818 2.816703
-5.131984 -1.568879 3.293443
-4.886873 -1.493923 3.616156
-4.694455 -1.435076 3.825007
-4.455420 -1.361979 4.155974
-4.630247 -1.415561 5.038296
-4.929745 -1.507285 5.911503
-5.155657 -1.576427 6.141464
-5.163924 -1.578986 6.419006
-5.028685 -1.537655 6.838990
-4.861562 -1.486547 7.054773
-4.604683 -1.407976 7.243607
-4.257316 -1.301718 7.408112
-4.204491 -1.587496 0.372921
-3.466628 -1.308621 0.356897
-5.067688 -1.913970 2.491317
-5.204142 -1.965560 2.647913
-4.915385 -1.856496 3.297835
-4.910865 -1.854789 3.308342
-4.623530 -1.746240 3.748483
-4.485117 -1.693937 3.837846
-4.471795 -1.688934 4.125762
-4.115187 -1.554169 4.260892
-4.758293 -1.797367 5.518789
-4.769879 -1.801806 6.068465
-4.740182 -1.790626 6.464883
-4.770108 -1.801960 6.683802
-4.748767 -1.793937 7.078220
-4.515162 -1.705661 7.206473
-4.265158 -1.611194 7.397747
-3.713866 -1.402860 7.632262
-4.384168 -2.024865 0.184256
-3.859739 -1.782457 0.192085
-3.112668 -1.437140 0.238525
-4.987843 -2.304147 2.335818
-4.914295 -2.270220 2.957855
-4.884091 -2.256267 3.028053
-4.673211 -2.158821 3.290195
-4.595447 -2.122897 3.478750
-4.388552 -2.027293 3.746150
-4.436017 -2.049366 4.924060
-4.566458 -2.109744 5.669939
-4.531885 -2.093809 6.070089
-4.471779 -2.066047 6.259664
-4.566894 -2.110047 6.572589
-4.544276 -2.099638 6.969832
-4.333551 -2.002241 7.040117
-4.820419 -2.579025 2.390622
-4.670419 -2.498794 2.970063
-4.672867 -2.500131 3.199710
-4.422964 -2.366397 3.581200
-4.314453 -2.308313 3.611984
-4.137275 -2.213490 3.822163
-3.998532 -2.139262 4.193759
-3.846941 -2.058130 4.348858
-4.474844 -2.394398 5.548902
-4.301146 -2.301477 6.092813
-4.189496 -2.241752 6.461682
-4.287042 -2.293968 6.446453
-4.365450 -2.336023 7.142658
-4.194101 -2.244291 7.094070
-4.224893 -2.625617 0.333910
-3.501634 -2.175850 0.426485
-2.934631 -1.823242 0.401034
-4.597079 -2.857332 2.500171
-4.620197 -2.871729 2.671915
-4.473454 -2.780516 3.033034
-4.263373 -2.649937 3.573135
-4.259274 -2.647390 3.583965
-4.067114 -2.527922 3.850857
-3.792762 -2.357371 4.361653
-3.631677 -2.257188 4.297168
-4.315460 -2.682565 5.532580
-4.256462 -2.645899 5.720162
-3.977585 -2.472547 6.350744
-3.906639 -2.428458 6.600944
-4.064319 -2.526564 7.002462
-3.998421 -2.485613 7.251702
-3.741518 -2.325890 7.565377
-2.887060 -2.063123 0.226569
-4.280209 -3.059862 2.581636
-4.280573 -3.060151 2.810734
-4.260180 -3.045601 3.097674
-4.234105 -3.026960 3.166505
-4.003789 -2.862276 3.547670
-3.915181 -2.798930 3.795348
-3.651711 -2.610549 4.305015
-3.437537 -2.457377 4.421564
-4.114988 -2.942067 5.593519
-4.007001 -2.864876 5.958142
-3.793119 -2.711955 6.411647
-3.746150 -2.678343 6.270442
-3.784489 -2.705827 6.762848
-3.890172 -2.781447 7.013152
-3.612737 -2.583068 7.444109
-4.166652 -3.449529 0.580470
-3.877821 -3.210231 0.228331
-3.170393 -2.624266 0.439341
-2.759278 -2.283685 0.165144
-4.093343 -3.389027 2.248818
-4.160137 -3.444391 2.524015
-4.010503 -3.320528 3.162387
-3.923412 -3.248419 3.408862
-3.808203 -3.152998 3.497515
-3.534515 -2.926366 4.064898
-3.363544 -2.784780 4.339419
-3.126714 -2.588598 4.299364
-3.891685 -3.222431 5.609395
-3.838331 -3.178261 5.798097
-3.608435 -2.987860 6.039660
-3.449329 -2.856147 6.650982
-3.592800 -2.975000 6.724793
-3.634898 -3.009936 7.214888
-3.354993 -2.778101 7.380044
-3.116854 -2.580838 7.367677
-2.583081 -2.138773 7.987294
-2.630612 -2.478971 0.104760
-3.604409 -3.397677 2.076073
-3.803932 -3.585969 2.882474
-3.799114 -3.581426 2.896422
-3.694524 -3.482827 3.203898
-3.611777 -3.404819 3.453865
-3.370317 -3.177160 3.963160
-3.243710 -3.057774 4.118692
-2.933948 -2.765623 4.101426
-3.638319 -3.430176 5.751510
-3.619705 -3.412631 5.821863
-3.486658 -3.287179 6.036702
-3.183800 -3.001625 6.643377
-3.305798 -3.116752 7.106810
-3.389302 -3.195552 7.416150
-3.190935 -3.008445 7.281193
-2.913795 -2.747095 7.511710
-3.493681 -3.744925 2.641047
-3.536319 -3.790701 2.974682
-3.476163 -3.726216 3.163679
-3.344550 -3.585133 3.589767
-3.242544 -3.475752 3.681246
-3.042882 -3.261654 3.854534
-2.838721 -3.042773 4.313576
-3.293855 -3.531073 5.638134
-3.346041 -3.587097 6.015499
-3.172065 -3.400632 6.768686
-3.182312 -3.411663 7.051161
-3.063988 -3.284802 7.274599
-2.787637 -2.988427 7.232917
-2.556705 -2.740834 7.681655
-2.321757 -2.488886 7.801568
-2.228312 -2.723916 0.280769
-2.048412 -2.503832 0.388767
-3.344933 -4.090429 2.535533
-3.308630 -4.046070 2.884760
-3.241086 -3.963508 3.350991
-3.128973 -3.826365 3.500287
-2.968098 -3.629594 3.830325
-2.735453 -3.345019 4.187179
-2.497766 -3.054194 4.048772
-3.310574 -4.048859 5.421636
-3.137762 -3.837503 5.871034
-2.956904 -3.616313 6.386673
-2.795901 -3.419351 6.517275
-2.876165 -3.517594 6.773554
-2.934249 -3.588718 7.147144
-2.730229 -3.339167 7.524616
-3.272418 -4.572422 0.407917
-2.965634 -4.143476 0.121378
-2.915320 -4.073579 2.643691
-3.101837 -4.334341 2.669580
-2.906364 -4.061190 3.386489
-2.934167 -4.100041 3.281425
-2.784903 -3.891422 3.608699
-2.593750 -3.624274 4.121044
-2.360987 -3.298849 4.041512
-3.081987 -4.307093 5.529219
-2.944667 -4.115126 5.589148
-2.686478 -3.754394 6.874077
-2.673202 -3.735848 6.945891
-2.606324 -3.642416 7.318063
-2.421611 -3.897482 1.469381
-2.713149 -4.367233 2.599978
-2.639438 -4.248622 3.129090
-2.599888 -4.185003 3.536110
-2.542194 -4.092135 3.784437
-2.695163 -4.338876 5.748821
-2.620834 -4.219186 5.843559
-2.524488 -4.064060 6.058312
-2.336428 -3.761267 6.484073
-2.383270 -3.836779 6.857997
-2.401806 -3.866675 7.079384
-2.200043 -3.541775 7.305381
-2.347494 -4.388166 2.254013
-2.417462 -4.519120 2.633703
-2.473162 -4.623352 2.849791
-2.405464 -4.496792 3.155409
-2.351909 -4.396781 3.897859
-2.683787 -5.017628 4.285562
-2.655124 -4.964160 4.950555
-2.533454 -4.736664 5.331564
-2.554239 -4.775577 5.495936
-2.463896 -4.606581 5.437183
-2.305651 -4.310727 6.063175
-2.220132 -4.150813 6.280798
-2.045922 -3.824995 6.438006
-2.069983 -3.870037 6.602815
-2.113789 -3.952128 7.307959
-2.021702 -3.779872 7.262961
-2.222638 -4.887507 0.448446
-2.220827 -4.883677 1.072511
-1.177555 -2.587638 0.060863
-2.118254 -4.658349 2.649770
-2.118291 -4.658488 2.881555
-2.052272 -4.513353 3.466333
-2.466365 -5.424828 4.419685
-2.452515 -5.394433 4.755480
-2.363681 -5.199011 5.015850
-2.275903 -5.005916 5.279701
-2.132324 -4.690048 5.629048
-2.064726 -4.541333 5.783564
-1.906796 -4.193916 6.264828
-1.815988 -3.994171 6.606588
-1.861055 -4.093422 6.921382
-1.860401 -4.092068 7.264264
-1.941817 -5.104633 0.488370
-1.746671 -4.591572 1.713918
-1.778433 -4.675409 2.658443
-1.840317 -4.838247 2.757730
-1.801729 -4.736861 3.224362
-1.854371 -4.875545 3.870709
-2.043288 -5.372796 4.661605
-2.148248 -5.648958 4.732688
-1.990034 -5.232875 5.299774
-1.956637 -5.145078 5.543702
-1.880892 -4.945801 5.541990
-1.777442 -4.673778 6.047030
-1.742556 -4.581990 6.024754
-1.584746 -4.166821 6.083053
-1.573557 -4.137500 6.487840
-1.618842 -4.256810 7.071884
-1.510539 -3.971964 7.387042
-1.511728 -4.918419 2.591492
-1.471352 -4.787123 3.115259
-1.464976 -4.766461 3.403096
-1.810612 -5.892508 4.963330
-1.768978 -5.756872 4.783248
-1.679074 -5.464192 5.002831
-1.610377 -5.240604 5.322260
-1.521741 -4.952055 5.552515
-1.454976 -4.734761 5.881426
-1.386160 -4.510696 5.943157
-1.265179 -4.116839 6.215724
-1.273091 -4.142797 6.772736
-1.339347 -4.358645 7.054075
-1.221504 -5.136659 0.403109
-1.142044 -4.802857 2.109341
-1.190127 -5.005517 2.592410
-1.177210 -4.951288 2.941271
-1.394859 -5.868371 4.503929
-1.424685 -5.994158 4.971273
-1.370092 -5.764319 5.020623
-1.294394 -5.445726 5.302480
-1.266601 -5.328720 5.335848
-1.196694 -5.034487 5.568090
-1.060029 -4.459409 6.333626
-1.049021 -4.413267 6.797002
-1.026237 -4.317474 7.109932
-0.849511 -4.995232 0.373195
-0.842307 -4.954164 2.610512
-0.862021 -5.070422 2.827405
-0.835044 -4.911871 3.412323
-1.051121 -6.185623 4.959220
-1.034804 -6.089491 4.933330
-0.979693 -5.764865 4.945478
-0.932689 -5.488253 5.380988
-0.894107 -5.261186 5.706465
-0.861935 -5.071641 5.649684
-0.784789 -4.618031 6.991429
-0.768597 -4.522847 7.303602
-0.726905 -4.277340 7.438130
-0.363425 -3.452834 0.369116
-0.544499 -5.182298 2.457504
-0.521099 -4.959762 3.160914
-0.657221 -6.259558 4.401373
-0.660753 -6.293672 4.829733
-0.611896 -5.827926 5.182041
-0.577855 -5.503470 5.467269
-0.556153 -5.296695 5.735615
-0.527124 -5.019939 5.914806
-0.482381 -4.593720 6.543174
-0.467762 -4.454679 6.976824
-0.463401 -4.413211 7.110873
-0.146369 -3.635063 0.482674
-0.124513 -3.086706 0.451018
-0.199195 -4.966044 2.725801
-0.203898 -5.084575 2.942650
-0.247593 -6.185095 4.642905
-0.252807 -6.316401 4.845959
-0.235041 -5.871490 5.141425
-0.225610 -5.635032 5.195243
-0.219883 -5.491596 5.287396
-0.204279 -5.101367 5.755251
-0.177333 -4.426432 6.164466
-0.180383 -4.505663 7.217774
0.163240 -5.189418 0.764232
0.160752 -5.109895 1.118673
0.156952 -4.987271 2.003602
0.158872 -5.045986 2.562391
0.158255 -5.024870 3.073786
0.189622 -6.007723 4.811650
0.179904 -5.700766 5.034486
0.169707 -5.377657 5.589528
0.166581 -5.279224 5.567311
0.161702 -5.124107 5.990402
0.149427 -4.734563 6.826214
0.146917 -4.654681 7.078240
0.554321 -6.125954 1.097585
0.545809 -6.032169 1.061067
0.533821 -5.899745 1.300957
0.500309 -5.529790 1.783052
0.458928 -5.073110 2.242666
0.456059 -5.041163 2.535010
0.466680 -5.157992 2.752233
0.633628 -6.995782 4.980648
0.643578 -7.105468 4.977302
0.475259 -5.249338 5.596749
0.405625 -4.479862 7.254166
0.968811 -6.220672 1.044538
0.933953 -5.996909 1.451995
0.872615 -5.603282 1.988851
0.807021 -5.182463 2.388233
0.770226 -4.946377 2.650605
0.784228 -5.035970 2.925647
1.098739 -7.051097 4.973480
0.821871 -5.275661 5.415749
0.722284 -4.636126 6.966708
0.689867 -4.428057 7.309369
1.446905 -6.307861 1.139584
1.385297 -6.039510 1.221370
1.362928 -5.942002 1.402417
1.334005 -5.815929 1.641039
1.219235 -5.315923 1.973119
1.164705 -5.078416 2.010651
1.144151 -4.988711 2.419195
1.163992 -5.074998 2.694546
1.208932 -5.270378 3.444069
1.570009 -6.842249 4.990887
1.527761 -6.658161 5.182628
1.180749 -5.146531 5.859634
1.123479 -4.897053 5.979738
1.064038 -4.638240 5.831421
0.989599 -4.313589 6.814466
1.018727 -4.440334 7.067197
1.844775 -6.183364 1.173171
1.784113 -5.980206 1.142107
1.720009 -5.765366 1.549087
1.674864 -5.614062 1.845106
1.596744 -5.352392 1.936162
1.501736 -5.034117 2.147171
1.458546 -4.889355 2.451801
1.476034 -4.947806 2.785223
1.445361 -4.844909 3.250586
2.043607 -6.847939 4.949701
1.525188 -5.111384 5.713296
1.437267 -4.816933 5.679382
1.333616 -4.469638 6.098460
1.234914 -4.138689 7.156063
2.104200 -5.702935 1.227124
2.143065 -5.808193 1.231067
2.075326 -5.624565 1.800533
2.000983 -5.423160 1.994454
1.814099 -4.916824 2.624122
1.854979 -5.027478 2.840009
1.871685 -5.072545 3.444978
2.447030 -6.630209 5.396982
2.398288 -6.498174 5.477610
1.755288 -4.756589 5.852231
1.688930 -4.576886 5.793836
1.640553 -4.445655 6.500083
1.598930 -4.332816 6.868231
2.443667 -5.504045 1.123143
2.401005 -5.407913 1.522903
2.444848 -5.506492 1.958634
2.394609 -5.393402 1.979406
2.237715 -5.040046 2.747339
2.348321 -5.288926 3.103899
2.376042 -5.351241 3.428362
2.776596 -6.252501 4.900213
2.711221 -6.105181 5.555184
2.076587 -4.676603 5.724024
1.921549 -4.327498 6.200202
1.868873 -4.208747 6.910327
1.875220 -4.223046 6.861217
2.674745 -5.102586 0.568625
2.606811 -4.972965 1.032886
2.746914 -5.239873 1.950440
2.716800 -5.182384 2.294265
2.649955 -5.054778 3.038405
2.782693 -5.307721 3.606432
2.743798 -5.233526 3.789734
2.832856 -5.403251 4.095438
2.997204 -5.716486 4.533610
3.142768 -5.993888 5.074509
2.354640 -4.491135 5.849932
2.206441 -4.208525 6.151326
2.072282 -3.952556 7.029009
3.135807 -5.152651 2.380532
3.165896 -5.202004 2.710569
3.235341 -5.315933 3.350773
3.232079 -5.310573 3.363982
3.154067 -5.182430 3.447636
2.995020 -4.921130 3.875623
2.922622 -4.802112 4.446640
2.668906 -4.385170 5.679044
2.491078 -4.093036 6.037864
2.329117 -3.826850 6.974474
3.623483 -5.166001 1.847595
3.654287 -5.209802 2.390804
3.560791 -5.076426 3.165771
3.691951 -5.263339 3.153157
3.559356 -5.074339 3.403190
3.428131 -4.887289 3.656871
3.216520 -4.585672 3.988816
2.888978 -4.118654 5.382749
2.914447 -4.154921 5.548902
2.807799 -4.002902 5.763735
2.546428 -3.630249 6.787393
2.500379 -3.564639 6.709920
3.225369 -4.017977 0.223021
2.897701 -3.610011 0.335967
4.070634 -5.069953 2.559435
4.051892 -5.046573 2.840313
4.086619 -5.089790 2.953286
3.897088 -4.853721 3.582239
3.860648 -4.808332 3.707850
3.719434 -4.632479 3.963019
3.496360 -4.354740 4.026700
3.243111 -4.039286 4.997375
3.240909 -4.036498 5.281549
3.181904 -3.962996 5.529821
2.738128 -3.410362 6.330840
2.685204 -3.344430 6.586471
3.468458 -3.786007 0.456802
3.192149 -3.484618 0.164019
4.552437 -4.968200 2.755760
4.454758 -4.861596 3.044169
4.323228 -4.718045 3.446025
4.373693 -4.773123 3.289929
4.201157 -4.584852 3.595228
4.048367 -4.418132 3.848302
3.790582 -4.136889 3.966952
3.532552 -3.855259 4.874730
3.453527 -3.768962 5.451024
3.391199 -3.700929 5.698732
2.971035 -3.242475 6.258923
2.796345 -3.051831 6.725199
5.075508 -4.860423 2.631158
4.825706 -4.621226 3.092585
4.743235 -4.542246 3.326421
4.643354 -4.446590 3.617173
4.564376 -4.370952 3.853309
4.513330 -4.322099 3.767484
4.266826 -4.086086 4.037395
3.836046 -3.673655 4.410165
3.503699 -3.355380 5.292374
3.686904 -3.530733 5.469854
3.490644 -3.342793 5.920392
3.250615 -3.112923 6.582388
2.984984 -2.858616 6.744708
3.834712 -3.228734 0.265649
5.240628 -4.411406 2.978329
5.189235 -4.368172 2.889305
4.977200 -4.189676 3.454724
4.853046 -4.085157 3.801356
4.829443 -4.065287 3.868663
4.512435 -3.798476 4.308180
4.278939 -3.602003 4.258219
3.871337 -3.258879 5.305182
3.885164 -3.270520 5.258039
3.763125 -3.167771 5.682986
3.370930 -2.837635 6.549549
3.265043 -2.748521 6.651566
5.589033 -4.059735 2.863976
5.584547 -4.056476 2.874907
5.468825 -3.972414 3.161016
5.355737 -3.890264 3.448728
5.129996 -3.726307 3.807930
5.052302 -3.669896 3.777381
4.675623 -3.396318 4.332470
4.374226 -3.177490 4.186078
4.094735 -2.974478 4.756134
4.241082 -3.080696 5.113399
4.128026 -2.998560 5.476974
3.884188 -2.821478 5.714971
3.497933 -2.540959 6.167026
3.291527 -2.391070 6.297550
3.314563 -2.407725 6.859473
4.502186 -2.887431 0.283016
3.933395 -2.522844 0.463008
5.673998 -3.638147 3.199832
5.646346 -3.620415 3.266967
5.618843 -3.602779 3.334188
5.252615 -3.367961 4.029910
5.107638 -3.275021 4.170908
4.885986 -3.132942 4.274055
4.525276 -2.901716 4.515654
4.200498 -2.693431 5.491530
4.203109 -2.695071 5.771802
3.952301 -2.534287 6.010743
3.711158 -2.379738 5.920918
3.392573 -2.175482 6.412823
4.226453 -2.333937 0.389958
5.867570 -3.239232 3.050654
5.744844 -3.171475 3.337282
5.579324 -3.080091 3.737413
5.339283 -2.947588 4.099862
5.146533 -2.841195 4.353669
4.854058 -2.679768 4.630270
4.456392 -2.460257 5.227010
4.394029 -2.425822 5.413615
4.332797 -2.392011 5.600707
4.051797 -2.236914 5.899478
3.791623 -2.093315 6.144579
3.713843 -2.050326 6.731403
3.678843 -2.030958 7.196370
5.871425 -2.724457 3.524441
5.748117 -2.667234 3.816038
5.650675 -2.622013 4.052794
5.480243 -2.542974 3.982963
5.127921 -2.379522 4.372348
4.889593 -2.268972 4.480423
4.307774 -1.999095 4.728241
4.474653 -2.076391 5.644840
4.280382 -1.986287 5.647936
4.036453 -1.873100 6.106575
3.989912 -1.851462 6.573114
4.123767 -1.913485 7.098136
4.632504 -1.798762 0.342449
5.959230 -2.313172 3.000584
6.070037 -2.356136 3.212815
6.023933 -2.338213 3.547555
5.717007 -2.219089 4.024263
5.602951 -2.174838 4.053056
5.241493 -2.034568 4.444387
4.955806 -1.923741 4.398999
4.576832 -1.776667 4.865741
4.593749 -1.783205 5.093284
4.616934 -1.792145 5.591699
4.511902 -1.751364 5.901372
4.331807 -1.681502 5.847609
4.153481 -1.612260 6.401241
4.536923 -1.760977 6.750234
4.624019 -1.794610 8.176057
6.183950 -1.988961 2.792372
6.039194 -1.942350 3.563339
5.897409 -1.896768 3.646111
5.720840 -1.839970 4.054832
5.628564 -1.810314 4.026700
5.323723 -1.712278 4.516059
5.028539 -1.617374 4.742726
4.801636 -1.544407 5.070532
4.842129 -1.557404 5.237352
4.758353 -1.530421 5.756813
4.533982 -1.458296 5.820256
4.941726 -1.589257 6.724451
4.867409 -1.565308 7.296035
5.973641 -1.465908 3.039283
6.023092 -1.477970 3.631348
6.043284 -1.482926 3.586642
5.675889 -1.392782 4.181736
5.438174 -1.334463 4.498922
5.250192 -1.288351 4.704268
5.109370 -1.253813 4.795222
4.901092 -1.202718 5.063857
4.877091 -1.196796 5.406703
4.745085 -1.164392 5.773691
4.466808 -1.096171 5.683801
5.136886 -1.260354 6.745874
5.085228 -1.247600 7.578132
5.234205 -1.284108 7.763927
5.195261 -1.274507 8.269156
5.975480 -1.068711 2.749527
5.992905 -1.071756 3.402476
6.076250 -1.086639 3.457422
5.941505 -1.062538 3.752878
5.720065 -1.022953 4.009393
5.380657 -0.962264 4.558861
5.143859 -0.919929 4.883417
4.933360 -0.882297 5.153447
4.909895 -0.878070 5.497066
5.019067 -0.897573 5.486162
4.524462 -0.809165 5.990217
5.196029 -0.929018 7.102579
5.213984 -0.932197 7.378836
5.217644 -0.932816 7.712381
5.906744 -0.668708 3.006574
6.106618 -0.691290 3.050101
6.119070 -0.692652 3.488310
