-1.452695 0.369616 9.564042
-1.385337 0.358891 9.896139
-1.321740 0.348762 10.228995
-1.175777 0.325597 10.481455
-0.903108 0.282328 10.912665
-1.415206 0.284538 1.956192
-1.321609 0.274887 2.395873
-1.318840 0.274564 2.644731
-1.409202 0.283768 2.933177
-1.342328 0.276817 3.599391
-1.323820 0.274873 3.908374
-1.333478 0.275822 4.153142
-1.270312 0.269241 4.877419
-1.310887 0.273366 5.056227
-1.119896 0.253778 5.294526
-1.200100 0.261878 5.983897
-1.470167 0.289450 6.442210
-1.518457 0.294310 6.960441
-1.552725 0.297781 7.195099
-1.588855 0.301442 7.428820
-1.558278 0.298235 7.913249
-1.567653 0.299138 8.270561
-1.500200 0.292190 8.539727
-1.502572 0.292366 8.958745
-1.497322 0.291752 9.439464
-1.551129 0.297224 9.666407
-1.350061 0.276562 10.169750
-1.358840 0.277468 10.123412
-1.165714 0.257619 10.631786
-0.696516 0.209527 11.034769
-1.576083 0.203618 1.199607
-1.652464 0.206694 1.495054
-1.401022 0.196332 2.017547
-1.365542 0.194832 2.331157
-1.396294 0.196023 2.748461
-1.368485 0.194837 3.060178
-1.277921 0.191019 3.791032
-1.235882 0.189241 4.164576
-1.316220 0.192470 4.509543
-1.283195 0.191061 4.880650
-1.300604 0.191735 5.123758
-1.203315 0.187714 5.396441
-1.349290 0.193603 5.893805
-1.639155 0.205390 6.290025
-1.684623 0.207167 6.807777
-1.680144 0.206927 7.168132
-1.619964 0.204434 7.374269
-1.605260 0.203766 7.796438
-1.467571 0.198054 8.318757
-1.512637 0.199860 8.550330
-1.514998 0.199890 8.970086
-1.509749 0.199599 9.451547
-1.512465 0.199634 9.931476
-1.350399 0.192959 10.244367
-1.214334 0.187367 10.432621
-1.047005 0.180465 10.814843
-0.509629 0.158466 11.009993
-1.394704 0.101466 2.052458
-1.240184 0.105570 2.386953
-1.385895 0.101624 2.549777
-1.448019 0.099898 2.901279
-1.288010 0.104103 3.528453
-1.310299 0.103428 4.002450
-1.371152 0.101772 4.119673
-1.283441 0.104007 4.906998
-1.324571 0.102873 5.085268
-1.204858 0.106040 5.420369
-1.214482 0.105687 6.012052
-1.609515 0.095048 6.091200
-1.593127 0.095377 6.798206
-1.570394 0.095921 7.221435
-1.679944 0.092977 7.203194
-1.497347 0.097787 7.849491
-1.473788 0.098344 8.333822
-1.550632 0.096260 8.437946
-1.493349 0.097695 9.108231
-1.489767 0.097789 9.124029
-1.448316 0.098798 9.793264
-1.457992 0.098545 9.745808
-1.355832 0.101211 10.268669
-1.186193 0.105714 10.648997
-0.834340 0.115133 10.937090
-1.538015 0.002842 1.528435
-1.528174 0.003677 1.777918
-1.461317 0.009561 2.153221
-1.433245 0.011970 2.695998
-1.323455 0.021650 3.196856
-1.419329 0.013082 3.481984
-1.373967 0.017055 3.853821
-1.450868 0.010164 4.198390
-1.414455 0.013343 4.567884
-1.313219 0.022253 5.127236
-1.261680 0.026812 5.271183
-1.362661 0.017736 5.894797
-1.631683 -0.006252 6.352648
-1.661241 -0.008917 6.588137
-1.616732 -0.005037 7.074093
-1.615928 -0.005023 7.433244
-1.654258 -0.008467 7.665026
-1.515059 0.003824 8.184985
-1.543617 0.001239 8.478106
-1.487404 0.006130 9.148717
-1.539228 0.001487 9.375863
-1.482143 0.006519 9.644523
-1.402734 0.013515 10.040434
-1.277564 0.024622 10.164795
-1.074253 0.042605 10.738443
-0.864343 0.061257 10.786193
-1.469891 -0.081056 1.895639
-1.492000 -0.084419 2.082337
-1.378468 -0.067421 2.816081
-1.324737 -0.059382 3.191145
-1.445849 -0.077675 3.413960
-1.399551 -0.070755 3.786679
-1.376110 -0.067317 4.385769
-1.413297 -0.072952 4.566151
-1.267118 -0.051026 5.253766
-1.265539 -0.050837 5.559399
-1.391982 -0.069987 6.117953
-1.668094 -0.111629 6.229164
-1.617950 -0.104148 6.716087
-1.652596 -0.109463 7.293235
-1.559211 -0.095438 7.624412
-1.565137 -0.096389 7.982412
-1.495550 -0.085942 8.251357
-1.493905 -0.085761 8.671212
-1.541540 -0.092979 8.900331
-1.562926 -0.096259 9.254415
-1.531894 -0.091604 9.397060
-1.424464 -0.075493 9.919395
-1.229041 -0.046114 10.425895
-1.106325 -0.027635 10.552970
-0.789171 0.020161 10.647671
-1.420296 -0.162653 1.753146
-1.325118 -0.142299 2.194035
-1.405884 -0.159641 2.253635
-1.352300 -0.148240 2.860952
-1.336976 -0.145040 3.402292
-1.291104 -0.135256 3.776119
-1.365395 -0.151255 4.122647
-1.280905 -0.133204 4.621337
-1.319097 -0.141429 4.801409
-1.337974 -0.145566 5.332312
-1.359096 -0.150138 5.572332
-1.371404 -0.152874 6.160321
-1.565700 -0.194629 6.521581
-1.596287 -0.201287 7.100396
-1.613495 -0.205028 7.396381
-1.626656 -0.207845 7.349706
-1.612294 -0.204831 7.770388
-1.461739 -0.172616 8.354324
-1.491381 -0.179025 8.647519
-1.481330 -0.176945 9.128966
-1.559264 -0.193687 9.230287
-1.558610 -0.193624 9.708745
-1.361825 -0.151475 10.211641
-1.291403 -0.136426 10.609281
-1.063960 -0.087645 10.783778
-0.624392 0.006643 11.060009
-1.149184 -0.169002 1.165365
-1.483609 -0.260201 1.593786
-1.446200 -0.250097 2.139631
-1.413350 -0.241197 2.451994
-1.302680 -0.211122 2.954261
-1.445697 -0.250120 3.114827
-1.396961 -0.236901 3.487924
-1.368333 -0.229198 4.088200
-1.308274 -0.212904 4.521957
-1.254397 -0.198294 4.955244
-1.341162 -0.221992 5.294111
-1.340396 -0.221834 5.597624
-1.353030 -0.225373 6.185602
-1.583799 -0.288295 6.420724
-1.612026 -0.296082 6.999645
-1.610411 -0.295700 7.358548
-1.520078 -0.271139 7.689692
-1.494803 -0.264332 8.173639
-1.459438 -0.254718 8.316287
-1.415499 -0.242845 8.925709
-1.505813 -0.267462 8.964662
-1.540955 -0.277085 9.255400
-1.566030 -0.283976 9.607844
-1.405960 -0.240409 9.919890
-1.288478 -0.208502 10.571014
-1.033224 -0.139007 10.937652
-0.659783 -0.037227 10.825660
-1.518150 -0.369622 1.706460
-1.481769 -0.357298 2.018684
-1.420992 -0.336686 2.393644
-1.319897 -0.302419 3.125630
-1.349462 -0.312506 3.306583
-1.280297 -0.289051 3.740837
-1.376980 -0.321987 4.021089
-1.340997 -0.309808 4.389487
-1.375580 -0.321650 4.855710
-1.349443 -0.312820 5.221728
-1.396332 -0.328848 5.683045
-1.230717 -0.272597 6.205806
-1.292138 -0.293568 6.662739
-1.649637 -0.415201 6.795522
-1.663813 -0.420073 7.089962
-1.505448 -0.366298 7.670473
-1.480763 -0.357982 8.152676
-1.401159 -0.330958 8.483348
-1.445822 -0.346189 8.711451
-1.492160 -0.361990 8.938531
-1.449057 -0.347440 9.606252
-1.471484 -0.355050 9.494462
-1.347479 -0.312975 10.141995
-1.268104 -0.286051 10.601329
-1.111368 -0.232698 10.389693
-0.642080 -0.073147 10.918144
-1.449231 -0.443860 1.804058
-1.415502 -0.430088 2.114435
-1.363205 -0.408754 2.718760
-1.363953 -0.409103 2.964100
-1.266832 -0.369377 3.462612
-1.297513 -0.381984 3.643035
-1.320379 -0.391438 4.113972
-1.263656 -0.368260 4.546293
-1.321301 -0.391958 4.949089
-1.342437 -0.400713 5.475695
-1.411577 -0.429122 5.872329
-1.348165 -0.403163 6.077091
-1.406184 -0.427024 6.533328
-1.594550 -0.504299 6.889187
-1.626449 -0.517414 7.121075
-1.504676 -0.467575 7.575910
-1.494488 -0.463471 7.995216
-1.385496 -0.418872 8.452191
-1.400832 -0.425219 8.807042
-1.433392 -0.438616 9.097371
-1.468619 -0.453105 9.386461
-1.379947 -0.416836 9.843703
-1.353911 -0.406187 9.985224
-1.242825 -0.360763 10.635129
-0.956697 -0.243481 10.663306
-0.530336 -0.068768 11.002850
-1.453737 -0.547693 1.725179
-1.527990 -0.583562 1.784386
-1.336504 -0.491210 2.473766
-1.309608 -0.478276 2.784120
-1.260961 -0.454850 3.157387
-1.323559 -0.485140 3.505252
-1.259928 -0.454488 3.939885
-1.286052 -0.467187 4.410309
-1.320641 -0.483922 4.588926
-1.461341 -0.551945 5.026233
-1.607596 -0.622651 5.458491
-1.588971 -0.613720 5.820719
-1.292861 -0.470842 6.499258
-1.356336 -0.501515 6.608463
-1.626400 -0.632002 6.993747
-1.538434 -0.589579 7.323186
-1.509419 -0.575652 7.806269
-1.444735 -0.544462 8.074041
-1.426994 -0.535979 8.556248
-1.416453 -0.530973 9.037166
-1.437563 -0.541230 9.390405
-1.362671 -0.505132 9.785354
-1.325645 -0.487288 9.991165
-1.268613 -0.459805 10.324230
-1.116428 -0.386379 10.704881
-0.729767 -0.199678 10.848333
-1.529943 -0.698736 1.688420
-1.262709 -0.548970 2.336610
-1.289874 -0.564281 2.753165
-1.314180 -0.577947 2.937381
-1.291871 -0.565491 3.247638
-1.158503 -0.490803 3.875099
-1.247832 -0.540956 4.157358
-1.279593 -0.558803 4.337951
-1.351982 -0.599570 5.255343
-1.578640 -0.726780 5.720307
-1.599867 -0.738729 5.957526
-1.493783 -0.679238 6.005201
-1.328155 -0.586448 6.589921
-1.455875 -0.658120 6.792549
-1.419752 -0.637948 7.279301
-1.375727 -0.613355 7.828269
-1.368809 -0.609552 8.249876
-1.421582 -0.639181 8.417749
-1.324197 -0.584644 8.876992
-1.392806 -0.623143 8.979948
-1.353462 -0.601198 9.650203
-1.327700 -0.586775 9.793758
-1.228924 -0.531481 10.381547
-1.120439 -0.470659 10.508370
-0.907430 -0.351232 10.747979
-0.419865 -0.077832 11.075980
-1.534692 -0.824967 1.792575
-1.303054 -0.675597 2.377335
-1.348156 -0.704725 2.500382
-1.298772 -0.672927 2.875574
-1.185542 -0.599964 3.440762
-1.289692 -0.667216 3.662968
-1.168205 -0.588936 4.289656
-1.353775 -0.708790 4.831201
-1.664177 -0.909182 5.273628
-1.681149 -0.920180 5.512414
-1.548226 -0.834487 5.967553
-1.428023 -0.756939 6.079401
-1.285993 -0.665383 6.602529
-1.360466 -0.713516 6.995436
-1.409082 -0.744986 7.510948
-1.375073 -0.723066 7.655199
-1.380020 -0.726326 8.014917
-1.375347 -0.723390 8.436468
-1.326643 -0.692087 9.109219
-1.429312 -0.758326 9.023660
-1.320817 -0.688422 9.609462
-1.263505 -0.651500 9.944139
-1.209442 -0.616675 10.279581
-1.002492 -0.483171 10.517450
-0.761964 -0.328048 11.017889
-1.387587 -0.846115 1.577068
-1.308339 -0.788075 2.247757
-1.328071 -0.802596 2.433339
-1.302962 -0.784225 2.744489
-1.192515 -0.703263 3.308318
-1.196151 -0.705980 3.555031
-1.193573 -0.704193 4.092165
-1.407968 -0.861652 4.508653
-1.608962 -1.009339 5.265352
-1.648251 -1.038269 5.723399
-1.667689 -1.052584 5.959808
-1.502338 -0.931267 6.257193
-1.371811 -0.835488 6.432034
-1.303193 -0.785172 6.701677
-1.423187 -0.873361 7.246609
-1.346377 -0.817043 7.578617
-1.336934 -0.810195 8.000633
-1.241481 -0.740218 8.460350
-1.303611 -0.785845 8.565125
-1.259422 -0.753540 9.237385
-1.301649 -0.784581 9.465851
-1.277014 -0.766527 9.609708
-1.222146 -0.726316 9.943644
-1.124413 -0.654704 10.594619
-0.972353 -0.543068 10.512448
-0.616592 -0.281962 10.719259
-1.294273 -0.899560 1.908806
-1.334701 -0.933338 2.030918
-1.267517 -0.877384 2.697895
-1.182915 -0.806853 3.196906
-1.248052 -0.861248 3.252703
-1.091561 -0.730749 4.004438
-1.119042 -0.753730 4.184890
-1.697101 -1.236578 5.298128
-1.629485 -1.180238 5.843366
-1.608828 -1.163008 5.921461
-1.435564 -1.018424 6.279935
-1.265752 -0.876725 6.642756
-1.173021 -0.799385 7.038406
-1.287933 -0.895366 7.237684
-1.248715 -0.862736 7.785838
-1.267558 -0.878529 8.080448
-1.276481 -0.886052 8.436961
-1.312063 -0.915806 8.666216
-1.186356 -0.811001 9.377054
-1.217508 -0.837069 9.666997
-1.185254 -0.810183 9.872887
-1.144780 -0.776448 10.142491
-1.021883 -0.673906 10.458531
-0.817712 -0.503521 10.825400
-1.245262 -0.985331 1.653784
-1.304472 -1.041338 1.945477
-1.170038 -0.914407 2.339792
-1.152019 -0.897500 2.881011
-1.093767 -0.842557 3.317238
-1.097470 -0.846109 3.562711
-1.140523 -0.886812 3.680769
-1.225929 -0.967617 4.188893
-1.402665 -1.134830 5.234984
-1.704454 -1.419975 5.264627
-1.634953 -1.354367 5.527386
-1.474823 -1.203210 6.163972
-1.440971 -1.171256 6.304740
-1.251997 -0.992814 6.792057
-1.095290 -0.844757 6.812919
-1.179097 -0.924087 7.483701
-1.207311 -0.950795 7.716308
-1.212508 -0.955783 8.074041
-1.198029 -0.942208 8.556987
-1.232368 -0.974702 8.786294
-1.226469 -0.969233 9.266481
-1.203688 -0.947741 9.409139
-1.134010 -0.882007 9.868187
-1.086829 -0.837502 10.201725
-0.946713 -0.705227 10.710121
-0.691188 -0.463863 10.999706
-1.259602 -1.142266 1.650421
-1.253127 -1.135407 1.899614
-1.109055 -0.981650 2.589224
-1.069883 -0.939889 2.963853
-1.052435 -0.921321 3.274627
-1.136477 -1.011156 3.496798
-1.041855 -0.910146 3.830773
-1.611829 -1.519399 5.273773
-1.656249 -1.566880 5.386843
-1.567927 -1.472678 6.053369
-1.563946 -1.468429 6.070498
-1.359640 -1.250224 6.334969
-1.143449 -1.019339 6.668144
-1.060872 -0.931212 7.065138
-1.077712 -0.949352 7.706316
-1.171516 -1.049624 7.964194
-1.134535 -1.010164 8.169446
-1.188491 -1.067924 8.675562
-1.124928 -1.000109 9.069979
-1.189051 -1.068623 9.108238
-1.084577 -0.957175 9.818729
-1.082358 -0.954808 9.834801
-0.997816 -0.864641 10.485317
-0.853550 -0.710528 10.530457
-0.612144 -0.452694 10.818713
-0.953793 -0.934753 1.262609
-1.117860 -1.133167 1.645911
-1.112448 -1.126744 2.127306
-1.090589 -1.100399 2.438759
-0.999544 -0.990488 3.002713
-1.035632 -1.034139 3.123228
-1.011923 -1.005630 3.724797
-0.974320 -0.960213 3.868943
-1.552764 -1.659796 5.406296
-1.524903 -1.626223 5.825963
-1.467062 -1.556373 6.089561
-1.384995 -1.457269 6.478030
-1.308352 -1.364639 6.525108
-1.084081 -1.093661 6.983112
-0.946841 -0.927776 7.004903
-0.934405 -0.912850 7.430201
-1.132333 -1.152191 7.806269
-1.076414 -1.084781 8.540467
-1.135821 -1.156600 8.580170
-1.094587 -1.106824 8.847856
-1.081352 -1.090961 9.390405
-1.053341 -1.057154 9.595637
-1.010055 -1.004913 9.927807
-0.939698 -0.920014 10.514871
-0.791095 -0.740431 10.688113
-0.593866 -0.502035 10.718750
-0.876293 -0.966175 1.325934
-1.046745 -1.200117 1.644435
-1.059537 -1.217778 2.061637
-1.005180 -1.143320 2.497916
-0.987612 -1.119300 2.807653
-0.907973 -1.010190 3.370292
-0.981199 -1.110713 3.590575
-0.994857 -1.129577 4.061561
-1.477134 -1.791571 5.272387
-1.412458 -1.702999 5.874331
-1.396897 -1.681671 5.950670
-1.332419 -1.593296 6.274384
-1.193544 -1.402784 6.351063
-1.018484 -1.162773 6.963644
-0.791109 -0.850889 7.211284
-0.823583 -0.895487 7.381771
-1.063090 -1.224191 7.784641
-1.002014 -1.140611 8.581155
-1.012624 -1.155263 8.935080
-1.059329 -1.219368 9.035704
-0.991617 -1.126609 9.555158
-0.997647 -1.134869 9.507043
-0.927698 -1.039059 10.091702
-0.918850 -1.026941 10.170246
-0.753564 -0.800288 10.596004
-0.475582 -0.419014 10.998216
-1.004075 -1.310731 1.752217
-0.967374 -1.253507 2.127306
-0.982321 -1.276979 2.543564
-0.951047 -1.228236 2.916968
-0.878913 -1.115716 3.479757
-0.832236 -1.042861 3.687700
-1.368151 -1.880502 5.262797
-1.328852 -1.819171 5.461559
-1.232225 -1.668374 5.969861
-1.269216 -1.726192 6.078461
-1.221987 -1.652490 6.340438
-1.051963 -1.386983 6.667682
-0.956097 -1.237295 6.904280
-0.769792 -0.946395 7.370058
-0.809660 -1.008706 7.475926
-0.950180 -1.228385 8.039548
-0.964975 -1.251582 8.331579
-0.948675 -1.226279 8.874460
-0.937849 -1.209526 9.416042
-0.907256 -1.161814 9.683546
-0.884787 -1.126773 9.888223
-0.831101 -1.043061 10.410586
-0.782846 -0.967661 10.343960
-0.826929 -1.198951 1.928750
-0.881619 -1.297204 2.159305
-0.922985 -1.371559 2.451194
-0.880221 -1.294931 2.888891
-0.841424 -1.225426 3.322789
-0.818470 -1.184338 3.693134
-1.232969 -1.928891 5.074268
-1.196761 -1.863956 5.273773
-1.174867 -1.824789 5.692645
-1.120111 -1.726597 6.016800
-1.057268 -1.613908 6.404437
-0.941080 -1.405466 6.826897
-0.852681 -1.246972 7.439285
-0.876797 -1.290451 8.012454
-0.889951 -1.314161 8.305003
-0.860528 -1.261559 8.974524
-0.899151 -1.330928 9.075285
-0.876723 -1.290731 9.279533
-0.852161 -1.246875 10.009414
-0.785131 -1.126606 10.195775
-0.760978 -1.083334 10.465203
-0.610370 -0.812973 10.492079
-0.390298 -0.417992 10.764211
-0.746639 -1.237042 1.265925
-0.817846 -1.385931 1.839433
-0.801800 -1.352543 2.150934
-0.799676 -1.348198 2.398859
-0.801302 -1.351769 2.876089
-0.817880 -1.386534 3.287745
-0.712102 -1.165885 3.873406
-1.102996 -1.982426 4.847549
-1.001127 -1.769957 5.481527
-1.058501 -1.889726 5.408191
-1.002981 -1.774045 6.076359
-0.979801 -1.725823 6.558553
-0.869555 -1.495683 6.701951
-0.776226 -1.300945 7.066942
-0.617564 -0.969729 7.253741
-0.607545 -0.948839 7.334707
-0.753226 -1.253262 7.993218
-0.813494 -1.379194 8.249902
-0.786663 -1.323418 8.920785
-0.827031 -1.407721 8.960264
-0.759306 -1.266571 9.670702
-0.783438 -1.317042 9.896959
-0.702833 -1.148900 10.338123
-0.659008 -1.057394 10.336988
-0.510349 -0.747075 10.557819
-0.315147 -0.339595 10.833883
-0.685116 -1.315273 1.414051
-0.805349 -1.610960 1.671562
-0.767886 -1.519045 2.109000
-0.700711 -1.354167 2.735611
-0.721408 -1.405101 2.857874
-0.992043 -2.071229 4.775037
-0.893892 -1.830229 5.472080
-0.883068 -1.803653 5.552290
-0.835714 -1.687523 6.225073
-0.810355 -1.625266 6.430601
-0.734780 -1.439601 6.732309
-0.696635 -1.345822 6.721162
-0.549967 -0.985363 6.970543
-0.528597 -0.933062 7.529384
-0.675888 -1.295356 7.997419
-0.704251 -1.365297 8.507927
-0.721705 -1.408302 8.739282
-0.723492 -1.412870 9.158421
-0.685676 -1.320097 9.618597
-0.659960 -1.257019 9.953543
-0.653900 -1.242155 10.035482
-0.592935 -1.092416 10.353421
-0.454872 -0.753152 10.705245
-0.529514 -1.132638 1.210266
-0.679107 -1.575552 1.619059
-0.637716 -1.453304 2.119432
-0.626683 -1.420808 2.430875
-0.616704 -1.391428 2.741776
-0.598963 -1.339111 3.115321
-0.578605 -1.279190 3.780241
-0.724449 -1.710908 3.986867
-0.822055 -2.000191 4.845414
-0.820052 -1.994411 5.144581
-0.766083 -1.834776 5.312728
-0.735483 -1.744349 5.578601
-0.689007 -1.607173 6.315160
-0.685598 -1.597262 6.676004
-0.603990 -1.355821 6.822841
-0.547881 -1.190247 7.790298
-0.617599 -1.396746 8.138128
-0.631580 -1.438236 8.369486
-0.636317 -1.452432 8.725748
-0.615512 -1.391222 9.458945
-0.649972 -1.493192 9.434272
-0.575921 -1.274355 10.062970
-0.563275 -1.237031 10.270653
-0.512366 -1.086527 10.588643
-0.381658 -0.699712 10.602408
-0.545130 -1.476271 1.230616
-0.572595 -1.577796 1.925852
-0.547793 -1.486756 2.361937
-0.562052 -1.539320 2.482870
-0.554116 -1.510292 2.791948
-0.542608 -1.468292 3.392068
-0.512960 -1.359311 3.660991
-0.723330 -2.134476 4.886476
-0.679367 -1.972908 5.334386
-0.653213 -1.876617 5.316125
-0.594159 -1.659612 5.955814
-0.617550 -1.745747 6.004012
-0.558603 -1.528968 6.364687
-0.500844 -1.316564 6.729697
-0.440716 -1.095919 7.888350
-0.506844 -1.339730 8.513029
-0.552627 -1.508345 8.640150
-0.528060 -1.418144 9.034699
-0.545117 -1.481035 9.199272
-0.548201 -1.492640 9.614733
-0.508239 -1.345996 10.388829
-0.490950 -1.282236 10.196767
-0.388666 -0.905990 10.671345
-0.278825 -0.501686 10.751217
-0.405930 -1.274050 1.485908
-0.489322 -1.676799 1.783521
-0.481693 -1.640217 2.093318
-0.457187 -1.522320 2.591276
-0.434413 -1.412784 3.089630
-0.459176 -1.532481 3.311105
-0.452404 -1.500261 3.908247
-0.579103 -2.112707 5.052987
-0.512484 -1.791862 5.968670
-0.498605 -1.725033 6.171902
-0.461596 -1.546581 6.407695
-0.401418 -1.256597 7.026755
-0.377165 -1.139572 7.078286
-0.314765 -0.838647 7.424488
-0.425354 -1.373273 8.491757
-0.460773 -1.544333 8.618760
-0.447048 -1.478654 9.350480
-0.446334 -1.475223 9.366498
-0.449204 -1.489398 9.781636
-0.408566 -1.293639 10.284790
-0.385625 -1.182956 10.346449
-0.354967 -1.494560 1.306237
-0.374268 -1.629753 1.939098
-0.360776 -1.536224 2.375965
-0.368454 -1.589862 2.497608
-0.340452 -1.395515 3.186270
-0.365495 -1.570121 3.282336
-0.367959 -1.587811 3.754527
-0.411066 -1.888830 4.334808
-0.459012 -2.223482 4.842985
-0.441519 -2.101956 5.167738
-0.404872 -1.847064 5.584687
-0.357561 -1.517449 5.627654
-0.337089 -1.375629 6.371701
-0.360497 -1.538892 6.512721
-0.329404 -1.322649 6.879599
-0.307175 -1.168763 7.786092
-0.319923 -1.258545 8.642280
-0.362929 -1.558239 8.666708
-0.365572 -1.577053 9.019973
-0.343466 -1.423808 9.729499
-0.351478 -1.479885 9.954409
-0.335328 -1.367419 10.013941
-0.309055 -1.184844 10.456289
-0.282522 -1.758195 1.486447
-0.281556 -1.747267 1.966050
-0.271263 -1.621260 2.233620
-0.271284 -1.622452 2.710864
-0.266726 -1.567148 3.082727
-0.246456 -1.319142 3.668838
-0.317103 -2.190107 4.993751
-0.314705 -2.160793 5.071779
-0.267470 -1.582223 6.114311
-0.257019 -1.454523 6.509614
-0.251745 -1.390105 6.716329
-0.235723 -1.193764 7.022196
-0.233780 -1.170036 7.102976
-0.210284 -0.881783 7.385690
-0.204954 -0.817483 8.008389
-0.251745 -1.393737 8.578848
-0.261045 -1.508793 8.956773
-0.251532 -1.392881 9.478003
-0.253823 -1.421728 9.830350
-0.262561 -1.529083 9.802329
-0.243476 -1.295838 10.495499
-0.232535 -1.161733 10.684920
-0.198570 -0.744389 10.762777
-0.170922 -1.597618 1.388361
-0.176091 -1.858052 1.538370
-0.171614 -1.638950 2.224781
-0.169746 -1.548732 2.661186
-0.170830 -1.604044 2.782115
-0.170952 -1.613929 3.257020
-0.164655 -1.301948 3.741334
-0.184318 -2.296223 4.756801
-0.180863 -2.126488 5.204660
-0.170064 -1.592203 6.124639
-0.167859 -1.484226 6.457020
-0.166128 -1.399546 6.727221
-0.163338 -1.260551 6.839937
-0.157527 -0.974083 7.466968
-0.153719 -0.785572 7.778345
-0.156099 -0.907495 8.102439
-0.162763 -1.247382 8.813630
-0.168809 -1.550750 8.834063
-0.168310 -1.530053 9.375617
-0.169628 -1.597432 9.537504
-0.166685 -1.455470 10.246439
-0.164671 -1.354418 10.242880
-0.161225 -1.184590 10.622059
-0.150901 -0.667270 10.681945
-0.076307 -1.550093 1.499852
-0.070578 -1.689877 1.898879
-0.068434 -1.742292 2.021085
-0.072135 -1.649265 2.456350
-0.075189 -1.571328 3.120872
-0.077162 -1.521199 3.492113
-0.078945 -1.475771 3.862844
-0.046890 -2.262693 4.861724
-0.059238 -1.955955 5.399634
-0.064186 -1.833696 5.444439
-0.074732 -1.572977 5.582349
-0.080978 -1.417092 6.039961
-0.078395 -1.479032 6.496771
-0.088700 -1.222862 6.990799
-0.099251 -0.958877 7.934384
-0.095482 -1.050096 8.385000
-0.081135 -1.403132 8.623408
-0.077526 -1.490179 9.127485
-0.074831 -1.556032 9.290862
-0.075243 -1.543751 9.831401
-0.077826 -1.478749 10.162450
-0.084691 -1.307891 10.540208
-0.098518 -0.965900 10.760796
-0.116282 -0.526818 10.971728
0.018493 -1.546651 1.284797
0.038559 -1.741943 1.792575
0.034755 -1.704284 2.103609
0.031286 -1.669903 2.414137
0.031027 -1.666987 2.661282
0.014261 -1.502185 3.285762
0.014748 -1.506553 3.531580
0.091271 -2.252226 4.885515
0.083525 -2.176215 5.087201
0.042878 -1.777741 5.910096
0.011723 -1.472343 6.524435
0.003222 -1.388857 6.794337
-0.010939 -1.250292 6.909115
-0.036320 -1.000898 7.791434
-0.007465 -1.282090 8.292856
0.007791 -1.430149 8.951682
0.024331 -1.591481 9.139231
0.020232 -1.550382 9.807009
0.016080 -1.509496 10.012868
0.012078 -1.470070 10.219014
-0.014118 -1.213620 10.517343
-0.053206 -0.830907 10.998444
0.153803 -1.789650 1.231626
0.165925 -1.862744 1.757624
0.144993 -1.735384 2.025735
0.115883 -1.558016 2.651581
0.124796 -1.612018 2.773757
0.126368 -1.621101 3.249894
0.086473 -1.378290 3.836720
0.237393 -2.293775 4.750563
0.209873 -2.126240 5.198143
0.170984 -1.890036 5.269733
0.121229 -1.587670 5.532149
0.118033 -1.567910 5.896518
0.105682 -1.492379 6.449368
0.079620 -1.333958 6.626247
-0.026473 -0.688610 7.815507
0.074461 -1.300684 8.624637
0.098088 -1.443900 8.878228
0.117476 -1.561255 9.255400
0.119607 -1.573788 9.671330
0.112796 -1.532232 9.877240
0.098498 -1.444973 10.336407
0.058636 -1.202698 10.572186
-0.037411 -0.619005 11.088496
0.184307 -1.430385 1.497576
0.242434 -1.684281 2.109980
0.240582 -1.676165 2.127628
0.209073 -1.537736 2.920417
0.233883 -1.646294 2.915887
0.230578 -1.631450 3.453312
0.233261 -1.642651 4.213831
0.313593 -1.993816 4.664236
0.363914 -2.213813 4.913160
0.273330 -1.816887 5.737962
0.199589 -1.493756 6.415066
0.202811 -1.507885 6.369925
0.158070 -1.311910 6.674658
0.063458 -0.897150 7.790493
0.122882 -1.156751 8.358396
0.198009 -1.485248 8.662821
0.195767 -1.475093 9.146001
0.229066 -1.620613 9.396441
0.196629 -1.478184 10.107882
0.207256 -1.524476 10.396924
0.160129 -1.318241 10.442610
0.264853 -1.391281 1.551014
0.347296 -1.670888 2.099443
0.354023 -1.693625 2.284244
0.328829 -1.607840 2.719459
0.297781 -1.502144 3.217687
0.283957 -1.454998 3.589587
0.362099 -1.719950 4.235913
0.498412 -2.182689 4.376190
0.501600 -2.193223 4.896572
0.487244 -2.144244 5.317830
0.415185 -1.899351 5.734333
0.329877 -1.609560 5.999061
0.316449 -1.563888 6.141856
0.280394 -1.441251 6.537528
0.245872 -1.323817 6.934911
0.212889 -1.211607 7.333932
0.124823 -0.912603 7.333310
0.093392 -0.805659 7.738157
0.205066 -1.184560 8.203449
0.291182 -1.476702 8.634935
0.300540 -1.508312 8.927686
0.295134 -1.489653 9.471523
0.296109 -1.492694 9.950710
0.291665 -1.477562 10.030879
0.246100 -1.322678 10.346063
0.436898 -1.626925 1.683025
0.464596 -1.703873 1.973875
0.433013 -1.615773 2.408495
0.384792 -1.481311 2.969212
0.416662 -1.569872 3.254071
0.320164 -1.301119 3.673801
0.664182 -2.258079 4.628314
0.614113 -2.118555 5.012769
0.605197 -2.093575 5.371552
0.512049 -1.834119 5.849837
0.424605 -1.590695 5.988994
0.387713 -1.487870 6.319877
0.345475 -1.370136 6.715339
0.298337 -1.238898 6.829241
0.199764 -0.964439 7.108480
0.128584 -0.766168 7.484832
0.216979 -1.011903 8.056055
0.364426 -1.421905 8.790488
0.396044 -1.509880 8.829630
0.403157 -1.529511 9.183275
0.389668 -1.491658 9.850622
0.384319 -1.476735 9.929750
0.350940 -1.383596 10.451661
0.349963 -1.380871 10.467743
0.189841 -0.935063 10.863369
0.357173 -1.173277 1.258828
0.531682 -1.575547 1.727917
0.564531 -1.651190 2.018149
0.539222 -1.592673 2.389608
0.504613 -1.512684 2.823673
0.541612 -1.597898 3.108512
0.416798 -1.309858 3.589724
0.754235 -2.087511 4.976182
0.706260 -1.976742 5.300061
0.697278 -1.955885 5.658611
0.614750 -1.765440 5.951858
0.503846 -1.509590 6.154402
0.477313 -1.448318 6.359075
0.382114 -1.228596 6.788458
0.372547 -1.206501 6.867801
0.220472 -0.855543 7.469098
0.190740 -0.786864 7.743464
0.341685 -1.134767 8.271041
0.532972 -1.575864 8.409248
0.515767 -1.535944 9.014075
0.536115 -1.582781 9.240317
0.507570 -1.516818 9.570210
0.475545 -1.442806 9.964027
0.436542 -1.352648 10.485560
0.378691 -1.219130 10.738063
0.207991 -0.825402 10.880804
0.673259 -1.632006 1.744874
0.602635 -1.492801 2.306842
0.588070 -1.464025 2.617360
0.549917 -1.388776 3.053580
0.629627 -1.545636 3.150453
0.607007 -1.500983 3.521112
0.904022 -2.085134 4.836980
0.890886 -2.059152 5.196553
0.837161 -1.953293 5.521590
0.719184 -1.721033 5.657755
0.587029 -1.460723 6.206818
0.565953 -1.419189 6.349951
0.448525 -1.187883 6.844415
0.368363 -1.030017 7.088603
0.316407 -0.927612 7.491086
0.377763 -1.048287 7.753771
0.549364 -1.385863 8.279744
0.592843 -1.471286 8.723534
0.672303 -1.627641 8.849868
0.669129 -1.621228 9.327461
0.598593 -1.482306 9.574391
0.567684 -1.421353 9.906574
0.543912 -1.374467 10.176280
0.392611 -1.076404 10.920602
0.158469 -0.615523 10.986775
0.610201 -1.313270 1.485460
0.802832 -1.641087 1.846860
0.754282 -1.558301 2.282040
0.709040 -1.481146 2.717249
0.723014 -1.504877 2.900674
0.641838 -1.366492 3.524178
0.845534 -1.713151 3.859024
0.986312 -1.952519 4.780338
0.912160 -1.826165 5.168019
0.933573 -1.862563 5.343091
0.992031 -1.961996 5.612892
0.801559 -1.637690 5.778461
0.638156 -1.359415 6.108243
0.583408 -1.266109 6.441773
0.491828 -1.110022 7.031418
0.344998 -0.859975 7.313675
0.284551 -0.757055 7.368512
0.731576 -1.517758 8.325109
0.750494 -1.549746 9.016773
0.776223 -1.593476 9.243828
0.746502 -1.542796 9.511301
0.692750 -1.451129 10.028653
0.655190 -1.387065 10.421572
0.615754 -1.319971 10.291911
0.775542 -1.399964 1.401149
0.853193 -1.515043 2.031364
0.815893 -1.459638 2.172750
0.768941 -1.389759 2.837941
0.708833 -1.300401 3.335629
0.778145 -1.403218 3.555775
1.160641 -1.970676 4.525173
1.116265 -1.904672 5.007713
0.999120 -1.730634 5.580177
0.783716 -1.410678 6.408432
0.618631 -1.165569 6.680618
0.541113 -1.050379 7.142892
0.400167 -0.841131 7.296308
0.441211 -0.902021 7.404188
0.713081 -1.305414 7.898119
0.863058 -1.527865 8.455270
0.847538 -1.504676 8.994980
0.868233 -1.535311 9.282703
0.835876 -1.487209 9.548296
0.776915 -1.399547 10.066030
0.748610 -1.357458 10.333103
0.685630 -1.263961 10.393281
0.961677 -1.484460 1.738027
0.867041 -1.360729 2.298975
0.900077 -1.403839 2.419780
0.830319 -1.312612 2.917460
0.765740 -1.228148 3.415443
0.825590 -1.306234 3.698298
1.066725 -1.620972 4.316093
1.186886 -1.777735 4.911031
1.225928 -1.828692 5.023845
1.112066 -1.679866 5.534351
0.967218 -1.490689 5.608039
0.796048 -1.267105 5.810106
0.715826 -1.162239 6.206179
0.614992 -1.030423 6.731606
0.472721 -0.844518 7.168035
0.447494 -0.811536 7.313171
0.691489 -1.129958 8.125630
0.963905 -1.485638 8.391199
1.001475 -1.534658 8.555538
0.959871 -1.480138 9.281236
0.941085 -1.455568 9.421430
0.898748 -1.400195 9.750106
0.784276 -1.250592 10.186901
0.782542 -1.248324 10.201969
0.678968 -1.112967 10.579710
0.398316 -0.746375 10.913362
0.847502 -1.187591 1.237496
1.035074 -1.403314 2.020840
1.050315 -1.420813 2.205705
1.009652 -1.373916 2.577913
0.899971 -1.247513 3.201665
0.962884 -1.319863 3.486221
1.098256 -1.475556 4.032460
1.255784 -1.656769 4.508805
1.280016 -1.684551 4.968735
1.203572 -1.596411 5.577509
1.185294 -1.575351 5.656368
0.910659 -1.259152 5.951187
0.776171 -1.104272 6.253302
0.781995 -1.110903 6.554795
0.614556 -0.918047 7.051319
0.548638 -0.842172 7.038667
0.732295 -1.053372 7.892695
0.992913 -1.353255 8.350369
1.012936 -1.376233 8.640837
1.074209 -1.446754 8.679775
1.067971 -1.439459 9.155607
0.977064 -1.334662 9.797720
0.942172 -1.294433 10.064555
0.940229 -1.292193 10.079803
0.834945 -1.170927 10.392292
0.902591 -1.117595 1.738551
1.024827 -1.241955 2.306104
1.021963 -1.238982 2.554628
1.040285 -1.257600 2.739601
0.944137 -1.159554 3.302052
0.947124 -1.162540 3.548607
1.092433 -1.310403 4.096365
1.261331 -1.482305 4.573899
1.420961 -1.644692 5.387459
1.382331 -1.605382 5.247153
1.039664 -1.256293 5.725354
0.931649 -1.146185 6.183543
0.927797 -1.142257 6.200340
0.800075 -1.012128 6.440300
0.606191 -0.814543 7.003528
0.698094 -0.908081 7.268730
1.013120 -1.228771 7.890860
1.144069 -1.362027 8.360399
1.143961 -1.361822 8.776522
1.178242 -1.396683 9.003749
1.156327 -1.374229 9.604582
1.031284 -1.246798 9.977521
0.994977 -1.209761 10.246160
0.932269 -1.145912 10.181220
0.797039 -1.008075 10.687831
0.511095 -0.716860 10.701967
0.987634 -1.077381 1.686385
1.182017 -1.252517 2.066374
1.070250 -1.151650 2.629668
1.110766 -1.188146 2.752131
1.008851 -1.096159 3.315135
0.953490 -1.046164 3.752019
1.028212 -1.113458 4.035657
1.240025 -1.304250 4.676913
1.392035 -1.441146 5.270524
1.247884 -1.311219 5.218869
1.003297 -1.090677 5.545876
0.988505 -1.077266 5.911859
0.916975 -1.012657 6.530493
0.786135 -0.894740 6.424056
0.594364 -0.721771 6.925412
0.820315 -0.925361 7.311266
1.167348 -1.238058 7.869374
1.317708 -1.373506 8.276072
1.267351 -1.328058 8.542609
1.215879 -1.281506 9.270477
1.235182 -1.298831 9.621682
1.111969 -1.187700 9.932304
1.128205 -1.202358 9.823743
1.027687 -1.111599 10.534017
0.870816 -0.970186 10.579959
0.535425 -0.667806 10.851280
1.097316 -1.050641 1.340509
1.275498 -1.192255 2.016191
1.247836 -1.170187 2.326368
1.156407 -1.097350 2.824657
1.178511 -1.114898 3.007977
1.054757 -1.016320 3.632322
1.073174 -1.030876 4.104509
1.189445 -1.123285 4.546716
1.384557 -1.278466 4.734196
1.233576 -1.158250 5.251697
1.141166 -1.084667 5.583333
1.109349 -1.059269 6.011313
0.917519 -0.906573 6.441294
0.838591 -0.843785 6.428546
0.666703 -0.706966 6.801179
1.276529 -1.191847 8.087752
1.361412 -1.259298 8.467506
1.374041 -1.269274 8.820404
1.336268 -1.239182 9.024734
1.387018 -1.279523 9.189016
1.330045 -1.234132 9.518141
1.189411 -1.122176 9.891031
1.102357 -1.052804 10.475319
0.979811 -0.955249 10.791959
1.344594 -1.111016 2.019862
1.245138 -1.041286 2.517018
1.198163 -1.008326 2.888399
1.222159 -1.025091 3.070181
1.202838 -1.011504 3.377296
1.198187 -1.008144 3.910956
1.241806 -1.038606 4.315757
1.366447 -1.125788 4.753397
1.342408 -1.108887 5.116979
1.190527 -1.002449 5.635289
1.168242 -0.986830 5.713899
0.981370 -0.855923 6.077742
0.843706 -0.759437 6.603827
0.838697 -0.755860 6.968543
1.029918 -0.889619 7.604643
1.435320 -1.173441 7.691366
1.427741 -1.167977 8.507002
1.478777 -1.203677 8.671156
1.470768 -1.197978 9.145683
1.364870 -1.123812 9.263875
1.339390 -1.105945 9.404540
1.240456 -1.036565 9.985141
1.160331 -0.980365 10.504912
1.096149 -0.935454 10.376217
1.162196 -0.885484 1.687374
1.360699 -1.008697 2.126647
1.357054 -1.006387 2.372198
1.306940 -0.975191 2.742794
1.191463 -0.903362 3.302298
1.296952 -0.968842 3.521604
1.194109 -0.904860 4.079083
1.362317 -1.009279 4.393601
1.492602 -1.090121 4.829467
1.350055 -1.001497 5.282592
1.275631 -0.955168 5.833767
1.092177 -0.841219 5.847696
0.980771 -0.771948 6.244385
0.924751 -0.737114 6.451000
0.969279 -0.764610 7.318488
1.314058 -0.978684 7.722237
1.556228 -1.129083 7.816964
1.577805 -1.142357 8.505091
1.687599 -1.210494 8.816057
1.576742 -1.141617 8.931677
1.406250 -1.035641 9.361223
1.346480 -0.998456 9.689753
1.258943 -0.943988 10.208000
1.207404 -0.911914 10.538457
1.093408 -0.841074 10.726273
0.728926 -0.614661 10.867393
1.296611 -0.857040 1.495171
1.420558 -0.923756 2.125177
1.314992 -0.866748 2.623513
1.444153 -0.936359 2.784730
1.348435 -0.884661 3.280861
1.237383 -0.824684 3.840372
1.372014 -0.897246 3.995097
1.479973 -0.955364 4.498587
1.533465 -0.984133 4.898986
1.508972 -0.970862 5.262339
1.424862 -0.925464 5.529046
1.045625 -0.720873 6.176447
1.004721 -0.698793 6.320347
0.978805 -0.684743 6.749562
1.111287 -0.756075 7.297117
1.514378 -0.973372 7.514141
1.588514 -1.013264 7.958348
1.711092 -1.079309 8.212461
1.655834 -1.049396 8.873863
1.588741 -1.013162 9.201190
1.427102 -0.925945 9.571086
1.400912 -0.911798 9.712811
1.320889 -0.868570 10.169357
1.297294 -0.855823 10.311670
1.198295 -0.707439 1.374327
1.569283 -0.878938 1.905693
1.562831 -0.875911 2.153158
1.454041 -0.825505 2.650732
1.328254 -0.767228 3.211771
1.259723 -0.735454 3.646902
1.289957 -0.749407 3.828522
1.353957 -0.778898 4.461647
1.472255 -0.833526 4.962716
1.572792 -0.880029 4.951961
1.446815 -0.821643 5.629595
1.230283 -0.721478 5.707290
1.041769 -0.634232 6.010307
1.152566 -0.685432 6.280595
1.056209 -0.640806 6.615971
1.211203 -0.712350 7.446302
1.580453 -0.883067 7.849204
1.705832 -0.941014 8.105135
1.730821 -0.952521 8.395810
1.704032 -0.940037 8.933864
1.572529 -0.879182 9.115061
1.558041 -0.872387 9.653688
1.496852 -0.844027 9.983708
1.360613 -0.780970 10.233111
1.347014 -0.774666 10.313148
1.195594 -0.616047 1.699209
1.442843 -0.712486 2.308317
1.520372 -0.742748 2.366560
1.420277 -0.703541 3.093553
1.473686 -0.724375 3.212555
1.306758 -0.659079 3.898172
1.402502 -0.696416 4.178551
1.477835 -0.725773 4.519702
1.578796 -0.765148 4.795704
1.639162 -0.788651 5.194459
1.420365 -0.703157 5.553308
1.166300 -0.603871 6.043706
1.122400 -0.586705 6.187393
1.074784 -0.568029 6.680251
1.176616 -0.607735 7.009373
1.435899 -0.708831 7.858393
1.685912 -0.806425 8.015344
1.742342 -0.828363 8.579948
1.814737 -0.856614 8.682161
1.769055 -0.838742 8.884549
1.621534 -0.781021 9.586508
1.593883 -0.770201 9.727746
1.440814 -0.710380 10.036767
1.382462 -0.687539 10.366858
1.246056 -0.634235 10.617265
0.806882 -0.462686 11.014317
1.121812 -0.498083 1.256834
1.339277 -0.566308 1.701956
1.534066 -0.627402 2.204405
1.502901 -0.617562 2.513332
1.456277 -0.602820 3.113980
1.485510 -0.611971 3.295121
1.490429 -0.613475 3.538564
1.399208 -0.584743 4.033438
1.405069 -0.586496 4.564163
1.598525 -0.647203 4.875001
1.597230 -0.646699 5.460694
1.438737 -0.596893 5.631594
1.260685 -0.540934 5.867773
1.116116 -0.495452 6.328819
1.161150 -0.509510 6.850136
1.175846 -0.514076 7.149015
1.385633 -0.579848 7.843815
1.794679 -0.708261 8.176346
1.852291 -0.726327 8.341210
1.881165 -0.735348 8.629317
1.764592 -0.698651 9.141545
1.695044 -0.676754 9.468353
1.653834 -0.663778 9.670794
1.508410 -0.618064 9.916580
1.436078 -0.595282 10.309453
1.393256 -0.488861 1.202165
1.728552 -0.571919 1.859793
1.693024 -0.563057 2.168795
1.495264 -0.513893 2.854182
1.469969 -0.507569 3.162488
1.473735 -0.508463 3.407090
1.443729 -0.500923 4.004338
1.454221 -0.503486 4.246789
1.624165 -0.545577 4.623416
1.684908 -0.560578 5.023304
1.681370 -0.559651 5.323920
1.392118 -0.487817 5.873070
1.304959 -0.466154 6.142479
1.254629 -0.453591 6.633445
1.192983 -0.438267 6.840434
1.078513 -0.409809 7.239503
1.488314 -0.511398 7.582802
1.805358 -0.589921 8.291891
1.895607 -0.612299 8.331749
1.895347 -0.612168 8.743520
1.887069 -0.610037 9.216039
1.830205 -0.595890 9.479601
1.693368 -0.561920 9.660774
1.547220 -0.525545 10.428420
1.416276 -0.493036 10.614946
1.170307 -0.431978 10.913987
1.446498 -0.407862 1.373567
1.789091 -0.470908 1.799056
1.575958 -0.431570 2.254742
1.689501 -0.452451 2.481441
1.495847 -0.416665 3.167907
1.552116 -0.427011 3.287745
1.559632 -0.428273 4.049641
1.619260 -0.439239 4.166969
1.558691 -0.428012 4.597825
1.849740 -0.481574 4.944938
1.941661 -0.498409 5.562474
1.799815 -0.472260 5.670670
1.305604 -0.381126 6.221306
1.220085 -0.365327 6.493016
1.231583 -0.367397 6.793182
1.191392 -0.359914 7.283376
1.495078 -0.415799 7.661604
1.881869 -0.486982 8.121414
1.909402 -0.492007 8.410860
1.910087 -0.492067 8.823359
1.930513 -0.495774 9.172368
1.806986 -0.472925 9.748078
1.741967 -0.460894 10.075923
1.583920 -0.431728 10.386420
1.461877 -0.409224 10.510338
1.243455 -0.368968 10.618228
1.656910 -0.341736 1.441341
1.645652 -0.340252 2.155090
1.697836 -0.346584 2.278613
1.608348 -0.335622 2.715284
1.471362 -0.318859 3.278113
1.841241 -0.363816 3.680067
2.115852 -0.397139 4.322585
1.967477 -0.379062 4.427530
1.723929 -0.349361 4.783718
1.787277 -0.357008 5.184697
1.971883 -0.379419 5.552775
1.742919 -0.351493 5.910830
1.465193 -0.317655 6.115894
1.318095 -0.299677 6.576622
1.292199 -0.296457 7.004407
1.345093 -0.302867 7.177094
1.614805 -0.335616 7.682947
1.876597 -0.367392 8.242009
1.814734 -0.359756 8.906678
1.921992 -0.372815 8.884549
1.848551 -0.363750 9.670620
1.794127 -0.357083 9.937277
1.681007 -0.343305 9.997425
1.474891 -0.318126 10.562633
1.363079 -0.304506 10.625934
1.055708 -0.267089 10.656069
1.599409 -0.235069 1.594763
1.770056 -0.245239 1.930122
1.675749 -0.239520 2.365089
1.707132 -0.241335 2.778118
1.625420 -0.236371 3.211573
2.010863 -0.259362 3.837183
2.198021 -0.270478 4.437057
2.191233 -0.270069 4.454148
1.946984 -0.255336 5.090317
2.034175 -0.260551 5.142354
1.921269 -0.253691 5.752317
1.903647 -0.252578 6.113128
1.519235 -0.229567 6.003425
1.309828 -0.216919 6.654298
1.246119 -0.213070 6.862825
1.242545 -0.212798 7.227371
1.532056 -0.230071 7.670966
1.875610 -0.250549 8.319152
1.859520 -0.249509 8.797018
1.922870 -0.253278 8.962053
1.958856 -0.255388 9.250502
1.822007 -0.247088 9.890685
1.708109 -0.240256 9.950892
1.609433 -0.234262 10.470677
1.463728 -0.225493 10.723078
1.133534 -0.205688 10.881883
1.701675 -0.147022 1.408499
1.869990 -0.147722 1.975568
1.834325 -0.147506 2.284311
1.773429 -0.147161 2.655064
1.772989 -0.147120 2.899696
2.099740 -0.148534 3.652572
2.451351 -0.150112 4.107265
2.345111 -0.149572 4.367624
1.861795 -0.147149 5.353018
2.044206 -0.147991 5.436726
1.855946 -0.147071 5.667746
1.511232 -0.145392 6.058408
1.322795 -0.144415 6.644616
1.337549 -0.144492 6.597213
1.219383 -0.143820 7.342153
1.494380 -0.145030 7.846283
1.762833 -0.146265 8.003124
1.951517 -0.147076 8.468895
1.923571 -0.146860 9.006050
1.974403 -0.147063 9.230843
1.849915 -0.146388 9.807054
1.808909 -0.146163 10.010245
1.635804 -0.145292 10.383473
1.557930 -0.144947 10.255271
1.300626 -0.143693 10.552132
1.764935 -0.037160 1.517737
1.845656 -0.032408 2.038201
1.725079 -0.039304 2.532842
1.689934 -0.041325 2.610021
2.322354 -0.004495 4.169683
2.476583 0.004450 4.320512
2.348936 -0.002883 4.640530
1.986186 -0.023805 5.029391
1.514765 -0.050858 6.388176
1.530388 -0.049962 6.339597
1.310832 -0.062605 6.704213
1.292106 -0.063566 7.475181
1.445024 -0.054689 7.670458
1.580011 -0.046776 8.330349
1.866593 -0.030185 8.418764
1.913103 -0.027459 8.644394
1.846937 -0.031171 9.367371
1.874548 -0.029519 9.714702
1.833248 -0.031876 9.916297
1.659481 -0.041869 10.287483
1.512681 -0.050321 10.535990
1.302312 -0.062483 10.579213
1.874989 0.083252 1.293456
1.980397 0.095878 1.754324
1.913155 0.087929 2.125019
1.850627 0.080542 2.495427
2.404785 0.146769 3.959253
2.500444 0.158250 4.516368
2.518343 0.160374 4.471362
2.084072 0.108749 5.045339
2.129254 0.114203 5.501553
2.087628 0.109312 5.921981
1.748789 0.069023 6.310511
1.549066 0.045286 6.610723
1.315180 0.017446 6.694526
1.405034 0.028209 7.086429
1.249589 0.009726 7.265700
1.391294 0.026698 7.871420
1.785043 0.073662 8.329852
1.911182 0.088734 8.644638
1.915044 0.089260 9.057847
1.924808 0.090488 9.469631
1.830582 0.079339 9.922396
1.802690 0.076040 10.063713
1.654404 0.058420 10.312027
1.807364 0.188265 1.638602
2.035231 0.229848 1.847881
1.970186 0.218047 2.216688
1.736351 0.175492 2.731119
2.564403 0.326652 3.799193
2.516616 0.318041 4.438519
2.486637 0.312587 4.514463
1.968041 0.218158 5.335295
1.975496 0.219610 5.914182
2.021931 0.228105 6.085805
1.708584 0.171021 6.412591
1.610049 0.153052 6.397371
1.300080 0.096586 6.732535
1.332668 0.102566 6.967916
1.183019 0.075363 7.493233
1.411435 0.117059 7.779554
1.722108 0.173831 8.551199
1.864395 0.199817 8.801646
1.788726 0.186072 9.129226
1.839807 0.195422 9.353961
1.683447 0.167034 10.120440
1.742099 0.177765 10.342597
1.608740 0.153478 10.528430
1.251030 0.088308 10.873163
2.023046 0.354879 1.836019
1.873058 0.318048 2.392637
1.842543 0.310587 2.700327
2.019490 0.354198 3.026448
2.363957 0.439104 3.713806
2.525927 0.479036 4.090557
2.464711 0.464036 4.509937
1.933228 0.333254 4.811740
1.858703 0.314942 5.015034
2.176760 0.393327 5.575092
2.220148 0.404035 5.748059
1.806574 0.302333 6.382284
1.728786 0.283172 6.305374
1.457474 0.216476 6.858406
1.322421 0.183249 6.973128
1.191872 0.151189 7.435866
1.433380 0.210675 7.660568
1.579553 0.246755 8.259739
1.657592 0.266048 8.764876
1.828086 0.308037 8.890588
1.795290 0.300062 9.491293
1.848190 0.313121 9.715920
1.795444 0.300180 9.982176
1.678719 0.271551 10.622966
1.506735 0.229192 10.476798
0.982607 0.100201 10.660292
1.943515 0.462951 1.723271
1.822924 0.425271 2.216792
1.851487 0.434284 2.627277
1.737524 0.398641 2.891631
2.521982 0.644473 4.013605
2.503491 0.638778 4.589807
2.251613 0.559926 4.714106
2.156030 0.530038 4.974498
2.093657 0.510633 5.736048
2.178850 0.537318 5.783636
1.942524 0.463384 6.198513
1.712011 0.391270 6.618748
1.541982 0.338067 6.855043
1.428052 0.302399 6.903868
1.260223 0.249884 7.144042
1.094274 0.197959 7.386718
1.217401 0.236626 8.055434
1.569457 0.346966 8.636216
1.736965 0.399440 8.760881
1.809011 0.422093 9.320321
1.886007 0.446220 9.418581
1.782997 0.414049 9.931666
1.667238 0.377906 10.571997
1.498504 0.325044 10.425270
1.150469 0.216117 10.769270
1.688135 0.495593 1.305196
1.788109 0.533835 1.765908
1.809931 0.542236 2.179531
1.783947 0.532407 2.715435
1.751101 0.519882 2.793223
2.373214 0.757622 4.284516
2.563673 0.830333 4.314339
2.180352 0.684086 4.804562
1.999848 0.615218 5.030834
2.042446 0.631557 5.486105
2.192600 0.688902 5.630386
1.919852 0.584873 6.168686
1.838621 0.553909 6.432644
1.726269 0.511027 6.479677
1.414868 0.392219 6.875699
1.181308 0.303143 7.371304
1.053583 0.254405 7.487815
1.161040 0.295550 8.219658
1.565973 0.450186 8.546260
1.701307 0.501891 8.796321
1.785446 0.534094 9.293270
1.835328 0.553174 9.516080
1.783257 0.533341 9.779756
1.666751 0.488974 10.419434
1.572380 0.452948 10.415893
1.119557 0.280163 10.869394
1.705143 0.621682 1.194510
1.746498 0.640526 1.550798
1.900966 0.710739 1.886389
1.813863 0.671255 2.319182
1.810321 0.669689 2.565008
1.732469 0.634406 2.997204
2.475649 0.972180 4.400511
2.447197 0.959271 4.477780
2.118605 0.810148 5.130461
2.009725 0.760755 5.455461
1.970686 0.743097 5.876545
1.945969 0.731886 5.955349
1.797015 0.664265 6.126505
1.662163 0.603098 6.580598
1.360078 0.465970 6.977297
1.200437 0.393507 7.218164
1.042599 0.321865 7.461531
1.103775 0.349739 7.977217
1.335742 0.455199 8.599889
1.658784 0.601956 8.834706
1.741286 0.639512 9.332021
1.827174 0.678526 9.368523
1.739566 0.638815 9.819485
1.680214 0.611917 10.146762
1.524357 0.541196 10.519827
1.796531 0.794448 2.021729
1.738978 0.764027 2.393611
1.811711 0.802566 2.453761
1.685156 0.735626 3.011349
1.896443 0.847588 3.212586
2.478639 1.156270 4.750187
2.306776 1.065269 4.974236
2.342464 1.084206 5.149134
2.110518 0.961360 5.280060
1.903841 0.851940 5.632252
1.970672 0.887413 6.023462
1.736625 0.763517 6.504661
1.560643 0.670347 6.803855
1.387416 0.578638 7.106417
1.148048 0.451876 7.321228
0.848179 0.293111 7.798052
1.030068 0.389465 7.802551
1.409264 0.590468 8.541453
1.656840 0.721716 9.090642
1.714547 0.752314 9.254286
1.702694 0.746131 9.790967
1.612848 0.698630 10.307616
1.533669 0.656674 10.243067
1.306058 0.536155 10.539269
0.906762 0.324684 10.808053
1.571373 0.797043 1.524585
1.741754 0.901221 2.028529
1.811779 0.944011 2.088694
1.635568 0.836490 2.770047
1.588542 0.807831 3.140255
2.496398 1.362638 4.214205
2.484920 1.355681 4.510576
2.256624 1.216290 4.915260
1.916458 1.008687 6.010442
1.893329 0.994572 6.090044
1.715582 0.886105 6.728084
1.514620 0.763353 6.811699
1.058700 0.485044 7.951747
1.205371 0.574670 8.084669
1.436945 0.716242 8.643592
1.560534 0.791789 8.896833
1.578562 0.802867 9.250428
1.672524 0.860349 9.685718
1.553785 0.787943 10.391289
1.437954 0.717217 10.580056
1.239043 0.595735 10.753784
0.881507 0.377332 10.834200
1.551805 0.915586 1.220635
1.835101 1.113797 1.647037
1.705545 1.023297 2.202372
1.678185 1.004221 2.509602
1.540077 0.907752 3.127548
1.662393 0.993326 3.285521
2.382104 1.496917 4.553437
2.183374 1.357997 4.895296
2.123226 1.316024 5.372297
1.873506 1.141425 5.626138
1.851106 1.125774 5.703252
1.813125 1.099359 6.462444
1.698249 1.019038 6.571172
1.520171 0.894565 6.931124
1.437870 0.837003 6.917649
1.121119 0.615525 7.163935
0.826814 0.409800 7.702347
0.967388 0.508139 7.834583
1.319878 0.754803 8.572030
1.585847 0.940884 8.932523
1.581261 0.937768 9.407364
1.583099 0.939145 9.880686
1.549945 0.915997 10.083738
1.467011 0.857995 10.080241
1.217611 0.683677 10.627420
0.964078 0.506369 10.656069
1.614233 1.104637 1.582231
1.677906 1.155317 2.100803
1.539307 1.045354 2.717628
1.583348 1.080360 2.835982
1.491246 1.007258 3.100433
2.299987 1.649914 4.510811
2.182872 1.556968 4.887815
2.105601 1.495644 5.145096
1.921654 1.349607 5.491325
1.939588 1.363900 5.723589
1.877159 1.314421 6.261689
1.751130 1.214353 6.429849
1.610390 1.102612 6.661983
1.396256 0.932570 6.867357
1.125220 0.717384 7.330868
0.797924 0.457495 7.713676
0.856791 0.504274 7.819306
1.306515 0.861598 8.392384
1.535556 1.043621 8.878888
1.530599 1.039779 9.352986
1.593776 1.089980 9.451640
1.471356 0.992898 10.215434
1.411134 0.945038 10.086123
1.267580 0.831104 10.523410
0.930844 0.563667 10.660575
1.527570 1.185191 1.403297
1.585793 1.237597 1.923467
1.451305 1.116930 2.541275
1.388180 1.060322 2.972571
1.430803 1.098632 3.090420
2.075616 1.678141 4.645259
2.158387 1.752485 4.636174
1.979871 1.592272 5.257064
1.930000 1.547579 5.732689
1.846712 1.472837 6.053124
1.842989 1.469495 6.067731
1.661812 1.306849 6.481765
1.513896 1.174052 6.776476
1.340487 1.018384 7.200006
1.081898 0.786142 7.320692
0.796969 0.530270 7.574534
0.873318 0.598930 7.963054
1.253853 0.940820 8.382288
1.432741 1.101557 8.658042
1.508499 1.169697 9.093606
1.433666 1.102577 9.545240
1.427972 1.097577 10.080319
1.352788 1.030045 10.076074
1.199686 0.892647 10.639627
1.370607 1.193991 1.637381
1.490570 1.315912 1.971729
1.424575 1.248979 2.404077
1.382848 1.206681 2.773950
1.402471 1.226653 2.956008
1.438498 1.263388 3.590492
2.096578 1.932053 4.728513
1.993336 1.827276 5.106637
1.862681 1.694684 5.608543
1.874098 1.706270 5.563556
1.719975 1.549870 6.191150
1.658871 1.487866 6.453208
1.451941 1.277748 6.717874
1.161848 0.983256 7.399080
1.081470 0.901797 8.200992
1.271040 1.094377 8.355029
1.307835 1.131892 8.983472
1.323655 1.148039 9.335289
1.399337 1.224903 9.310816
1.381782 1.207208 9.909711
1.293180 1.117244 10.031721
1.196512 1.019101 10.217847
1.224076 1.181594 1.198362
1.392036 1.372771 1.811136
1.349749 1.324820 2.411136
1.385712 1.365751 2.531467
1.274573 1.239495 3.150031
1.269919 1.234205 3.166164
1.921500 1.975652 4.697288
1.916462 1.969993 4.991077
1.836632 1.879274 5.309605
1.759220 1.791305 5.629498
1.698309 1.722090 5.889521
1.652782 1.670358 6.089046
1.465630 1.457628 6.628263
1.172675 1.124709 7.771862
1.199790 1.155604 8.002775
1.377458 1.357713 8.158357
1.321652 1.294319 8.486033
1.293777 1.262761 9.087712
1.336948 1.311901 9.250876
1.371723 1.351505 9.475467
1.204047 1.160977 10.220496
1.164044 1.115558 10.549570
1.039767 0.974191 10.466011
0.720148 0.610781 10.924740
1.132367 1.246008 1.457768
1.345280 1.523313 1.880574
1.234365 1.379072 2.498840
1.302811 1.468181 2.494059
1.233509 1.378083 2.986964
1.185617 1.315845 3.417540
1.795782 2.110549 4.659056
1.677570 1.956777 5.159112
1.689645 1.972559 5.391707
1.659054 1.932767 5.528584
