0.587293 -1.664434 10.368781
0.910980 -2.115629 1.504914
0.871882 -2.023522 1.895445
0.847150 -1.965325 2.443517
0.848488 -1.968574 2.878083
0.870640 -2.020832 2.988424
0.850655 -1.973779 3.320348
0.847451 -1.966330 3.805376
0.876899 -2.035835 4.120990
0.860701 -1.997769 4.711336
0.858259 -1.992071 4.982721
0.883630 -2.051918 5.086814
0.822648 -1.908267 5.745741
0.844747 -1.960465 6.160977
0.953100 -2.215983 6.275377
0.956935 -2.225084 6.539874
0.888011 -2.062673 7.045793
0.881032 -2.046298 7.418737
0.879887 -2.043599 7.427833
0.875077 -2.032338 7.799705
0.853541 -1.981674 8.337031
0.859784 -1.996464 8.650942
0.823662 -1.911453 9.408644
0.850301 -1.974297 9.552520
0.829182 -1.924551 9.784318
0.805469 -1.868595 9.603533
0.717625 -1.661582 10.152003
0.635801 -1.468648 10.176707
0.472861 -1.084450 10.219734
1.006070 -1.954759 1.487893
0.987878 -1.918959 1.768641
1.025076 -1.992280 1.826783
0.957171 -1.858588 2.539873
0.982654 -1.908829 2.649483
0.983026 -1.909603 2.869827
0.904294 -1.754593 3.690677
0.984576 -1.912830 3.783434
0.962745 -1.869916 4.375248
0.978786 -1.901609 4.797111
0.987611 -1.919089 5.271544
1.052232 -2.046528 5.723585
1.080277 -2.101770 5.566368
0.991714 -1.927327 6.073010
1.056441 -2.054924 6.262014
1.051017 -2.044354 6.890366
1.032592 -2.008064 7.009448
1.040742 -2.024173 7.270975
1.006983 -1.957685 7.501069
1.009666 -1.963031 7.816824
1.006734 -1.957323 8.186893
1.027388 -1.998067 8.389384
0.982086 -1.908928 9.145444
0.969948 -1.885105 9.678361
0.992928 -1.930355 9.464367
0.895413 -1.738265 9.952534
0.850373 -1.649497 9.939564
0.712615 -1.378096 10.416359
0.499272 -0.957705 10.751953
1.226119 -2.032544 1.379432
1.189434 -1.971047 1.713938
1.065123 -1.762575 2.381918
1.020717 -1.688131 2.772716
1.053256 -1.742782 3.095154
1.014280 -1.677449 3.484166
1.071435 -1.773428 3.955943
1.064292 -1.761488 4.230221
1.117977 -1.851608 4.488008
1.302029 -2.160499 4.916746
1.208583 -2.003824 5.624552
1.243116 -2.061783 5.726192
1.182412 -1.959934 5.754901
1.136894 -1.883598 5.986457
1.175375 -1.948275 6.653693
1.134645 -1.880024 7.194820
1.190956 -1.974506 7.180898
1.098201 -1.818966 7.745525
1.172080 -1.942907 7.618762
1.117036 -1.850665 8.323135
1.148700 -1.903818 8.471433
1.131656 -1.875240 8.590850
1.062740 -1.759759 9.514982
1.103684 -1.828405 9.189119
1.027441 -1.700580 9.811449
0.944784 -1.561935 10.079168
0.887612 -1.466013 10.123347
0.718108 -1.181622 10.241591
1.354506 -1.932590 1.200895
1.225770 -1.746885 1.813394
1.255734 -1.790147 1.926451
1.187596 -1.691906 2.585832
1.286188 -1.834213 2.686599
1.239290 -1.766585 3.074342
1.210849 -1.725587 3.406218
1.097482 -1.562072 4.073408
1.425797 -2.036125 5.529111
1.374369 -1.961936 5.757162
1.336123 -1.906764 5.930780
1.293250 -1.844876 5.847859
1.273315 -1.816161 6.223899
1.310195 -1.869448 6.632514
1.233779 -1.759267 7.338489
1.246007 -1.776954 7.599544
1.254519 -1.789231 7.552243
1.220324 -1.739960 8.090121
1.192561 -1.699971 8.627169
1.263641 -1.802545 8.550738
1.291303 -1.842498 8.751728
1.224049 -1.745502 9.204116
1.176340 -1.676697 9.546817
1.112272 -1.584239 9.588114
1.033050 -1.469995 10.214970
0.907180 -1.288348 10.296144
0.631644 -0.890743 10.687237
1.354513 -1.673331 1.570350
1.406305 -1.738096 1.627063
1.401487 -1.732102 1.849731
1.434586 -1.773531 2.174162
1.434431 -1.773395 2.607012
1.348452 -1.665961 3.104099
1.351322 -1.669578 3.323172
1.330702 -1.643870 3.862117
1.641294 -2.032434 5.482251
1.571108 -1.944717 5.764190
1.497475 -1.852655 5.791160
1.442510 -1.783961 6.020353
1.292135 -1.595990 6.383021
1.311727 -1.620516 6.592493
1.344110 -1.661068 7.055960
1.344420 -1.661499 7.373904
1.283713 -1.585683 8.025167
1.373259 -1.697629 7.895314
1.369940 -1.693528 8.265401
1.351063 -1.669992 8.745389
1.382325 -1.709107 8.946218
1.319219 -1.630257 9.343978
1.300988 -1.607479 9.463979
1.258778 -1.554741 9.751786
1.135003 -1.400039 10.188106
0.968340 -1.191697 10.496861
0.694437 -0.849247 10.660092
1.611968 -1.720267 1.408292
1.522527 -1.623838 1.853629
1.418624 -1.511816 2.355331
1.458374 -1.554736 2.679471
1.458605 -1.555013 2.901335
1.484363 -1.582847 3.277573
1.443329 -1.538655 3.873646
1.843606 -1.970595 5.013839
1.872198 -2.001458 5.171243
1.689452 -1.804405 5.836425
1.629517 -1.739779 6.066311
1.655445 -1.767736 5.966094
1.560826 -1.665677 6.050813
1.252394 -1.333040 6.718533
1.301531 -1.386097 7.129924
1.518264 -1.619896 7.121787
1.483009 -1.581925 7.605621
1.465179 -1.562744 8.032958
1.462845 -1.560273 8.403502
1.537243 -1.640527 8.384191
1.374586 -1.465174 9.283644
1.477518 -1.576240 9.507131
1.409955 -1.503354 9.492747
1.240360 -1.320427 9.680327
1.179431 -1.254751 10.084470
1.045140 -1.109881 10.051837
0.772770 -0.816120 10.518119
1.669032 -1.565261 1.532342
1.683967 -1.579444 1.701848
1.442898 -1.350916 2.324370
1.567756 -1.469328 2.427005
1.631619 -1.529920 2.693526
1.980675 -1.861188 4.968373
2.044774 -1.921978 5.016132
1.943067 -1.825570 5.350590
1.828949 -1.717400 5.741700
1.719275 -1.613444 6.135216
1.672323 -1.568940 6.309516
1.504289 -1.409604 6.360785
1.321674 -1.236446 6.470354
1.357850 -1.270806 6.938509
1.487337 -1.393683 7.686804
1.587057 -1.488273 7.921133
1.595078 -1.495916 8.235898
1.593253 -1.494187 8.244575
1.604144 -1.504551 8.558108
1.515366 -1.420466 9.426505
1.553700 -1.456792 9.212376
1.375255 -1.287647 9.813075
1.266894 -1.184915 10.025736
1.177010 -1.099691 10.127012
1.752714 -1.429785 1.171029
1.738868 -1.418408 1.612128
1.731736 -1.412548 1.837390
1.568673 -1.278065 2.451722
1.723519 -1.405841 2.498730
1.593611 -1.298709 3.055460
1.554578 -1.266538 3.389495
2.146067 -1.754761 4.842361
2.124132 -1.736697 5.163817
2.085662 -1.704966 5.283378
1.946144 -1.589893 5.731207
1.909775 -1.559897 5.851869
1.674452 -1.365780 6.380267
1.510716 -1.230674 6.379277
1.196127 -0.971155 6.946582
1.613190 -1.315395 7.887190
1.646027 -1.342514 8.094035
1.655682 -1.350515 8.411108
1.679988 -1.370600 8.671343
1.677661 -1.368681 8.682414
1.585103 -1.292357 9.139156
1.509519 -1.230034 9.539279
1.392635 -1.133611 9.750119
1.306226 -1.062368 10.267256
1.190763 -0.967067 10.007559
0.889914 -0.718868 10.414896
1.931656 -1.370760 1.185818
1.747658 -1.238766 1.798399
1.646264 -1.166041 2.245923
1.597176 -1.130844 2.581774
1.624440 -1.150451 2.961526
1.810770 -1.284183 2.949202
1.565806 -1.108433 3.573083
2.277572 -1.619406 4.790679
2.087128 -1.482779 5.345255
2.158976 -1.534351 5.393168
2.048687 -1.455230 5.731421
2.045403 -1.452874 5.741700
1.897070 -1.346433 5.935957
1.640230 -1.162124 6.209592
1.478478 -1.046058 6.466832
1.148842 -0.809533 7.037691
1.591365 -1.127237 7.977028
1.717932 -1.218094 8.155808
1.678998 -1.190208 8.695159
1.676699 -1.188559 8.705623
1.704876 -1.208809 8.964824
1.656358 -1.174011 9.198498
1.631702 -1.156328 9.320781
1.533336 -1.085782 9.835903
1.352448 -0.955965 9.916035
1.751179 -1.053670 0.948169
1.905519 -1.147917 1.647417
1.898697 -1.143777 1.870958
1.793552 -1.079662 2.316349
1.789392 -1.077124 2.325710
1.815176 -1.092895 2.704909
1.607414 -0.966192 3.429586
2.334739 -1.410103 4.447772
2.405318 -1.453201 4.754909
2.263293 -1.366551 4.887315
2.201611 -1.328956 5.317478
2.183147 -1.317721 5.637706
1.884420 -1.135502 6.272659
1.916480 -1.155055 6.171061
1.649123 -0.991942 6.446520
1.464976 -0.879608 6.761030
1.334036 -0.799692 6.592066
1.711937 -1.030407 7.817587
1.651811 -0.993778 8.415205
1.745165 -1.050740 8.395696
1.684138 -1.013566 9.046334
1.814322 -1.092985 8.857545
1.668805 -1.004259 9.537309
1.496383 -0.899091 9.974753
1.473843 -0.885350 10.097280
1.409440 -0.846039 9.972510
1.066194 -0.636638 10.435738
2.035743 -1.044264 1.327959
1.917351 -0.982745 1.775590
1.805867 -0.924818 2.223875
1.802379 -0.923025 2.448666
1.904772 -0.976288 2.662301
2.324604 -1.194790 4.705233
2.216208 -1.138453 4.989778
2.138391 -1.098060 5.735653
2.104899 -1.080681 6.113030
2.055285 -1.054870 5.978249
1.734549 -0.888159 6.678629
1.598530 -0.817415 6.511306
1.522335 -0.777880 7.398120
1.711231 -0.876134 7.722932
1.663059 -0.851172 8.631057
1.732870 -0.887482 8.723320
1.751142 -0.897013 9.038896
1.785001 -0.914644 9.297186
1.648475 -0.843673 9.508125
1.513479 -0.773497 9.721347
1.372574 -0.700300 10.469503
1.850110 -0.793672 1.001640
2.048681 -0.880384 1.431560
2.011189 -0.864045 1.712435
1.949263 -0.837047 2.048505
1.891311 -0.811783 2.384316
1.742028 -0.746695 3.156416
1.721908 -0.737939 3.433978
2.480528 -1.069161 4.506820
2.454568 -1.057835 4.570611
2.195073 -0.944585 4.719030
2.020672 -0.868504 5.170872
2.125007 -0.914068 5.421846
2.047715 -0.880376 5.910626
1.769708 -0.759081 6.443233
1.735911 -0.744312 6.250578
1.464412 -0.625858 6.792164
1.113279 -0.472614 6.993536
0.797192 -0.334657 7.085540
1.593116 -0.682181 8.368763
1.825533 -0.783611 8.208167
1.838734 -0.789402 8.524728
1.789112 -0.767798 9.119872
1.723412 -0.739148 9.410160
1.708943 -0.732839 9.476046
1.535589 -0.657253 10.332523
1.364830 -0.582712 10.245377
1.104540 -0.469091 10.137245
2.006394 -0.702070 1.413023
1.910992 -0.668083 1.805941
1.822764 -0.636674 2.413238
1.847775 -0.645608 2.581117
1.776271 -0.620163 3.185163
1.797167 -0.627611 3.139307
2.535863 -0.891171 4.536580
2.310608 -0.810868 4.834816
2.062222 -0.722345 5.472940
1.924555 -0.673310 6.131665
1.793788 -0.626683 6.219424
1.790244 -0.625420 6.229734
1.093428 -0.377004 7.157216
0.996825 -0.342614 7.833885
1.520750 -0.529478 8.069661
1.834529 -0.641405 8.359350
1.758761 -0.614410 8.650385
1.658980 -0.578901 9.474264
1.748316 -0.610763 9.507686
1.759149 -0.614622 9.459351
1.671731 -0.583483 9.861610
1.394705 -0.484727 10.281936
1.051985 -0.362532 10.576880
2.050034 -0.566936 1.206265
1.920468 -0.530310 1.655209
2.055338 -0.568490 1.816219
1.824588 -0.503251 2.487561
1.823666 -0.503010 2.711064
1.990974 -0.550364 2.810496
1.723478 -0.474718 3.381315
2.541953 -0.706422 4.402384
2.197283 -0.608937 4.976502
1.906337 -0.526670 5.727861
1.972441 -0.545386 5.827912
1.757979 -0.484724 6.137591
1.625018 -0.447106 6.224660
1.080598 -0.293137 7.273747
1.093908 -0.296961 7.918660
1.601655 -0.440642 7.896373
1.782023 -0.491721 8.327112
1.754283 -0.483914 8.812189
1.775610 -0.489977 9.127006
1.826768 -0.504471 9.328079
1.747817 -0.482160 9.673944
1.579286 -0.434497 9.999761
1.377617 -0.377431 10.023175
1.035780 -0.280718 10.258592
2.127095 -0.420618 1.336772
1.998343 -0.394414 1.782809
2.021728 -0.399194 1.949649
1.903269 -0.375088 2.395495
1.907411 -0.375970 2.830053
1.822150 -0.358607 3.006401
2.515170 -0.499997 4.568597
2.395298 -0.475589 4.850489
2.348352 -0.466008 4.708702
1.911575 -0.377052 5.527497
1.739962 -0.342113 5.985315
1.615797 -0.316835 6.332673
1.422728 -0.277505 6.592166
1.177027 -0.227435 6.707949
0.950539 -0.181276 6.768540
0.987739 -0.188904 7.303178
1.367286 -0.266304 7.746016
1.550304 -0.303677 8.548563
1.737331 -0.341803 8.608859
1.814958 -0.357634 8.699161
1.779929 -0.350541 9.238743
1.743475 -0.343162 9.833396
1.741737 -0.342808 9.841331
1.607778 -0.315517 9.997545
1.656123 -0.208932 0.797265
2.198793 -0.281621 1.048487
2.093417 -0.267544 1.440426
1.934543 -0.246312 1.944533
1.929300 -0.245630 2.168772
1.817516 -0.230717 2.830782
1.990527 -0.253893 2.928969
1.877221 -0.238741 3.162559
2.424064 -0.312112 4.845765
2.282528 -0.293166 4.926171
1.932255 -0.246313 5.528811
1.821134 -0.231458 5.819096
1.592124 -0.200845 6.450607
1.416789 -0.177384 6.655353
1.432956 -0.179545 6.607791
1.146846 -0.141280 7.160601
1.049348 -0.128222 7.139921
1.258404 -0.156244 7.469624
1.627775 -0.205749 7.965470
1.657480 -0.209780 8.595321
1.676835 -0.212399 8.912666
1.838071 -0.234005 9.083707
1.863238 -0.237402 9.397427
1.711884 -0.217152 9.608447
1.562232 -0.197131 9.821725
1.299836 -0.162061 10.610402
1.039413 -0.127169 10.389056
2.074382 -0.137718 1.088198
1.907310 -0.125644 1.594676
2.016575 -0.133587 1.812272
1.980197 -0.130973 2.093289
1.804241 -0.118259 2.654803
2.038716 -0.135282 2.855409
1.736402 -0.113409 3.482305
2.450048 -0.165261 4.567533
2.259365 -0.151447 4.757194
2.093256 -0.139433 5.154865
1.974536 -0.130825 5.181869
1.700264 -0.110968 5.604283
1.797421 -0.118041 5.910412
1.609100 -0.104426 6.428646
1.377790 -0.087655 6.485705
1.125034 -0.069360 6.923421
1.084462 -0.066428 7.048455
0.971998 -0.058302 7.406055
1.332932 -0.084495 7.590326
1.610817 -0.104689 8.056131
1.592383 -0.103389 8.489954
1.634723 -0.106514 9.117418
1.729228 -0.113371 9.150722
1.689902 -0.110569 9.748539
1.726664 -0.113222 9.587912
1.564678 -0.101537 10.334130
1.344447 -0.085571 10.418251
0.895514 -0.053030 10.641375
2.075534 0.017376 1.094080
2.093452 0.017402 1.265657
1.901815 0.016941 1.612218
1.774453 0.016597 2.279744
1.747453 0.016494 2.776234
1.955644 0.016941 3.032391
1.805657 0.016597 3.111966
2.425042 0.017863 4.637323
2.376942 0.017767 4.497852
2.182183 0.017289 4.951257
2.062124 0.017016 4.979271
1.630029 0.015973 5.797504
1.719416 0.016171 5.843870
1.672904 0.016055 5.968116
1.410199 0.015427 6.400721
1.271857 0.015107 6.493741
1.038477 0.014521 7.198385
1.093943 0.014633 7.355596
1.272331 0.014997 7.800385
1.602762 0.015717 8.095395
1.743484 0.016014 8.331241
1.677883 0.015846 8.568548
1.681837 0.015823 8.944956
1.705007 0.015848 9.263373
1.719653 0.015850 9.633845
1.570282 0.015455 10.322355
1.396141 0.015075 10.176049
0.878131 0.013859 10.743733
2.080901 0.158429 1.277414
1.709144 0.132339 1.962664
1.850247 0.142206 2.123497
1.707938 0.132179 2.846004
1.709335 0.132258 3.071045
1.731133 0.133788 3.025995
2.301632 0.173620 4.406165
2.244361 0.169577 4.789205
2.192737 0.165952 4.911353
1.890736 0.144764 5.387313
1.794107 0.137999 5.360290
1.709075 0.132003 5.858008
1.642246 0.127308 6.037853
1.462357 0.114694 6.241302
1.071902 0.087308 6.761311
1.011331 0.083051 6.945561
1.219015 0.097566 7.278768
1.361797 0.107516 7.836422
1.612597 0.125061 8.045043
1.752833 0.134861 8.280058
1.611498 0.124920 8.799572
1.647344 0.127408 9.061375
1.602657 0.124263 9.241573
1.616529 0.125203 9.615342
1.660466 0.128258 9.874194
1.332703 0.105255 10.470689
0.962054 0.079316 10.287680
1.991179 0.292437 1.002732
1.733680 0.256220 1.678114
1.638420 0.242810 2.073251
1.780527 0.262751 2.230837
1.726162 0.255070 2.781530
1.783016 0.263044 2.891076
1.895168 0.278734 3.579220
2.288818 0.333983 3.910161
2.148534 0.314214 4.720450
2.028746 0.297369 5.007613
2.048739 0.300158 5.221721
1.798806 0.265031 5.585929
1.659884 0.245516 5.671726
1.592678 0.236063 5.850718
1.351584 0.202176 6.224589
1.328204 0.198887 6.290890
1.112748 0.168605 6.612726
0.938923 0.144178 6.822198
1.184278 0.178586 7.359172
1.518099 0.225409 7.971486
1.563172 0.231689 8.546786
1.813495 0.266854 8.382513
1.690068 0.249483 8.842814
1.712319 0.252580 9.159111
1.655387 0.244565 9.394288
1.600569 0.236848 9.629976
1.487286 0.220895 10.150908
1.222533 0.183691 10.464085
0.746173 0.116812 10.318808
1.323130 0.291262 0.541403
1.553898 0.339737 1.140686
1.890214 0.410443 1.345734
1.849551 0.401867 1.629110
1.753571 0.381650 2.024681
1.584364 0.346000 2.805138
1.666941 0.363360 2.860146
1.756856 0.382245 3.128039
1.911637 0.414720 3.969133
2.161114 0.467125 4.628284
2.131186 0.460803 4.955596
2.059150 0.445640 5.133103
1.964327 0.425702 5.105818
1.802521 0.391664 5.247206
1.500489 0.328081 6.050636
1.404685 0.307936 6.027163
1.207773 0.266505 6.291203
1.013436 0.225616 6.558575
1.083201 0.240278 6.659736
1.216317 0.268194 7.542916
1.604675 0.349854 7.613178
1.531223 0.334356 8.219508
1.716756 0.373366 8.284028
1.716880 0.373359 8.659354
1.544979 0.337151 9.349217
1.490161 0.325603 9.586854
1.472935 0.321933 10.131310
1.518611 0.331557 9.913495
1.265556 0.278321 10.167868
0.822795 0.185194 10.389057
1.687587 0.490871 1.459242
1.619950 0.471695 1.800039
1.584883 0.461744 2.083880
1.722146 0.500585 2.243169
1.562037 0.455194 3.022161
1.470463 0.429275 2.989258
2.156519 0.623362 4.302467
2.216389 0.640300 4.408756
1.960462 0.567800 5.030295
1.893253 0.548736 5.469725
1.625490 0.472926 5.632800
1.559291 0.454171 5.813464
1.474164 0.430053 6.051526
1.190188 0.349648 6.280854
0.980109 0.290152 6.605967
0.883630 0.262815 6.907760
1.215088 0.356591 7.475242
1.497072 0.436376 7.887883
1.662538 0.483203 8.011808
1.658717 0.482088 8.389076
1.724737 0.500732 8.903322
1.653227 0.480463 9.196210
1.557297 0.453309 9.182803
1.377705 0.402401 9.991015
1.423599 0.415411 9.773268
1.244311 0.364626 10.163827
0.892369 0.264975 10.463049
1.378469 0.507787 0.744722
1.498391 0.550752 1.130254
1.622869 0.595350 1.512205
1.557358 0.571830 1.853145
1.552237 0.569954 2.296319
1.553892 0.570508 2.737116
1.477365 0.543033 3.132221
1.982234 0.723949 4.359147
2.196281 0.800699 4.339718
1.900778 0.694678 5.072192
2.048958 0.747820 4.953860
1.702828 0.623653 5.598253
1.482258 0.544560 5.650162
1.261604 0.465437 5.704082
1.118341 0.414032 6.117582
1.037695 0.385093 6.359574
0.957548 0.356305 6.924236
1.294661 0.477163 7.116421
1.409619 0.518327 7.731076
1.552738 0.569595 8.280680
1.670723 0.611906 8.205542
1.655216 0.606307 8.637962
1.568763 0.575277 8.987879
1.525964 0.559915 9.168614
1.472086 0.540575 9.404079
1.348683 0.496275 9.982530
1.266632 0.466861 9.912432
0.990476 0.367804 10.341476
1.368901 0.615148 0.689002
1.369742 0.615460 1.301896
1.437895 0.645348 1.796111
1.541391 0.690805 1.796500
1.403550 0.630196 2.523136
1.326491 0.596314 2.919822
1.511958 0.677770 2.960573
1.676419 0.749930 3.749589
2.018846 0.900294 4.134640
1.897181 0.846806 4.685468
2.021151 0.901261 4.623734
1.867522 0.833724 5.284504
1.779629 0.795122 5.255166
1.463757 0.656356 5.584903
1.199204 0.540116 6.072158
1.091307 0.492723 6.104061
0.995085 0.450433 6.401414
1.024477 0.463323 6.615889
1.264537 0.568716 7.095613
1.432970 0.642624 7.850553
1.621677 0.725507 7.859381
1.558566 0.697731 8.460205
1.561448 0.698963 8.833754
1.480338 0.663306 9.181916
1.403507 0.629528 9.531234
1.401752 0.628757 9.539464
1.306669 0.586952 10.004191
1.215515 0.546917 9.991541
0.897663 0.407245 10.711900
1.290496 0.700293 0.746060
1.421514 0.769855 1.508944
1.310028 0.710579 1.744357
1.331140 0.721762 2.129998
1.380243 0.747849 2.240479
1.308105 0.709451 2.850470
1.366713 0.740569 3.173107
1.599845 0.864416 3.788962
1.806995 0.974470 4.241558
1.692674 0.913657 4.792574
1.792038 0.966468 4.783135
1.241935 0.673998 5.806599
1.054959 0.574623 5.802055
0.996202 0.543378 5.983197
0.813828 0.446392 6.571622
0.895722 0.489852 7.254395
1.214721 0.659377 7.439380
1.404132 0.760016 7.763292
1.526649 0.825109 7.998120
1.441917 0.780007 8.712237
1.552141 0.838597 8.632670
1.433769 0.775634 9.149773
1.383173 0.748720 9.384752
1.248387 0.677063 9.597863
1.201370 0.652052 9.834719
1.156242 0.628044 10.072046
0.793305 0.435098 10.600132
1.162032 0.727986 1.332141
1.408265 0.879084 1.428956
1.271544 0.795130 1.941134
1.219540 0.763162 2.499277
1.319419 0.824434 2.712703
1.343947 0.839469 2.880797
1.329623 0.830581 3.857209
1.701616 1.058864 3.863739
1.745570 1.085801 4.235453
1.594197 0.992840 4.901146
1.472168 0.917946 4.985794
1.234597 0.772112 5.413399
1.058001 0.663713 5.674651
0.981675 0.616850 5.915695
0.880367 0.554676 5.949713
0.834659 0.526581 6.400181
0.925584 0.582349 6.707227
1.231076 0.769771 7.218602
1.337448 0.834989 7.829674
1.455830 0.907613 8.065694
1.426966 0.889851 8.554833
1.455648 0.907427 8.816300
1.332582 0.831846 9.392749
1.342292 0.837810 9.345220
1.145962 0.717272 9.903247
1.133669 0.709721 9.970022
1.038143 0.651095 10.016088
0.770355 0.486705 10.565963
1.051681 0.762961 1.047444
1.253106 0.906042 1.639292
1.271495 0.919093 1.809661
1.076579 0.780505 2.493502
1.218575 0.881404 2.592356
1.084190 0.785844 3.160452
1.023565 0.742720 3.557271
1.295382 0.935862 3.790152
1.386507 1.000543 4.528176
1.552651 1.118610 4.560328
1.282263 0.926403 5.096428
1.147640 0.830719 5.240188
1.053576 0.763841 5.536705
0.903299 0.657025 5.741931
0.830942 0.605580 5.983721
0.771551 0.563321 6.491994
0.859497 0.625787 6.798218
1.213118 0.877059 7.079469
1.326236 0.957389 7.634892
1.370310 0.988656 8.154988
1.433228 1.033359 8.248745
1.360181 0.981374 8.963097
1.311702 0.946898 9.199654
1.309743 0.945504 9.209411
1.088783 0.788403 9.938647
1.107410 0.801651 9.833823
0.956420 0.694309 10.225596
0.775946 0.566046 10.312005
1.129213 0.954388 0.931257
1.201543 1.014388 1.590620
1.241407 1.047484 1.705576
1.167022 0.985660 2.104180
1.122379 0.948521 2.661666
1.149462 0.970972 3.045574
1.082624 0.915440 3.227833
1.055819 0.893117 3.780565
1.216901 1.026845 4.295735
1.298286 1.094411 4.555803
1.168561 0.986653 4.698095
1.093181 0.923991 5.203327
1.003759 0.849688 5.500803
0.861398 0.731428 5.706907
0.760302 0.647424 6.065859
0.797954 0.678678 6.226628
0.891578 0.756339 7.117957
1.186386 1.001141 7.565743
1.243925 1.048919 7.662817
1.336357 1.125656 7.957733
1.234269 1.040815 8.421622
1.270511 1.070894 8.628964
1.252293 1.055709 9.118526
1.081109 0.913477 9.618867
1.109753 0.937285 9.458304
1.028813 0.870010 9.924307
0.933327 0.790693 10.026442
1.079720 1.045390 1.720742
1.097330 1.062161 1.675104
1.026863 0.995027 2.075412
0.943519 0.915602 2.749714
1.009531 0.978416 3.020329
0.992336 0.962013 3.303635
0.902000 0.875950 3.816079
1.041781 1.008990 4.121081
0.995159 0.964526 4.782887
1.058714 1.025027 4.832407
0.957208 0.928318 5.453262
0.870952 0.846195 5.484293
0.774013 0.753865 5.840542
0.665720 0.650717 6.256802
0.761278 0.741700 6.183359
0.835298 0.812058 7.131041
1.109016 1.072632 7.262484
1.142993 1.104918 7.786153
1.255351 1.211865 7.965897
1.163196 1.124034 8.794915
1.080606 1.045401 8.835902
1.057636 1.023518 8.959365
1.105363 1.068939 9.107177
0.968759 0.938792 9.916689
0.985443 0.954688 9.811437
0.888717 0.862526 10.452836
0.690774 0.674097 10.288362
0.824033 0.919706 0.957394
0.969337 1.078478 1.607242
0.964389 1.073041 1.834464
0.823077 0.918472 2.462814
0.979514 1.089499 2.446611
0.903672 1.006528 2.900376
0.966924 1.075644 3.167534
0.934821 1.040505 3.504862
0.977520 1.087113 4.094529
1.031783 1.146396 4.411267
0.900162 1.002409 5.144214
0.867114 0.966264 5.268006
0.726588 0.812601 5.529436
0.665603 0.745899 5.770572
0.775637 0.866175 5.906669
0.608167 0.683000 6.612150
0.797758 0.890218 7.036791
1.067928 1.185532 7.426917
1.059945 1.176757 7.806134
1.187468 1.316163 7.872386
1.130574 1.253881 8.530503
1.022669 1.135887 8.740623
0.961945 1.069458 9.091907
0.961110 1.068489 9.524377
0.968706 1.076801 9.476158
0.923218 1.027033 9.771152
0.751052 0.838720 10.508177
0.993073 1.268868 1.309993
0.835564 1.070753 1.996350
0.887093 1.135528 2.053975
0.812183 1.041288 2.511890
0.815499 1.045397 2.955958
0.873401 1.118155 3.225599
0.827169 1.059978 3.623053
0.914276 1.169431 4.043690
0.947985 1.211759 4.420164
0.957066 1.223146 4.641606
0.794982 1.019285 5.282374
0.620376 0.799746 5.453060
0.581524 0.750840 5.906909
0.722175 0.927672 5.871480
0.628903 0.810352 6.288517
0.717334 0.921416 7.122468
1.022759 1.305383 7.230073
1.002484 1.279834 7.667472
1.056770 1.348027 8.074973
1.094451 1.395379 8.226039
0.968842 1.237361 8.972916
0.888935 1.136888 9.072930
0.947707 1.210771 9.107622
0.777132 0.996223 9.839517
0.746935 0.958293 9.597911
0.631917 0.813571 10.476329
0.590834 0.761947 10.293363
0.674539 0.997045 0.807820
0.865801 1.273349 1.232453
0.824553 1.213695 1.575116
0.685063 1.012035 2.262208
0.734775 1.083827 2.534323
0.766573 1.129756 2.646845
0.740099 1.091420 3.203500
0.749721 1.105257 3.642775
0.777699 1.145629 4.022013
0.860947 1.265857 4.437960
0.855983 1.258643 4.715453
0.747576 1.101929 5.183659
0.562459 0.834398 5.468491
0.539354 0.800953 5.863254
0.596543 0.883544 6.174300
0.571079 0.846730 6.301219
0.684948 1.011216 6.641283
0.761835 1.122185 7.522658
0.943124 1.384143 7.508234
0.927193 1.361057 7.944647
0.934999 1.372235 8.633171
0.968553 1.420751 8.417344
0.817809 1.202841 9.027623
0.871471 1.280375 9.062700
0.770368 1.134172 9.815914
0.657871 0.971622 9.783607
0.628188 0.928696 10.025620
0.606490 1.044667 0.596941
0.670824 1.152773 0.985308
0.751014 1.287514 1.531867
0.715566 1.227855 1.875557
0.667472 1.146923 2.276374
0.697245 1.196929 2.606558
0.654715 1.125354 3.005761
0.688907 1.182789 3.332059
0.620382 1.067441 4.115122
0.711629 1.220848 4.206171
0.740606 1.269507 4.581856
0.606878 1.044553 5.224229
0.557034 0.960750 5.198936
0.511932 0.884832 5.709758
0.594686 1.023950 5.848481
0.528457 0.912533 6.206916
0.483259 0.836444 6.773540
0.704765 1.208835 7.056472
0.860258 1.470219 7.417567
0.845105 1.444668 7.854321
0.793637 1.358010 8.573882
0.873202 1.491821 8.384660
0.809254 1.384223 8.849036
0.714091 1.224163 9.177680
0.651053 1.118084 9.702713
0.613483 1.054937 9.574495
0.592547 1.019705 9.756545
0.503505 0.869935 10.092113
0.266076 0.470678 10.374319
0.469314 0.957476 0.848985
0.511678 1.041233 1.513316
0.614951 1.245678 1.721642
0.571780 1.160122 2.122147
0.505683 1.029151 2.638170
0.468712 0.955871 3.039051
0.560355 1.137320 3.077179
0.514359 1.046160 3.533054
0.600341 1.216352 3.839441
0.623861 1.262851 4.216676
0.597302 1.210189 4.609726
0.594719 1.205023 4.885435
0.499300 1.016040 5.144249
0.489238 0.996054 5.477871
0.523331 1.063491 5.845325
0.465413 0.948745 6.200573
0.391621 0.802483 6.997058
0.556126 1.128114 7.503115
0.751193 1.514364 7.458687
0.761592 1.534904 7.722544
0.707920 1.428486 8.495280
0.693063 1.399046 8.616985
0.658433 1.330422 8.909873
0.650950 1.315593 8.974975
0.575838 1.166738 9.670388
0.563457 1.142200 9.793449
0.464106 0.945374 10.358694
0.429623 0.877120 10.231093
0.246776 0.515078 10.219223
0.428936 1.070305 0.491297
0.438034 1.092125 1.271304
0.524057 1.299989 1.698160
0.453754 1.129955 2.050656
0.441547 1.100382 2.334521
0.430473 1.073548 2.617855
0.423519 1.056625 3.117053
0.460443 1.145830 3.382775
0.468560 1.165358 3.819001
0.460471 1.145681 4.367553
0.564708 1.397644 4.492939
0.481980 1.197533 5.015983
0.445838 1.110108 5.254192
0.383296 0.958881 5.399530
0.384289 0.961221 5.675062
0.382739 0.957340 6.273551
0.335863 0.843939 6.630599
0.428841 1.068665 6.849576
0.526694 1.305033 7.698388
0.566859 1.402055 8.048489
0.621762 1.534814 7.913864
0.620050 1.530591 8.289538
0.620396 1.531344 8.663948
0.559818 1.384851 8.873772
0.515675 1.278031 9.338913
0.469877 1.167198 9.863570
0.436700 1.087011 9.792403
0.365839 0.915616 10.185204
0.315719 0.961172 0.537590
0.403004 1.215883 1.080676
0.425210 1.280534 1.797309
0.423495 1.275521 1.807391
0.392900 1.186086 2.208207
0.373464 1.129247 2.551322
0.337548 1.024260 3.009845
0.354649 1.074034 3.609357
0.412203 1.242057 3.701981
0.366459 1.108344 4.270804
0.407593 1.228324 4.742942
0.413439 1.245335 4.963239
0.338959 1.027714 5.550253
0.337709 1.024063 5.560438
0.308400 0.938424 5.802815
0.301283 0.917469 6.461757
0.313149 0.952144 6.355678
0.311577 0.947298 7.330191
0.451936 1.357130 7.286024
0.467409 1.402171 7.810629
0.470689 1.411663 8.132689
0.486649 1.458114 8.707474
0.527025 1.576023 8.628300
0.492748 1.475836 9.034468
0.403462 1.214947 9.763795
0.423975 1.274914 9.485368
0.334998 1.014912 10.280327
0.302654 0.920477 10.269497
0.292562 1.140007 0.855828
0.379936 1.465670 1.279182
0.322311 1.250591 1.907880
0.344057 1.331661 1.963215
0.335380 1.299214 2.247233
0.282177 1.100694 2.659396
0.291680 1.136002 3.044156
0.326074 1.264112 3.468336
0.338419 1.310019 3.847056
0.321899 1.248292 4.240777
0.360901 1.393587 4.653707
0.347922 1.344977 5.309945
0.347013 1.341585 5.318893
0.274721 1.071967 5.486010
0.207606 0.821476 6.193127
0.229675 0.903649 6.559332
0.228877 0.900668 6.568436
0.301483 1.171265 6.993536
0.339650 1.313296 7.868669
0.406274 1.561775 7.706719
0.391664 1.507117 8.255285
0.399663 1.536860 8.518366
0.396909 1.526447 8.950704
0.345612 1.335045 9.335108
0.331156 1.281064 9.573467
0.314001 1.217000 9.869865
0.266147 1.038593 9.778380
0.206002 0.814118 10.407554
0.092183 0.389651 10.577991
0.178543 1.011647 0.713696
0.235016 1.309760 1.197748
0.237345 1.321788 1.809408
0.203154 1.141002 2.165614
0.213302 1.194561 2.279320
0.181385 1.025689 2.854881
0.195497 1.099990 3.399014
0.295965 1.630618 3.660700
0.280632 1.549538 3.841659
0.256181 1.420233 4.137375
0.231331 1.288575 4.970643
0.269576 1.490482 5.264518
0.272993 1.508554 5.218228
0.170972 0.969327 5.812355
0.178213 1.007628 5.707036
0.163666 0.930547 6.217210
0.169232 0.959852 6.435621
0.160781 0.915001 6.885906
0.217105 1.212382 7.251084
0.271016 1.496994 7.666952
0.260299 1.440127 8.219196
0.292583 1.610619 8.340931
0.268546 1.483230 9.230030
0.278681 1.536873 9.010687
0.239534 1.329864 9.452432
0.234223 1.301755 9.575710
0.185586 1.044699 9.829104
0.140578 0.806621 10.516762
0.088196 0.843217 0.624871
0.148848 1.349078 1.149346
0.154216 1.393638 1.485112
0.138824 1.264844 1.944492
0.127808 1.172612 2.346696
0.114183 1.058562 2.806850
0.191926 1.706764 3.769178
0.164329 1.476052 4.291297
0.149912 1.355695 4.319812
0.146012 1.322904 4.654324
0.161952 1.455617 5.120076
0.172583 1.544321 5.165969
0.129615 1.185215 5.826391
0.109468 1.017139 5.707716
0.086608 0.825953 6.241088
0.108704 1.010327 6.315964
0.087288 0.831200 6.849351
0.121190 1.113862 7.271261
0.151733 1.368415 7.800159
0.168281 1.506362 8.036690
0.171716 1.534843 8.300638
0.164774 1.476473 8.905192
0.167577 1.499644 9.223350
0.165680 1.483765 9.289059
0.133787 1.217044 10.021040
0.121926 1.118058 10.009125
0.091318 0.862398 10.268315
0.042303 1.083654 0.409785
0.060308 1.436915 1.003320
0.057831 1.387344 1.510384
0.054346 1.318196 1.854471
0.049607 1.224282 2.255905
0.045174 1.136384 2.657364
0.081431 1.847983 3.720792
0.072163 1.664949 4.126394
0.066458 1.551846 4.641161
0.073212 1.684394 4.842240
0.067292 1.566989 5.400817
0.055372 1.332361 5.453038
0.043802 1.104176 5.774032
0.035137 0.932894 6.249292
0.029872 0.828796 6.551882
0.028651 0.804127 6.945112
0.041100 1.048701 7.163936
0.054030 1.302211 7.696863
0.058577 1.390376 8.478307
0.061017 1.438038 8.686348
0.068092 1.577455 8.551672
0.062637 1.468745 9.384464
0.058957 1.396557 9.257260
0.050907 1.236997 9.956903
0.045828 1.137075 9.946552
0.030977 0.844148 10.382207
-0.032096 0.994592 0.364629
-0.039099 1.356507 0.739412
-0.043229 1.570910 1.175105
-0.039364 1.374559 1.748269
-0.039780 1.396732 1.921156
-0.035623 1.184678 2.335423
-0.047286 1.791269 3.847082
-0.047949 1.826095 4.012672
-0.044911 1.671351 4.363253
-0.043756 1.613634 4.754419
-0.043595 1.608892 5.571149
-0.041638 1.506950 5.282553
-0.033182 1.074460 5.855481
-0.033096 1.070054 5.867480
-0.028562 0.839682 6.519903
-0.028415 0.833569 6.854605
-0.027971 0.811036 6.923848
-0.029874 0.911885 7.608074
-0.037775 1.320067 7.991491
-0.038614 1.365741 8.572072
-0.040433 1.459501 8.608458
-0.040209 1.449871 9.043913
-0.040442 1.461619 8.997280
-0.038994 1.388444 9.293716
-0.035719 1.221167 9.568641
-0.032500 1.056763 9.846545
-0.026501 0.750288 10.341719
-0.018378 0.332662 10.394722
-0.121305 1.314211 1.010422
-0.132100 1.445294 1.394198
-0.133795 1.465986 1.566195
-0.125657 1.367885 1.966572
-0.127749 1.393604 2.354681
-0.141862 1.565515 3.369894
-0.170124 1.908113 3.816799
-0.177214 1.994005 3.868764
-0.151350 1.681105 4.078164
-0.142270 1.571696 4.582280
-0.153041 1.702569 5.048076
-0.131739 1.445368 5.704761
-0.099439 1.054524 5.898505
-0.085464 0.885830 6.374563
-0.091285 0.956414 6.476078
-0.081303 0.835939 6.836790
-0.083614 0.864859 7.754643
-0.128481 1.407946 7.676931
-0.127686 1.399103 8.429558
-0.135387 1.492365 8.466452
-0.133156 1.465874 8.958919
-0.128223 1.406397 9.198016
-0.123470 1.349098 9.437648
-0.115728 1.255802 9.850307
-0.093365 0.985386 10.166580
-0.070390 0.707640 10.547866
-0.036033 0.291770 10.604068
-0.215248 1.287909 1.243281
-0.226616 1.360516 1.740436
-0.248851 1.501966 1.684006
-0.197195 1.173631 2.325730
-0.311515 1.901712 3.554674
-0.334793 2.049912 3.706021
-0.266741 1.617443 4.694567
-0.276525 1.679896 5.065093
-0.269190 1.633436 5.452802
-0.236156 1.423240 5.447993
-0.190692 1.134226 5.940972
-0.175482 1.037432 5.917760
-0.139894 0.811342 6.569704
-0.141956 0.824613 6.846382
-0.141387 0.820997 6.857575
-0.167823 0.989455 7.309760
-0.217290 1.304586 7.984763
-0.214143 1.284798 8.424900
-0.234106 1.411982 8.716940
-0.230695 1.390546 9.208968
-0.236924 1.430096 9.047261
-0.219347 1.318509 9.515175
-0.195574 1.167622 10.215676
-0.161187 0.948867 10.302002
-0.117032 0.667851 10.194660
-0.254881 1.065237 0.796930
-0.324030 1.369926 1.058055
-0.333922 1.413626 1.391966
-0.324653 1.372989 1.895222
-0.290822 1.224085 2.191119
-0.443862 1.898793 3.742318
-0.457359 1.958284 3.848886
-0.417342 1.782170 4.250407
-0.359497 1.527413 4.349030
-0.326525 1.382312 4.699716
-0.361802 1.537959 5.371497
-0.362163 1.539652 5.643500
-0.324963 1.375744 5.523266
-0.274718 1.154545 5.841267
-0.259975 1.089674 6.023186
-0.215565 0.894157 6.288673
-0.200773 0.829197 6.796377
-0.183322 0.752420 7.039151
-0.206381 0.854253 7.720886
-0.300868 1.270575 8.043090
-0.300225 1.267890 8.423329
-0.342421 1.453781 8.484498
-0.320964 1.359561 9.260838
-0.299691 1.266013 9.670837
-0.305065 1.289645 9.564497
-0.298838 1.262263 9.687896
-0.252068 1.056444 10.194765
-0.157067 0.638023 10.299930
-0.351229 1.112724 0.669525
-0.450926 1.441076 0.875334
-0.443551 1.416983 1.542564
-0.458837 1.467352 1.655971
-0.396359 1.261739 2.065377
-0.561125 1.804749 3.634050
-0.612599 1.974275 3.727373
-0.537801 1.728141 4.297052
-0.505262 1.620923 4.055832
-0.467896 1.497967 4.348586
-0.498142 1.597793 5.136303
-0.510856 1.639707 5.295777
-0.444066 1.419866 5.609312
-0.332751 1.053455 6.066136
-0.316664 1.000440 5.925464
-0.244620 0.763417 6.634173
-0.221230 0.686469 6.878108
-0.198485 0.611643 7.122764
-0.244398 0.762976 7.631040
-0.387835 1.235324 7.725370
-0.394864 1.258655 8.364322
-0.450156 1.440744 8.426586
-0.427091 1.364880 8.721184
-0.396686 1.264878 9.131403
-0.404218 1.289774 9.450864
-0.392031 1.249698 9.632238
-0.344509 1.093295 9.907940
-0.437716 1.106908 0.628035
-0.537220 1.366706 0.949095
-0.528698 1.344621 1.617063
-0.525912 1.337404 1.845180
-0.470893 1.193864 2.141683
-0.745077 1.909860 3.528196
-0.775805 1.990078 3.580475
-0.673518 1.723239 4.205557
-0.606551 1.548427 4.134363
-0.517635 1.316479 4.713571
-0.598786 1.528417 5.216232
-0.638717 1.632641 5.206595
-0.548151 1.396335 5.577006
-0.482317 1.224547 5.780309
-0.417036 1.054200 5.986133
-0.316201 0.791123 6.485198
-0.266331 0.661052 6.904492
-0.244964 0.605248 6.765088
-0.299149 0.746802 7.276503
-0.478005 1.213745 7.693048
-0.446248 1.131012 8.362745
-0.476131 1.209121 8.826065
-0.515247 1.311216 8.802739
-0.458644 1.163624 9.443091
-0.469293 1.191496 9.761998
-0.446303 1.131556 10.058862
-0.414989 1.049805 9.989469
-0.498376 1.065806 0.856504
-0.637710 1.372460 1.280518
-0.607936 1.307020 1.623314
-0.604837 1.300248 1.850986
-0.541331 1.160581 2.147074
-0.880673 1.907473 3.421015
-0.809054 1.750021 4.031325
-0.824331 1.783666 4.193491
-0.685656 1.478603 4.460920
-0.645975 1.391290 4.430841
-0.728038 1.571964 4.991976
-0.699125 1.508439 5.434648
-0.595807 1.281192 5.806823
-0.511830 1.096476 6.068918
-0.480171 1.026801 5.986585
-0.402658 0.856364 6.518376
-0.337667 0.713399 6.671231
-0.211205 0.435281 7.298464
-0.313918 0.661319 7.513278
-0.441617 0.942437 8.245398
-0.526905 1.130090 8.250675
-0.548242 1.177157 8.829656
-0.633480 1.364700 8.831893
-0.597589 1.285892 9.607471
-0.591304 1.272076 9.674078
-0.523813 1.123637 9.949028
-0.421879 0.899399 10.148868
-0.284749 0.597705 10.274639
-0.820732 1.469656 1.179752
-0.654989 1.167650 1.817252
-0.637706 1.136197 2.103516
-0.608025 1.082155 2.446839
-1.021006 1.835156 3.656812
-1.008051 1.811636 4.196224
-0.938007 1.683974 4.277786
-0.765416 1.369430 4.604271
-0.774874 1.386662 4.557856
-0.815667 1.461122 5.136967
-0.836470 1.499071 5.297765
-0.663767 1.184380 5.955827
-0.606621 1.080219 5.989457
-0.519534 0.921513 6.197402
-0.442918 0.781882 6.349492
-0.328937 0.574242 7.063430
-0.283218 0.490959 7.369042
-0.419668 0.739700 7.467207
-0.606982 1.081217 7.910777
-0.598656 1.066182 8.723628
-0.622759 1.110155 8.930042
-0.674254 1.204091 9.331080
-0.713490 1.275627 9.420151
-0.627645 1.119205 9.750318
-0.579429 1.031399 10.219960
-0.442932 0.782571 10.110533
-0.225096 0.385536 10.335161
-0.860018 1.328223 1.155561
-0.738288 1.136974 1.785212
-0.702799 1.081243 2.129557
-0.700608 1.077835 2.358505
-1.144913 1.776443 3.628309
-1.192357 1.851104 4.153712
-1.100697 1.707045 4.290856
-0.924681 1.430362 4.291379
-0.818682 1.263815 4.754636
-0.891116 1.377748 5.218004
-0.926959 1.434106 5.320522
-0.695827 1.070877 5.885368
-0.716961 1.104081 5.779412
-0.581852 0.891812 6.480861
-0.551014 0.843316 6.341152
-0.474995 0.723886 6.758038
-0.320106 0.480452 6.999067
-0.394334 0.597223 7.567867
-0.569485 0.872650 8.240865
-0.673300 1.035907 8.675015
-0.732071 1.128286 8.652033
-0.810605 1.251770 8.883130
-0.764939 1.180110 9.658429
-0.777926 1.200508 9.552962
-0.650257 0.999922 10.172398
-0.550561 0.843195 10.083035
-0.288984 0.432082 10.483359
-0.801152 1.056696 0.794317
-0.953320 1.261475 0.952666
-0.849643 1.122073 1.687205
-0.935053 1.236992 1.631287
-0.841421 1.111075 2.145592
-0.787646 1.038772 2.545992
-1.409742 1.876046 3.837693
-1.376255 1.831003 3.958959
-1.185090 1.573839 4.429812
-1.029247 1.364151 4.530386
-1.051564 1.394242 4.957986
-1.022474 1.355153 5.345719
-0.911374 1.205687 5.547609
-0.844278 1.115444 5.844380
-0.754674 0.994933 6.257462
-0.627631 0.823984 6.259947
-0.497090 0.648375 6.588445
-0.403263 0.522143 6.744393
-0.458025 0.595884 7.111068
-0.608903 0.798981 7.648810
-0.746619 0.984383 8.291617
-0.831698 1.098899 8.527975
-0.840657 1.111060 9.276046
-0.814658 1.076101 9.459153
-0.887269 1.173795 9.378889
-0.757444 0.999175 9.883805
-0.640281 0.841585 10.336946
-0.886237 1.017937 0.550364
-0.905166 1.040171 1.110168
-0.990945 1.140646 1.494000
-0.945451 1.087430 1.837812
-0.864913 0.993199 2.296110
-0.900354 1.034707 2.409941
-1.506363 1.744389 3.928077
-1.416793 1.639596 4.478891
-1.294618 1.496551 4.409910
-1.182327 1.365140 4.814286
-1.103803 1.273247 5.107986
-0.938084 1.079280 5.480817
-1.039067 1.197490 5.357508
-0.901881 1.036990 6.203099
-0.825108 0.947113 6.236775
-0.657618 0.751081 6.676768
-0.632343 0.721465 6.480171
-0.442995 0.499860 7.044121
-0.455097 0.514065 7.319370
-0.616232 0.702740 7.534083
-0.743801 0.852191 8.293791
-0.826720 0.949306 8.586852
-0.874099 1.004843 9.106292
-0.936563 1.078032 9.563683
-0.926562 1.066333 9.630712
-0.844442 0.970266 10.214121
-0.731439 0.837950 10.068111
-1.086942 1.076047 1.044913
-1.074379 1.063455 1.492664
-1.089647 1.078844 1.663534
-0.981369 0.969944 2.393603
-0.960604 0.949077 2.677080
-1.690796 1.684187 3.752623
-1.661752 1.654992 4.079579
-1.455027 1.446961 4.492222
-1.182455 1.172681 5.156885
-1.059226 1.048731 5.884854
-1.086795 1.076469 5.780423
-0.856779 0.845017 6.386436
-0.773662 0.761359 6.421098
-0.634907 0.621727 6.689392
-0.471599 0.457395 7.078605
-0.523569 0.509717 7.177312
-0.655205 0.642309 7.945725
-0.901164 0.889909 8.180754
-1.001299 0.990729 8.416145
-0.980536 0.969941 9.334437
-1.066866 1.056826 9.253192
-1.008157 0.997776 9.605460
-0.997417 0.986973 9.672290
-0.779218 0.767402 10.157887
-1.172152 1.012251 1.424359
-1.168063 1.008662 1.434365
-1.136749 0.981226 1.937348
-1.090868 0.941007 2.495258
-1.121429 0.967906 3.094147
-1.792468 1.557161 4.016029
-1.603591 1.391396 4.579697
-1.615747 1.402094 4.795807
-1.421105 1.231216 4.895877
-1.244536 1.076228 5.206706
-1.281142 1.108415 5.629705
-1.150353 0.993640 6.094026
-0.999897 0.861573 6.356352
-0.896076 0.770432 6.448639
-0.822423 0.705764 6.426077
-0.559503 0.474975 6.839121
-0.471146 0.397405 6.877390
-0.448207 0.377354 7.653729
-0.756100 0.647717 8.036419
-1.031055 0.889138 8.212373
-1.103228 0.952550 8.617828
-1.096335 0.946547 9.051948
-1.055336 0.910625 9.713435
-1.034640 0.892469 9.837182
-0.950274 0.818404 9.882456
-0.783167 0.671698 9.965301
-0.407044 0.341526 10.422823
-1.164896 0.887648 1.161871
-1.176695 0.896843 1.552372
-1.242319 0.947760 1.609060
-1.142010 0.869990 2.064246
-1.051564 0.799895 2.736480
-1.893289 1.453004 3.752408
-1.913227 1.468517 4.174800
-1.699219 1.302559 4.791678
-1.531336 1.172344 5.040696
-1.529471 1.170869 4.786220
-1.405321 1.074655 5.713233
-1.426023 1.090738 5.926267
-1.316244 1.005582 6.012829
-1.116005 0.850251 6.123461
-0.852116 0.645566 6.468633
-0.741921 0.560123 6.884085
-0.694974 0.523687 6.744806
-0.452179 0.335362 7.044279
-0.665776 0.501120 7.523841
-0.961009 0.730251 8.395176
-1.075012 0.818718 8.628284
-1.214054 0.926598 8.745073
-1.230982 0.939765 9.063145
-1.121360 0.854783 9.642334
-1.053165 0.801871 9.571225
-0.838083 0.635098 10.366850
-0.651142 0.490035 10.024511
-0.256531 0.183950 10.487132
-1.092854 0.707300 1.042955
-1.380192 0.897291 1.246599
-1.319653 0.857301 1.588399
-1.262779 0.819734 1.929998
-1.235675 0.801866 2.430777
-1.222765 0.793402 3.143879
-2.011385 1.314872 3.953842
-1.800572 1.175553 4.516890
-1.873512 1.223781 4.566559
-1.770762 1.155879 4.854072
-1.691418 1.103471 5.348223
-1.614256 1.052481 5.582034
-1.496907 0.974905 5.668275
-1.326375 0.862186 5.925954
-0.977980 0.631907 6.498934
-0.975064 0.629980 6.509087
-0.669385 0.427899 6.655674
-0.460011 0.289519 7.105908
-0.635675 0.405692 7.440391
-0.931688 0.601492 8.374470
-1.132215 0.734095 8.635453
-1.148695 0.745023 8.957314
-1.308297 0.850548 9.016465
-1.236470 0.803096 9.366402
-1.014283 0.656274 10.098498
-0.993516 0.642508 9.739410
-0.746421 0.479188 10.170249
-0.341138 0.211280 10.573348
-1.087732 0.601513 0.535491
-1.217479 0.675064 1.086229
-1.359650 0.755631 1.411909
-1.404533 0.781067 1.526466
-1.215349 0.673961 2.153420
-1.268828 0.704309 2.698699
-1.264519 0.701869 2.708743
-2.025997 1.133382 4.376168
-2.065102 1.155523 4.275502
-1.934125 1.081363 4.617017
-1.867370 1.043591 5.054606
-1.746076 0.974916 5.397583
-1.728776 0.965148 5.722176
-1.626013 0.906939 5.750745
-1.359502 0.756022 6.290141
-1.274938 0.708117 6.264947
-0.968142 0.534399 6.988740
-0.668128 0.364428 6.756393
-0.368542 0.194765 7.176330
-0.568486 0.308052 7.450388
-0.948148 0.523180 8.095012
-1.198521 0.665053 8.555729
-1.364597 0.759135 8.616096
-1.356715 0.754712 9.048027
-1.258676 0.699222 9.512767
-1.245437 0.691729 9.578426
-1.081170 0.598715 9.967027
-0.721543 0.395051 10.496650
-0.473560 0.254567 10.390023
-1.151876 0.539450 0.484907
-1.257269 0.590160 1.092045
-1.489433 0.701753 1.246156
-1.424560 0.670607 1.586844
-1.230418 0.577361 2.213181
-1.287432 0.604813 2.757201
-1.308810 0.615083 2.708966
-2.165309 1.026861 4.208777
-2.025988 0.959960 4.809979
-2.065358 0.978871 4.707912
-1.832808 0.867165 5.328140
-1.849919 0.875384 5.281014
-1.746571 0.825742 5.569545
-1.607998 0.759181 5.972091
-1.445392 0.681051 6.172874
-1.248038 0.586231 6.490628
-1.142152 0.535345 6.524306
-0.760115 0.351767 6.843870
-0.465815 0.210328 6.878050
-0.565364 0.258267 7.889643
-1.112908 0.521424 7.948354
-1.213139 0.569664 8.669961
-1.398903 0.658943 8.673003
-1.430414 0.674112 8.934715
-1.339231 0.630327 9.342324
-1.109350 0.519909 10.017438
-1.041754 0.487410 9.890106
-0.830322 0.385808 10.031713
-0.489145 0.221871 10.392795
-1.155307 0.446900 0.542915
-1.463662 0.569881 0.971323
-1.359815 0.528533 1.590730
-1.408349 0.547894 1.705153
-1.183416 0.458276 2.391304
-1.344692 0.522586 2.491240
-1.433313 0.557963 2.976355
-2.272534 0.892665 4.109485
-2.170668 0.852095 4.600846
-2.142107 0.840738 4.926387
-2.095146 0.822025 5.046992
-1.862685 0.729400 5.669281
-1.772453 0.693422 5.643194
-1.534715 0.598699 6.330458
-1.539637 0.600633 6.023015
-1.205346 0.467417 6.742127
-1.026038 0.395922 6.688680
-0.599438 0.225876 7.130586
-0.668313 0.253346 7.228463
-1.132258 0.438359 7.646216
-1.213355 0.470764 8.428716
-1.361659 0.529909 8.604442
-1.469890 0.573092 8.948927
-1.427806 0.556330 9.128532
-1.336651 0.520023 9.536882
-1.195761 0.463870 9.753013
-1.068019 0.412954 9.913584
-0.672578 0.255346 10.504043
-0.348860 0.126251 10.200554
-1.463552 0.458313 1.452159
-1.512479 0.474089 1.567301
-1.278338 0.398699 2.252611
-1.361521 0.425529 2.523619
-1.415310 0.442872 2.634466
-2.190569 0.692812 3.943840
-2.327681 0.737032 4.352295
-2.185746 0.691324 4.691926
-2.070891 0.654362 5.238331
-2.045964 0.646335 5.302821
-1.936976 0.611240 5.590454
-1.790866 0.564192 5.991668
-1.580350 0.496382 6.304990
-1.430008 0.447948 6.451247
-1.138314 0.353949 6.418884
-0.879531 0.270573 6.595299
-0.808556 0.247781 7.482961
-1.311524 0.409858 7.465340
-1.374091 0.430094 8.303329
-1.433351 0.449204 8.453310
-1.408124 0.441119 8.944425
-1.311944 0.410161 9.353908
-1.339235 0.418984 9.672066
-1.288900 0.402785 9.910416
-1.147433 0.357218 10.128909
-0.832041 0.255595 10.252345
-0.632455 0.191282 10.281307
-1.464299 0.349611 0.883350
-1.644056 0.394180 1.373199
-1.518444 0.363086 1.611505
-1.394265 0.332366 2.068712
-1.420172 0.338818 2.456649
-1.538539 0.368175 2.886126
-2.265537 0.548383 4.354813
-2.163289 0.523099 4.848299
-2.316763 0.561105 4.732802
-2.087752 0.504427 5.297390
-2.083400 0.503350 5.308469
-1.846313 0.444678 5.934393
-1.842230 0.443668 5.945581
-1.475790 0.352939 6.397580
-1.265111 0.300781 6.719678
-1.150560 0.272410 6.756858
-1.129037 0.267112 7.145932
-1.442882 0.344879 7.450170
-1.557148 0.373209 7.747980
-1.472127 0.352175 8.043814
-1.517199 0.363390 8.621430
-1.579514 0.378839 8.769195
-1.478915 0.353955 9.175708
-1.449884 0.346775 9.298195
-1.275240 0.303544 9.627302
-1.069223 0.252557 10.133685
-0.794093 0.184397 10.023139
-0.342478 0.072555 10.307023
-1.369466 0.227883 0.887672
-1.578344 0.264667 1.538890
-1.572675 0.263671 1.549543
-1.504241 0.251686 2.108853
-1.415069 0.236041 2.507315
-1.591053 0.267012 2.822213
-1.495972 0.250351 3.487974
-2.386901 0.407082 4.397620
-2.239997 0.381281 4.739033
-2.099413 0.356614 5.342807
-2.029649 0.344363 5.520442
-2.003970 0.339853 5.586745
-1.852162 0.313195 5.989472
-1.735335 0.292656 6.021473
-1.287422 0.213958 6.705763
-1.245829 0.206656 6.831536
-1.485593 0.248833 7.050958
-1.510027 0.253179 7.634908
-1.484535 0.248735 8.072984
-1.371186 0.228840 8.483675
-1.528276 0.256476 8.660552
-1.605839 0.270122 8.753678
-1.545149 0.259472 8.991578
-1.419510 0.237425 9.515446
-1.256978 0.208871 9.790753
-1.158456 0.191547 9.779998
-0.890312 0.144426 10.097317
-0.551844 0.084929 10.283825
-1.661624 0.152293 1.413461
-1.561242 0.142358 1.811882
-1.584252 0.144658 1.982610
-1.406698 0.127072 2.551773
-1.612893 0.147573 2.809351
-1.443312 0.130760 3.161508
-2.319925 0.217946 4.604944
-2.151280 0.201230 5.002910
-2.103461 0.196514 5.384777
-2.189122 0.205003 5.172606
-2.029345 0.189169 5.572562
-1.917937 0.178129 5.862704
-1.634872 0.150057 6.346186
-1.537438 0.140378 6.323046
-1.489935 0.135698 6.765196
-1.526433 0.139368 7.294069
-1.600017 0.146684 7.391636
-1.638881 0.150562 7.602102
-1.500445 0.136884 8.436607
-1.640632 0.150796 8.303269
-1.567182 0.143557 8.964253
-1.579015 0.144728 8.917840
-1.491438 0.136061 9.269899
-1.408595 0.127863 9.623113
-1.208873 0.108065 10.071697
-0.866886 0.074116 10.254170
-0.503920 0.038093 10.560338
-1.664594 0.049700 0.804126
-1.636578 0.048706 1.470817
-1.476957 0.042763 1.983476
-1.530600 0.044784 2.097060
-1.615497 0.047992 2.369448
-1.426175 0.040962 3.208843
-1.511548 0.044169 3.262094
-2.212988 0.070592 4.621134
-2.344742 0.075551 4.820893
-2.293632 0.073644 4.941503
-2.107208 0.066691 5.395654
-2.058837 0.064887 5.517390
-1.810296 0.055596 5.884215
-1.506324 0.044241 6.427192
-1.385188 0.039728 6.779421
-1.629347 0.048877 6.682149
-1.610144 0.048216 7.378549
-1.589320 0.047441 7.444674
-1.461703 0.042720 8.223212
-1.636988 0.049274 7.975662
-1.570534 0.046832 8.580102
-1.604433 0.048126 8.842381
-1.529811 0.045352 9.136097
-1.458501 0.042703 9.430636
-1.319041 0.037485 9.589167
-1.167796 0.031831 9.807065
-0.908380 0.022124 10.064966
-0.478800 0.006021 10.170961
-1.658895 -0.063768 1.428956
-1.499348 -0.058811 1.939575
-1.465551 -0.057746 2.222474
-1.495678 -0.058641 2.606611
-1.614283 -0.062276 2.817778
-1.454590 -0.057310 3.382231
-1.631662 -0.062755 3.475545
-2.160300 -0.078929 4.743026
-2.293767 -0.083023 4.940423
-2.063632 -0.075887 5.504312
-2.038301 -0.075102 5.568635
-1.804998 -0.067912 5.616742
-1.652175 -0.063171 6.021022
-1.774823 -0.066928 6.267948
-1.688057 -0.064209 6.818284
-1.667432 -0.063541 7.198198
-1.617494 -0.061962 7.690530
-1.597657 -0.061345 7.755968
