-2.288017 0.223281 5.762491
-2.253608 0.232458 6.196207
-1.829868 0.346223 6.615623
-1.886174 0.331046 6.957057
-2.179821 0.252081 7.506017
-2.133495 0.264484 7.782327
-2.216450 0.242137 8.202221
-2.209684 0.243888 8.642816
-2.245068 0.234291 9.247192
-2.230669 0.238104 9.608717
-2.239996 0.235532 10.052550
-2.046664 0.287403 10.468184
-1.177923 0.438845 0.201309
-1.178550 0.438553 0.631966
-1.466140 0.335584 1.057062
-1.953963 0.160933 1.715373
-1.866245 0.192292 1.894924
-1.705094 0.249861 2.492810
-1.729885 0.240925 2.917042
-1.747235 0.234677 3.176069
-1.779238 0.223160 3.599756
-1.909426 0.176513 4.013357
-1.584391 0.292729 4.561075
-2.345718 0.020187 5.399995
-2.296856 0.037617 5.749807
-2.251096 0.053936 6.100967
-2.035288 0.131082 6.567511
-2.024114 0.134999 7.086835
-2.175312 0.080849 7.406759
-2.175107 0.080842 7.926217
-2.181714 0.078397 8.446943
-2.251954 0.053212 8.783856
-2.233413 0.059791 9.143025
-2.275240 0.044731 9.747129
-2.235366 0.058901 10.377940
-2.071446 0.117476 10.876497
-1.030053 0.417243 0.380774
-1.214139 0.332354 0.812600
-1.491727 0.204399 1.154451
-1.961051 -0.011938 1.730744
-1.876549 0.026968 1.911616
-1.713194 0.102165 2.345746
-1.740543 0.089482 2.853878
-1.780122 0.071151 3.443976
-1.897399 0.017061 3.777308
-1.753794 0.083157 4.220901
-1.869054 0.030010 4.470256
-2.282889 -0.160741 4.927122
-2.431665 -0.229368 5.413071
-2.305752 -0.171425 5.858872
-2.262723 -0.151656 6.211442
-2.055899 -0.056435 6.679302
-1.854387 0.036336 7.153011
-1.851092 0.037770 7.677043
-2.075634 -0.065724 7.896310
-2.170532 -0.109530 8.397940
-2.200057 -0.123230 9.001908
-2.166446 -0.107789 9.281231
-2.153042 -0.101671 9.643004
-2.181372 -0.114809 10.168756
-2.020869 -0.040936 10.666968
-0.972523 0.384061 0.514081
-1.324180 0.187280 0.857753
-1.502450 0.087510 1.115496
-1.773624 -0.064260 1.532656
-1.787168 -0.071907 1.955655
-1.717697 -0.033116 2.383805
-1.739563 -0.045418 2.807467
-1.771114 -0.063154 3.313261
-2.152787 -0.276902 4.710240
-2.448130 -0.442173 5.009360
-2.390113 -0.409761 5.275348
-2.112556 -0.254141 3.183902
-2.257985 -0.336020 6.312983
-2.122101 -0.260052 6.600229
-1.768503 -0.062341 7.188794
-1.851211 -0.108694 7.693747
-2.095905 -0.245645 8.074941
-2.103702 -0.250093 8.596312
-2.169851 -0.287155 8.933212
-2.136839 -0.268734 9.211192
-2.194499 -0.301105 9.897515
-2.186531 -0.296708 10.259080
-1.948943 -0.163884 10.783179
-1.001839 0.298851 0.432290
-1.335445 0.072277 0.861670
-1.507532 -0.044635 1.286892
-1.766185 -0.220319 1.703936
-1.774566 -0.226055 1.963379
-1.708832 -0.181501 2.392836
-1.743691 -0.205287 3.065257
-1.759808 -0.216276 3.324853
-2.106866 -0.452126 4.562526
-2.365882 -0.628140 5.454753
-2.333339 -0.606121 5.885329
-2.223254 -0.531459 6.333286
-2.047626 -0.412315 6.882299
-1.665883 -0.153180 7.144590
-1.770422 -0.224275 7.815888
-1.961649 -0.354131 7.951885
-2.063161 -0.423154 8.535101
-2.156435 -0.486570 9.034973
-2.125763 -0.465794 9.313056
-2.147455 -0.480615 9.836472
-2.175220 -0.499557 10.360785
-1.890624 -0.306446 10.994734
-1.335750 -0.035303 0.731446
-1.499625 -0.167293 1.321947
-1.739030 -0.360003 1.572259
-1.754292 -0.372381 2.077304
-1.689750 -0.320504 2.422829
-1.631842 -0.273983 2.852715
-1.665621 -0.301277 3.442120
-2.065164 -0.623027 4.584178
-2.405313 -0.896819 4.871982
-2.269097 -0.787376 5.821155
-2.174739 -0.711539 6.348512
-1.966148 -0.543715 6.570386
-1.880092 -0.474561 7.106426
-1.864216 -0.461867 7.545480
-1.968100 -0.545594 8.211469
-2.024386 -0.590954 8.548812
-2.007086 -0.577099 8.907761
-2.114183 -0.663395 9.488932
-2.071945 -0.629440 9.686302
-2.130135 -0.676398 10.373175
-1.790962 -0.403503 10.678210
-1.329681 -0.148083 0.907687
-1.411597 -0.226238 1.501513
-1.560488 -0.368110 1.673207
-1.648022 -0.451598 2.177360
-1.661037 -0.464065 2.519575
-1.608071 -0.413696 2.950942
-1.775204 -0.572993 3.360370
-1.673978 -0.476701 4.048828
-2.223503 -1.000296 4.570651
-2.187561 -0.966144 4.998751
-2.179799 -0.958885 5.671565
-2.144089 -0.924938 6.022063
-1.958336 -0.748046 6.324177
-1.804542 -0.601649 6.875918
-1.503113 -0.314605 7.388174
-1.561865 -0.370660 7.814196
-1.861694 -0.656390 8.342128
-1.985643 -0.774530 8.659095
-1.970432 -0.760112 9.018746
-1.930764 -0.722451 9.648292
-1.907262 -0.700119 9.929191
-1.878682 -0.673021 10.564322
-1.528292 -0.339333 11.065351
-0.978074 0.119906 0.502257
-1.247706 -0.182780 1.013509
-1.384273 -0.336089 1.270135
-1.596166 -0.573997 1.851455
-1.606097 -0.585216 2.191877
-1.618064 -0.598719 2.532151
-1.639593 -0.622990 3.037228
-1.661052 -0.647164 3.459428
-1.685648 -0.674857 3.881240
-1.641533 -0.625428 4.230566
-1.733301 -0.727918 1.995396
-2.064225 -1.100008 5.346472
-2.036986 -1.069535 5.775809
-1.907722 -0.924634 6.482644
-1.767803 -0.767742 7.033998
-1.657709 -0.644243 7.243853
-1.405580 -0.361460 7.927222
-1.429144 -0.387941 8.103707
-1.914104 -0.932270 8.647942
-1.887365 -0.902326 8.924669
-1.887885 -0.903006 9.365734
-1.919520 -0.938639 9.971051
-1.913722 -0.932212 10.332545
-1.668950 -0.657656 10.883968
-1.285338 -0.365383 0.737321
-1.470156 -0.612371 1.243654
-1.603188 -0.790228 1.922182
-1.513468 -0.670618 2.864995
-1.468194 -0.610230 3.215238
-1.836546 -1.102540 4.438320
-1.978582 -1.292336 4.752600
-2.022295 -1.350865 5.330951
-1.865213 -1.141120 5.627078
-1.680281 -0.894261 6.270369
-1.654097 -0.859374 6.626862
-1.606841 -0.796557 7.866095
-1.679517 -0.893772 8.452443
-1.746360 -0.983178 8.954981
-1.712163 -0.937549 9.151974
-1.796811 -1.050756 9.735429
-1.815987 -1.076498 10.260829
-1.652717 -0.858544 10.785513
-0.984950 -0.043435 0.661301
-1.147222 -0.300856 1.006366
-1.255699 -0.472924 1.181489
-1.478181 -0.825886 1.762699
-1.434531 -0.756786 2.191871
-1.396159 -0.696077 2.706020
-1.411432 -0.720414 3.132021
-1.412031 -0.720706 0.734328
-1.502713 -0.865393 3.973401
-1.528175 -0.905114 1.579342
-1.790427 -1.321975 5.191414
-1.663560 -1.121109 6.343124
-1.490243 -0.846401 6.830722
-1.479194 -0.829289 8.325150
-1.518340 -0.891460 8.666598
-1.611123 -1.038678 8.985013
-1.736953 -1.238369 9.545857
-1.741435 -1.245599 9.989210
-1.709013 -1.194335 10.541268
-1.514538 -0.886095 11.096846
-1.451301 -1.043141 1.920251
-1.416597 -0.976215 2.433472
-1.423569 -0.989775 2.694647
-1.396605 -0.937840 3.293300
-1.584845 -1.302110 4.456844
-1.689507 -1.504515 4.692308
-1.586015 -1.304644 5.313280
-1.556609 -1.247884 5.585636
-1.511283 -1.160484 6.284482
-1.361800 -0.871662 6.774808
-1.337291 -0.824371 7.054049
-1.214385 -0.587011 7.806454
-1.103161 -0.372097 8.128565
-1.242421 -0.641461 8.602412
-1.465244 -1.072326 8.942423
-1.528658 -1.194967 9.096553
-1.530168 -1.198027 9.542029
-1.598017 -1.329377 10.127180
-1.537230 -1.212076 10.790225
-0.963908 -0.204531 0.488039
-1.237676 -0.858184 1.178473
-1.321602 -1.058710 1.766249
-1.252999 -0.895173 2.285561
-1.258463 -0.908314 2.548177
-1.268886 -0.933351 2.976560
-1.358216 -1.146708 3.388604
-1.292437 -0.989853 3.749493
-1.594433 -1.710908 4.525577
-1.536736 -1.573373 4.968572
-1.376013 -1.190292 6.320625
-1.272735 -0.944112 7.144092
-1.280502 -0.963087 8.300439
-1.308954 -1.031123 8.645118
-1.383578 -1.209377 9.049154
-1.437787 -1.338979 9.637472
-1.487269 -1.457267 10.141859
-1.476362 -1.431343 10.426039
-1.251652 -0.895235 10.953844
-1.095835 -0.762383 0.233044
-1.035747 -0.575737 0.918118
-1.098358 -0.770686 1.179531
-1.222679 -1.157647 1.432461
-1.227069 -1.171509 1.859201
-1.203680 -1.098977 2.373635
-1.182434 -1.033114 2.890390
-1.188029 -1.050649 3.152746
-1.350578 -1.557111 4.555837
-1.298987 -1.397413 6.301801
-1.199485 -1.088034 6.792277
-1.157801 -0.959017 8.234583
-1.144720 -0.918448 8.517631
-1.220713 -1.155222 9.172240
-1.305081 -1.417886 9.468324
-1.324517 -1.478489 9.727095
-1.334408 -1.509516 10.256055
-1.273755 -1.320987 10.674996
-1.077028 -1.055244 1.268714
-1.103147 -1.167828 1.774827
-1.086484 -1.096596 2.371165
-1.090909 -1.115837 2.714446
-1.096036 -1.138094 3.057535
-1.170307 -1.456407 1.666655
-1.293799 -1.989213 4.838997
-1.213366 -1.643765 5.225444
-1.181326 -1.506350 5.673197
-1.170090 -1.458286 6.027436
-1.101630 -1.164468 6.679029
-1.044610 -0.919603 6.990066
-0.998613 -0.722277 7.556522
-0.991408 -0.691547 7.922366
-1.023124 -0.828299 8.603911
-1.128753 -1.282449 8.861730
-1.172891 -1.472408 9.262407
-1.160336 -1.418576 9.461340
-1.188658 -1.540625 9.965464
-1.196624 -1.575205 10.493928
-1.086689 -1.103036 10.994049
-0.910422 -0.637428 0.293601
-0.910607 -0.639153 0.726169
-0.925769 -0.744628 1.156610
-0.999115 -1.253253 1.654759
-0.986688 -1.167517 2.001769
-0.974714 -1.084927 2.350449
-0.993982 -1.219008 2.937364
-0.983238 -1.144930 3.287991
-0.989261 -1.187180 3.797634
-1.021158 -1.408398 4.038514
-1.088032 -1.872308 4.663450
-1.092332 -1.902359 4.918959
-1.046494 -1.586175 6.248236
-0.989763 -1.193849 6.918591
-0.974959 -1.092402 8.004922
-0.997716 -1.250827 8.763613
-1.019957 -1.405148 9.001041
-1.031275 -1.483906 9.342047
-1.051834 -1.626929 9.928618
-1.067438 -1.735457 10.349380
-1.045687 -1.585369 10.931553
-0.890652 -1.225332 1.566990
-0.898064 -1.341056 1.991300
-0.892360 -1.253338 2.253782
-0.887702 -1.182375 2.767100
-0.889144 -1.205485 3.108789
-0.915497 -1.616336 4.349509
-0.938275 -1.970069 4.815889
-0.929466 -1.834871 5.339466
-0.920375 -1.695105 5.785402
-0.909232 -1.523039 5.987914
-0.897747 -1.347026 6.787748
-0.881530 -1.096623 7.097224
-0.868463 -0.895585 7.661955
-0.868568 -0.898401 8.193253
-0.883516 -1.130171 8.329031
-0.901930 -1.416140 8.711002
-0.916765 -1.647124 9.274603
-0.914419 -1.611424 9.553561
-0.918953 -1.683193 10.244386
-0.919928 -1.699307 10.689631
-0.893431 -1.289917 11.080254
-0.786412 -1.082012 0.881252
-0.783977 -1.190278 1.308864
-0.781438 -1.303304 1.734110
-0.780670 -1.333822 2.410721
-0.780303 -1.348834 2.671992
-0.781657 -1.283621 3.189307
-0.777144 -1.499917 1.635199
-0.765395 -2.016453 4.581631
-0.765937 -1.987733 5.176556
-0.764638 -2.044230 5.596218
-0.772174 -1.697677 5.993079
-0.778698 -1.395627 6.645368
-0.783499 -1.173325 7.123924
-0.791030 -0.827423 7.458670
-0.788791 -0.926148 7.975132
-0.782911 -1.192446 8.282176
-0.773610 -1.613358 8.811165
-0.771850 -1.691414 9.152604
-0.772604 -1.655128 9.433052
-0.773562 -1.607182 10.068444
-0.772679 -1.643915 10.598804
-0.748276 -0.641313 0.543920
-0.717190 -0.942988 0.891216
-0.726711 -0.849935 1.242225
-0.704924 -1.061105 1.669092
-0.683048 -1.273270 2.008042
-0.678782 -1.313654 2.769699
-0.687782 -1.225904 2.952547
-0.653217 -1.561203 3.437924
-0.680749 -1.293049 3.805020
-0.675617 -1.342217 4.313758
-0.608817 -1.990913 4.751818
-0.605632 -2.021513 5.006349
-0.589880 -2.174050 5.410273
-0.610363 -1.973937 6.114848
-0.658101 -1.509551 6.366079
-0.691276 -1.186371 6.856127
-0.722225 -0.884701 7.438300
-0.725550 -0.851858 7.803273
-0.694915 -1.148968 8.277051
-0.647429 -1.610190 8.536095
-0.639703 -1.684799 8.875520
-0.625615 -1.820915 9.460631
-0.632583 -1.752392 10.011429
-0.635629 -1.722386 10.292950
-0.643698 -1.643272 10.766463
-0.653160 -0.899314 0.482749
-0.577712 -1.294892 0.827470
-0.631956 -1.009887 1.347841
-0.649182 -0.919301 1.615771
-0.571874 -1.324649 1.948521
-0.584955 -1.255548 2.549587
-0.581923 -1.271253 2.812502
-0.553853 -1.418004 3.483675
-0.569649 -1.334979 3.671070
-0.524895 -1.569470 4.080199
-0.438661 -2.021482 4.626072
-0.441485 -2.006127 5.317112
-0.481606 -1.795139 5.945228
-0.548198 -1.445501 6.265692
-0.598324 -1.181863 7.093379
-0.647560 -0.923354 7.326558
-0.644596 -0.938422 7.946928
-0.569843 -1.330269 8.401893
-0.511098 -1.638459 8.435169
-0.475323 -1.825843 8.838100
-0.464052 -1.884442 9.530174
-0.462372 -1.892906 9.976996
-0.486063 -1.768370 10.284593
-0.500837 -1.690484 10.759377
-0.551871 -1.047757 0.836756
-0.629244 -0.766154 1.277895
-0.601442 -0.867155 1.458496
-0.463083 -1.369961 2.041216
-0.485028 -1.289967 2.393481
-0.476765 -1.319731 2.907932
-0.493096 -1.260055 3.429927
-0.458821 -1.384506 3.768286
-0.392925 -1.623861 4.260144
-0.306446 -1.938206 4.488538
-0.293418 -1.985351 4.911257
-0.281996 -2.026698 5.251638
-0.286654 -2.009429 5.851018
-0.403956 -1.582643 6.268125
-0.520057 -1.160218 6.693712
-0.540584 -1.085178 7.412038
-0.549166 -1.053770 7.779728
-0.469789 -1.342152 8.255814
-0.372572 -1.695517 8.538673
-0.331463 -1.844872 8.777437
-0.290032 -1.995166 9.446694
-0.319112 -1.889205 9.835663
-0.335595 -1.828961 10.391904
-0.368115 -1.710532 10.704290
-0.561351 -0.817016 1.266325
-0.490356 -1.008932 1.442821
-0.344163 -1.404037 2.027231
-0.371379 -1.330253 2.461598
-0.364169 -1.349605 2.807942
-0.390461 -1.278355 3.161392
-0.376131 -1.316892 3.675164
-0.330585 -1.439919 4.012038
-0.168011 -1.879303 4.644236
-0.115995 -2.019797 5.054808
-0.096794 -2.071544 5.476103
-0.122626 -2.001608 5.665919
-0.268014 -1.608191 6.245813
-0.420022 -1.196937 6.670488
-0.457637 -1.094982 7.220221
-0.458463 -1.092523 7.755125
-0.332630 -1.432691 8.044247
-0.206086 -1.774787 8.327409
-0.154747 -1.913338 8.997838
-0.140504 -1.951782 9.174393
-0.158379 -1.903175 9.808406
-0.180165 -1.844027 10.363960
-0.207092 -1.771005 10.840519
-0.624998 -0.577590 0.461743
-0.328381 -1.217043 0.977517
-0.449467 -0.955746 1.503990
-0.486375 -0.876035 1.860554
-0.271428 -1.339466 2.106604
-0.299824 -1.278024 2.711792
-0.292523 -1.293674 2.977612
-0.270180 -1.341619 3.660818
-0.340539 -1.189768 4.028566
-0.280157 -1.319830 4.451894
-0.100729 -1.706677 4.669127
0.059238 -2.051414 5.301783
0.000359 -1.924291 5.750464
-0.186355 -1.521512 6.165815
-0.323901 -1.224733 6.657404
-0.363337 -1.139473 7.290410
-0.294917 -1.286900 7.619431
-0.184064 -1.525841 7.926567
-0.064923 -1.782626 8.311959
-0.000448 -1.921579 8.549607
-0.001704 -1.918717 8.993670
-0.033239 -1.850523 9.544566
-0.011688 -1.896783 10.156189
-0.104901 -1.695660 10.491788
-0.238724 -1.406827 11.217565
-0.427030 -0.890069 0.878531
-0.223741 -1.249250 1.472187
-0.117916 -1.436193 1.895502
-0.202038 -1.287308 2.502060
-0.145149 -1.387796 2.759407
-0.127500 -1.418842 3.272236
-0.117144 -1.437070 3.534803
-0.143381 -1.390537 4.056440
-0.228316 -1.240312 4.339857
-0.048662 -1.557722 4.902823
0.064906 -1.758408 5.139140
-0.030397 -1.589702 5.936474
-0.157010 -1.365796 6.243269
-0.262008 -1.180022 6.805740
-0.239684 -1.219406 7.070107
-0.234078 -1.229133 7.687486
-0.095738 -1.473562 8.079016
0.084019 -1.791239 8.361845
0.120538 -1.855693 8.703585
0.167969 -1.939411 9.126669
0.160052 -1.925309 9.490439
0.195432 -1.987645 10.183142
0.039015 -1.711036 10.545024
-0.343944 -0.930315 1.308637
-0.226599 -1.101321 1.569741
-0.043627 -1.367919 2.158120
-0.092532 -1.296552 2.427233
-0.015079 -1.409316 3.018975
0.003304 -1.436006 3.448923
0.024425 -1.466686 3.878480
-0.022221 -1.398633 4.067840
0.008016 -1.442582 4.581144
0.098283 -1.574051 5.081345
0.086721 -1.557038 5.688345
0.010194 -1.445353 6.145459
-0.085933 -1.305159 6.355527
-0.149883 -1.211787 6.903071
-0.089371 -1.299850 7.502167
0.040984 -1.489854 7.644544
0.255041 -1.801827 8.012777
0.325297 -1.904098 8.600572
0.324006 -1.902103 9.045280
0.314457 -1.888087 9.409014
0.330363 -1.911139 9.937910
0.350475 -1.940323 10.467681
0.198371 -1.718439 10.997582
-0.716532 -0.402351 0.529820
-0.336664 -0.870824 0.878222
-0.331385 -0.877234 1.314077
-0.193097 -1.047669 1.911379
0.068376 -1.370109 2.240602
0.083243 -1.388348 2.669167
0.042165 -1.337559 3.188154
0.068269 -1.369639 3.700593
0.078372 -1.382059 3.878880
0.099419 -1.407939 4.223827
0.202882 -1.535422 4.806554
0.180172 -1.507290 5.328386
0.154475 -1.475491 5.768835
0.053823 -1.351274 6.059031
-0.073665 -1.193872 6.703120
-0.027295 -1.250967 7.133941
0.022112 -1.311810 7.563910
0.249448 -1.592154 7.851409
0.488823 -1.887329 8.215006
0.534496 -1.943587 8.553901
0.532521 -1.941049 8.996231
0.546377 -1.958018 9.521486
0.429595 -1.813857 10.015603
0.377667 -1.749696 10.489103
0.237740 -1.576939 11.185506
-0.049190 -1.115276 1.111989
-0.114346 -1.047709 1.379373
-0.174021 -0.985785 1.817269
0.185921 -1.358650 2.227888
0.136486 -1.307318 2.746741
0.156847 -1.328325 3.176732
0.170942 -1.342874 3.439387
0.138492 -1.309124 4.045178
0.156726 -1.327961 4.307994
0.340717 -1.518482 4.880784
0.316431 -1.493209 5.403334
0.280491 -1.455894 5.761363
0.178226 -1.349855 6.135677
0.087912 -1.256179 6.596877
0.265032 -1.439635 6.909267
0.202671 -1.374888 7.539236
0.248812 -1.422624 7.883970
0.617385 -1.804393 8.475857
0.643976 -1.831908 8.651202
0.777860 -1.970547 9.049349
0.754495 -1.946188 9.760636
0.627902 -1.814915 10.255928
0.474493 -1.655892 10.591469
0.271386 -1.445274 11.400650
-0.114892 -0.978533 0.365035
0.112083 -1.178545 0.796402
0.047593 -1.121558 1.482608
-0.018520 -1.063206 1.834594
0.286759 -1.332300 1.997695
0.227508 -1.279981 2.431808
0.255304 -1.304370 3.028541
0.269725 -1.317032 3.290620
0.296246 -1.340328 3.719501
0.326370 -1.366801 4.147958
0.360094 -1.396448 4.575940
0.420870 -1.449895 5.252769
0.380912 -1.414600 5.609940
0.223384 -1.275603 6.248679
0.170235 -1.228710 6.443036
0.223262 -1.275373 6.873209
0.279901 -1.325222 7.302564
0.475498 -1.497594 7.610208
0.736481 -1.727530 8.325054
0.791618 -1.776072 8.664658
0.790224 -1.774756 9.108087
0.735057 -1.726015 9.658568
0.669846 -1.668435 10.130234
0.664763 -1.663883 10.496505
0.552667 -1.564948 11.082830
-0.192102 -0.865842 0.523289
0.231677 -1.179732 1.816129
0.400977 -1.305179 2.070738
0.346038 -1.264347 2.672595
0.364142 -1.277703 3.018748
0.384757 -1.292921 3.364683
0.426203 -1.323534 3.960665
0.460656 -1.348994 4.389187
0.483603 -1.365957 4.650743
0.524270 -1.396022 5.078421
0.498307 -1.376683 5.602140
0.289405 -1.221779 5.906267
0.283350 -1.217179 6.519641
0.329374 -1.251232 6.866346
0.377913 -1.287148 7.212519
0.599492 -1.451322 7.604052
0.916296 -1.686071 8.051889
0.937778 -1.701884 8.657930
0.936154 -1.700599 9.101039
0.922682 -1.690548 9.463195
0.867692 -1.649686 10.015282
0.766104 -1.574328 10.323587
0.681115 -1.511194 11.074429
-0.459198 -0.668205 0.780192
0.224570 -1.093689 1.122843
0.488509 -1.257878 1.544642
0.423356 -1.217228 2.143867
0.430746 -1.221796 2.321351
0.451461 -1.234614 2.749680
0.481549 -1.253251 3.261253
0.517434 -1.275496 3.772308
0.537961 -1.288227 4.032662
0.590427 -1.320777 4.626027
0.708647 -1.394294 4.956941
0.660915 -1.364527 5.311512
0.615992 -1.336508 5.667465
0.511299 -1.271259 6.206432
0.353411 -1.172873 6.933867
0.572074 -1.308905 7.243707
0.362330 -1.178316 7.558815
0.501964 -1.265161 7.884736
0.991012 -1.569464 8.209780
1.114230 -1.646035 8.876288
1.114499 -1.646126 9.318442
1.101834 -1.638181 9.679729
1.064573 -1.614883 10.313302
0.877141 -1.498177 10.647891
0.425432 -1.216937 11.344875
-0.134423 -0.840453 0.567038
0.582779 -1.205481 0.993846
0.498439 -1.162503 1.260203
0.426202 -1.125631 1.863668
0.621544 -1.225002 2.286567
0.634238 -1.231421 2.550238
0.569540 -1.198414 2.987407
0.604182 -1.215965 3.502012
0.460483 -1.142740 3.951278
0.572079 -1.199507 4.206154
0.824473 -1.327869 4.946896
-0.066450 -0.848497 0.538382
0.676386 -1.154016 0.883210
0.682316 -1.156401 1.231742
0.604006 -1.124105 1.749546
0.720852 -1.172077 2.343286
0.734365 -1.177594 2.606610
0.678989 -1.154719 3.210673
0.599622 -1.122041 3.398687
0.732739 -1.176720 3.904623
0.970817 -1.275013 1.646991
1.100101 -1.327695 4.812010
0.945788 -1.264172 5.097215
1.212522 -1.373794 5.744412
0.893456 -1.242479 6.146353
0.578292 -1.112769 6.554989
0.672166 -1.151290 7.153773
0.548839 -1.100498 7.537525
0.777009 -1.194322 7.763918
1.309257 -1.413216 8.092281
1.368969 -1.437657 8.864129
1.351765 -1.430523 9.227226
1.337802 -1.424722 9.591359
1.276678 -1.399490 10.145601
1.092363 -1.323604 10.564701
0.799562 -1.203042 11.292065
0.481975 -1.001418 0.313009
0.485869 -1.002554 0.916291
0.301584 -0.944361 1.271614
0.692328 -1.067581 1.610875
0.800015 -1.101502 1.955301
0.828348 -1.110349 2.553171
0.854296 -1.118469 2.983808
0.694745 -1.068065 3.430085
0.817899 -1.106866 3.769700
1.339338 -1.271299 4.232577
1.193797 -1.225315 4.679773
1.223137 -1.234532 4.940969
1.401231 -1.290616 5.600078
1.365579 -1.279301 6.038673
0.877143 -1.125116 6.642250
0.623789 -1.045153 6.872598
0.927786 -1.140959 7.519468
0.726521 -1.077389 8.007330
0.981036 -1.157637 8.314426
1.458724 -1.308273 8.738647
1.403690 -1.290880 8.937233
1.443152 -1.303237 9.547155
1.359218 -1.276685 10.018815
1.280889 -1.251901 10.493609
1.116402 -1.199931 10.998478
0.076386 -0.848210 0.780621
0.954922 -1.048729 0.868160
1.164657 -1.096501 1.542446
0.975693 -1.053341 1.729270
0.899591 -1.035893 2.244840
0.932792 -1.043382 2.839863
0.968553 -1.051468 3.350989
1.183671 -1.100534 3.594879
1.497372 -1.172104 3.826710
1.634558 -1.203356 4.237683
1.291828 -1.125056 4.702999
1.158464 -1.094535 5.234512
1.503725 -1.173286 5.618039
1.370703 -1.142855 6.069041
0.967588 -1.050753 6.655266
0.846699 -1.023090 7.117212
0.842489 -1.022050 7.647838
1.020020 -1.062511 8.056595
1.470776 -1.165360 8.317350
1.500973 -1.172162 8.924724
1.558939 -1.185355 9.181759
1.582765 -1.190714 9.707895
1.519497 -1.176190 10.260416
1.347963 -1.136961 10.760666
0.855276 -1.024439 11.181948
0.938843 -0.948800 0.344019
1.056407 -0.965020 1.549671
1.068695 -0.966683 1.895828
0.998249 -0.956768 2.497121
1.128969 -0.974927 3.003576
1.049178 -0.963757 3.273538
1.380079 -1.009853 3.676714
1.813698 -1.070278 4.062884
1.750059 -1.061350 4.412768
1.610762 -1.041843 4.939982
1.403216 -1.012789 5.650252
1.452315 -1.019587 5.993066
1.381114 -1.009627 6.185959
0.918564 -0.944983 7.044072
0.882793 -0.939940 7.409354
0.753230 -0.921811 7.794817
1.066791 -0.965465 8.353755
1.509414 -1.027177 8.531674
1.662713 -1.048525 8.769386
1.662422 -1.048418 9.214420
1.687548 -1.051845 9.742454
1.550151 -1.032583 10.404750
1.282872 -0.995224 10.935422
0.918453 -0.864582 1.039685
1.125801 -0.876568 1.381761
1.242733 -0.883282 1.889848
1.171575 -0.879064 2.488928
1.548601 -0.900790 3.578195
1.919249 -0.922198 4.309926
1.697988 -0.909252 5.009869
1.444573 -0.894486 5.388659
1.269108 -0.884081 6.890711
0.951833 -0.865591 7.388759
0.902714 -0.862699 7.669811
1.084811 -0.873209 8.079977
1.581802 -0.901996 8.506596
1.717628 -0.909858 8.660813
1.754143 -0.911889 9.268200
1.759345 -0.912126 9.712695
1.651887 -0.905831 10.101319
1.519194 -0.898031 10.766141
0.582784 -0.794412 0.369333
0.985216 -0.783376 0.800819
0.892709 -0.785835 1.234679
1.007870 -0.782620 1.747583
1.229683 -0.776498 2.252587
1.239009 -0.776217 2.431719
1.270302 -0.775289 2.943492
1.501092 -0.768936 3.355933
2.034978 -0.754323 3.736463
2.075327 -0.753161 4.156048
1.717133 -0.763247 1.974211
1.872571 -0.758562 5.030834
2.026524 -0.754305 5.438680
2.110358 -0.751934 6.020936
1.571067 -0.766575 6.453885
1.149467 -0.777997 6.963676
1.045044 -0.780764 7.512949
0.833732 -0.786455 8.001798
1.100300 -0.779141 8.310005
1.600836 -0.765430 8.736482
1.756786 -0.761143 8.973791
1.739141 -0.761571 9.337492
1.807396 -0.759609 10.028240
1.702776 -0.762405 10.417595
1.409450 -0.770338 10.862952
0.646633 -0.743706 0.550202
1.348387 -0.666405 1.058361
1.453462 -0.654804 1.318115
1.265005 -0.675492 1.669407
1.282094 -0.673548 2.098780
1.408009 -0.659617 2.605225
1.348401 -0.666088 3.206189
1.580651 -0.640470 3.616383
2.114053 -0.581715 3.992595
2.007159 -0.593352 4.853273
1.831214 -0.612685 5.053139
2.006959 -0.593261 5.624793
1.957536 -0.598648 5.977858
1.558870 -0.642422 6.643235
1.308797 -0.669896 6.954119
1.106996 -0.692020 7.519810
0.880322 -0.716906 7.923924
1.179155 -0.683950 8.399049
1.641340 -0.633050 8.658868
1.755349 -0.620430 9.164808
1.876090 -0.607068 9.669166
1.844165 -0.610540 9.951367
1.783429 -0.617142 10.506514
1.491114 -0.649192 11.312668
1.207056 -0.587914 1.227826
1.409930 -0.547960 1.483583
1.421422 -0.545648 1.826907
1.354939 -0.558627 2.507780
1.837847 -0.463429 3.751642
2.146789 -0.402623 3.898434
2.205306 -0.391023 4.478922
1.941462 -0.442891 4.768599
1.613538 -0.507329 5.322497
1.685505 -0.493504 3.073633
1.951040 -0.440779 6.302826
1.397562 -0.549636 6.574065
1.318603 -0.565065 7.284704
1.173101 -0.593649 7.582528
1.208734 -0.586534 8.281620
1.437302 -0.541543 8.418236
1.833602 -0.463504 8.860563
1.948549 -0.440813 9.363550
1.934531 -0.443517 9.725815
1.965955 -0.437256 10.252858
1.815578 -0.466757 10.834318
0.951658 -0.574149 0.258732
1.049229 -0.546689 0.693056
1.058824 -0.543904 1.295033
1.357240 -0.460068 1.634919
1.477138 -0.426316 2.226865
1.486064 -0.423782 2.406830
1.617452 -0.386804 2.994556
1.264550 -0.485816 3.454065
2.378743 -0.172904 4.040894
2.256018 -0.207257 4.721828
1.923321 -0.300595 5.189319
1.871323 -0.315141 5.541376
1.941305 -0.295416 6.044249
1.897037 -0.307791 6.398316
1.395095 -0.448638 6.920643
1.184023 -0.507826 7.401181
1.105144 -0.529876 8.036074
1.173243 -0.510704 8.382021
1.603251 -0.389947 8.559173
1.787767 -0.338081 8.960752
1.789108 -0.337637 9.405724
1.908843 -0.303944 9.909391
2.035051 -0.268433 10.411350
1.752673 -0.347647 10.855647
1.276816 -0.389361 0.270253
1.186189 -0.422972 0.868882
1.192003 -0.420756 1.216364
1.484341 -0.311967 1.637410
1.587075 -0.273718 1.894880
1.516016 -0.300066 2.409424
1.638539 -0.254420 2.912816
1.487020 -0.310690 3.437276
1.563530 -0.282609 1.032555
2.392159 0.026048 4.118067
2.425486 0.038495 4.453770
2.089404 -0.086438 4.836685
1.870158 -0.167894 5.378036
2.018002 -0.112845 5.786456
1.880224 -0.164029 6.156153
1.612948 -0.263317 6.892534
1.499624 -0.305392 7.354442
1.223013 -0.408175 7.941965
1.197045 -0.417776 8.309088
1.540781 -0.289892 8.592629
1.756771 -0.209474 9.161812
1.905424 -0.154152 9.397791
2.041855 -0.103320 9.983506
2.014038 -0.113622 10.266286
1.892445 -0.158740 10.931232
0.853818 -0.493174 0.685108
1.397464 -0.237125 0.777014
1.498049 -0.189658 1.371284
1.513494 -0.182302 1.883359
1.614211 -0.134827 2.141410
1.639015 -0.123063 2.651688
1.754809 -0.068461 3.071700
1.598176 -0.142170 3.431150
2.479424 0.272982 4.193129
2.358082 0.215932 4.794694
2.032335 0.062695 5.877222
1.733249 -0.078084 6.361386
1.528956 -0.174221 6.836886
1.343863 -0.261300 7.401699
1.108058 -0.372231 8.160735
1.157493 -0.348907 8.425772
1.700083 -0.093305 8.832369
1.841834 -0.026508 9.070364
1.950772 0.024879 9.575985
2.046735 0.070142 9.998199
1.992315 0.044602 10.553125
1.554818 -0.161359 11.055630
1.239333 -0.222225 0.844013
1.156323 -0.269855 1.110357
1.514765 -0.063907 1.614045
1.618990 -0.003963 2.120707
1.543700 -0.047159 2.387377
1.661699 0.020710 2.974203
2.188250 0.323330 4.200556
2.376715 0.431596 4.354547
2.167905 0.311761 4.888423
2.082681 0.262947 5.673913
1.827341 0.116420 6.402285
1.802903 0.102459 6.843134
1.671599 0.027275 8.194072
1.565047 -0.033856 8.579669
1.699547 0.043432 8.819462
1.919575 0.169909 9.468324
1.992546 0.211876 9.808990
2.002946 0.217924 10.256055
1.831179 0.119344 10.674996
1.169085 -0.174727 0.384973
1.090090 -0.229444 0.905107
1.177630 -0.168643 1.254360
1.518831 0.068182 1.758121
1.609629 0.131226 2.017507
1.627003 0.143357 2.446069
1.643918 0.155155 2.791639
1.766406 0.240260 3.459428
1.621126 0.139510 3.738820
2.434130 0.703745 4.575413
2.140778 0.500277 4.960940
2.194502 0.537642 5.463294
2.243807 0.571926 5.883595
1.972499 0.383770 6.366468
1.879906 0.319622 6.905748
1.648152 0.159037 8.104911
1.670837 0.174886 8.716169
1.798723 0.263659 8.953356
1.912482 0.342692 9.540106
1.981883 0.390905 9.879332
2.053798 0.440863 10.217781
1.788139 0.256667 10.934479
1.263734 -0.009907 1.198042
1.581804 0.251491 1.616891
1.669027 0.323215 1.957307
1.604270 0.270078 2.306045
1.627128 0.288954 2.815876
2.098665 0.676604 4.127115
2.426702 0.946152 4.341276
2.309697 0.850106 4.779983
2.273345 0.820322 5.209621
2.249821 0.801092 5.721860
2.049882 0.636884 6.022588
1.872190 0.490985 6.491267
1.786311 0.420531 7.030913
1.402826 0.105587 7.649655
1.152109 -0.100315 8.074715
1.399891 0.103362 8.633353
1.656665 0.314342 8.748455
1.926950 0.536519 9.374745
1.916401 0.527921 9.739254
1.908581 0.521566 10.104752
1.806304 0.437664 10.770098
0.753967 -0.395578 0.711649
1.401918 0.238060 1.132138
1.693902 0.523624 1.465682
1.569766 0.402388 2.158231
1.585901 0.418252 2.584126
2.010780 0.833940 3.813797
2.258272 1.076200 5.124455
2.243812 1.062182 5.714804
2.120582 0.941732 5.917506
1.983826 0.808159 6.626987
1.895037 0.721437 7.081402
1.610843 0.443679 7.678361
1.284827 0.124965 7.952098
1.417356 0.254632 8.360912
1.732320 0.562722 8.970398
1.817339 0.645865 9.041434
1.946396 0.772207 9.789346
1.954491 0.780213 10.233726
1.881356 0.708783 10.623809
1.244610 0.194875 0.909457
1.314576 0.275178 1.252300
1.517935 0.508433 1.586790
1.594154 0.595924 2.006679
1.548343 0.543526 2.600613
1.562582 0.559929 2.941572
1.844285 0.882616 1.466452
2.251013 1.349671 4.531398
2.211393 1.304317 4.874814
2.239045 1.336098 5.206608
2.169260 1.256231 5.888865
1.991454 1.052398 6.105730
1.784776 0.815535 6.669049
1.658232 0.670576 7.306300
1.463485 0.447399 7.887647
1.497748 0.486743 8.146640
1.749191 0.775140 8.507285
1.722077 0.744112 8.785142
1.824052 0.861190 9.451170
1.842365 0.882305 9.976158
1.808282 0.843268 10.174825
1.721489 0.743894 10.837207
1.469569 0.636426 1.609447
1.540456 0.733378 2.113479
1.491729 0.666906 2.460943
1.451412 0.611962 2.975912
1.521419 0.707650 3.228722
1.487268 0.661130 3.744965
1.569860 0.774048 4.160330
1.948658 1.291552 4.517342
2.036191 1.411217 4.921668
2.067769 1.454454 5.336549
2.043642 1.421603 5.765269
1.949238 1.292723 6.048987
1.763139 1.038661 6.612234
1.582054 0.791452 7.184929
1.512633 0.696741 7.646061
1.687989 0.936383 8.112794
1.709532 0.965852 8.287704
1.785066 1.069171 8.871388
1.773800 1.053871 9.231701
1.788580 1.074190 9.756488
1.737842 1.005002 10.225999
1.647005 0.881067 10.807349
1.353139 0.654267 0.985966
1.466792 0.839270 1.656504
1.471875 0.847608 1.915032
1.429895 0.779462 2.343883
1.440042 0.796059 2.685628
1.454893 0.820326 3.109876
1.679150 1.184637 1.798302
1.918651 1.574983 4.963309
1.883611 1.518076 5.228899
1.873767 1.502234 5.819575
1.803486 1.388071 6.265708
1.721684 1.255128 6.552437
1.619845 1.089700 7.186836
1.558202 0.989587 7.644916
1.636060 1.116262 7.882451
1.621065 1.091977 8.240950
1.636520 1.117278 8.846529
1.667309 1.167418 9.102667
1.679418 1.187254 9.627218
1.706605 1.231634 10.234364
1.590681 1.043217 10.568115
1.247980 0.678579 1.039375
1.345883 0.873410 1.710425
1.395323 0.971771 1.966342
1.357632 0.896961 2.313483
1.370885 0.923472 2.821693
1.387197 0.956062 3.329460
1.534231 1.248441 3.645370
1.328204 0.839049 4.115570
1.776253 1.729959 4.939335
1.750948 1.679771 5.286722
1.737602 1.653406 5.797442
1.677244 1.533571 6.244447
1.607055 1.394141 6.532043
1.512966 1.207288 7.085277
1.503745 1.189101 7.525281
1.555916 1.292998 8.110493
1.544115 1.269656 8.470118
1.569464 1.320130 8.727092
1.586371 1.353934 9.333512
1.607692 1.396514 9.940783
1.550690 1.283304 10.248062
1.471614 1.126277 10.748256
0.811219 -0.155019 0.548204
1.113689 0.590529 0.977517
1.230834 0.879408 1.485530
1.234082 0.887515 1.749036
1.276961 0.993315 2.090945
1.290773 1.027615 2.767400
1.301802 1.054960 3.193200
1.311997 1.080217 3.536037
1.366677 1.215159 4.033965
1.298478 1.047170 4.231074
1.583223 1.749368 5.505744
1.568614 1.713533 5.937471
1.449525 1.420279 6.500410
1.444695 1.408580 7.020351
1.436730 1.389120 7.459866
1.449382 1.420369 7.635713
1.456911 1.439157 8.240218
1.447548 1.416224 8.600571
1.453720 1.431637 9.125670
1.455075 1.435150 9.570049
1.458411 1.443542 10.015446
1.435762 1.387944 10.569760
1.176970 1.065725 0.956787
1.297666 1.456573 1.374606
1.242711 1.278920 1.806305
1.189226 1.106028 2.242330
1.197671 1.133614 2.753180
1.206311 1.161790 3.180928
1.218486 1.201445 3.690908
1.259624 1.334799 4.107894
1.272773 1.377566 4.533181
1.284411 1.415402 4.875853
1.355525 1.645724 5.192487
1.401514 1.794772 5.600085
1.364936 1.676649 6.131489
1.301488 1.471568 6.683778
1.285567 1.420177 6.960905
1.337236 1.587605 7.366601
1.337093 1.587403 7.889927
1.323811 1.544554 8.169296
1.337809 1.590201 8.858623
1.332337 1.572668 9.222123
1.321996 1.539341 9.504868
1.343261 1.608507 10.197369
1.299941 1.468411 10.424460
1.065300 1.064976 1.191458
1.131541 1.364317 1.446684
1.113064 1.281159 1.877274
1.098556 1.216096 2.558262
1.100884 1.226729 2.738313
1.131421 1.365045 3.323887
1.137558 1.392991 3.667973
1.144311 1.423724 4.008890
1.157521 1.483782 4.596095
1.170462 1.542567 5.100248
1.177644 1.575179 5.357774
1.192789 1.643918 5.860605
1.163878 1.513648 6.312064
1.101006 1.228143 4.015243
1.212792 1.735066 7.055141
1.204911 1.699713 7.411276
1.208390 1.715833 8.013716
1.210102 1.723916 8.535739
1.197324 1.666338 8.732202
1.205409 1.703265 9.338298
1.211124 1.729430 9.863650
1.213731 1.741505 10.308325
1.150075 1.454311 10.752111
0.962320 1.042368 0.895828
1.004644 1.347843 1.317518
1.008810 1.378770 2.168972
1.013248 1.411379 2.759441
1.003522 1.341748 3.191908
1.019988 1.460686 3.444298
1.023998 1.489946 3.786361
1.029565 1.530519 4.210407
0.875454 1.223008 1.056738
0.887184 1.448037 1.907287
0.888389 1.472321 2.416702
0.890242 1.509138 3.008231
0.891880 1.541411 3.434319
0.893770 1.578479 3.860015
0.895479 1.611865 4.203017
0.896878 1.639148 4.461908
0.904593 1.786733 4.872880
0.907325 1.839772 5.294118
0.895290 1.612834 5.839538
0.899945 1.702826 6.426846
0.908056 1.857679 6.750181
0.910376 1.902428 7.007321
0.910820 1.912536 7.609004
0.914305 1.979627 7.947219
0.913708 1.969507 8.387120
0.909217 1.885775 8.932006
0.915373 2.004026 9.433297
0.915699 2.011444 9.876534
0.911215 1.927640 10.346565
0.895709 1.634517 10.791294
0.787048 0.784671 0.305772
0.780949 0.987358 0.819798
0.771678 1.296775 1.325842
0.762599 1.601432 1.494018
0.761972 1.620040 1.999425
0.764110 1.545611 2.510223
0.763437 1.566569 2.851300
0.762474 1.596875 3.274619
0.761140 1.639296 3.779928
0.759604 1.688471 4.284623
0.758743 1.716194 4.542170
0.753641 1.885034 5.115213
0.754867 1.841648 5.548526
0.762192 1.593318 5.930594
0.758062 1.731072 6.173482
0.748872 2.037171 6.806568
0.749514 2.013418 7.242492
0.747575 2.077005 7.579156
0.748955 2.029226 7.853650
0.749233 2.017720 8.292250
0.749358 2.011362 8.732046
0.747555 2.068664 9.417397
0.747910 2.054933 9.777949
0.749065 2.012962 10.409638
0.754158 1.839159 10.908663
0.660972 1.349336 0.949929
0.624944 1.663702 1.617012
0.635546 1.570706 1.797880
0.633373 1.589172 2.223170
0.629457 1.622678 2.813269
0.638029 1.547232 3.162843
0.622802 1.679924 3.579804
0.619263 1.710450 3.921437
0.611290 1.779346 4.591602
0.608963 1.799482 4.768085
0.601798 1.861522 5.271638
0.630267 1.611939 5.652186
0.597862 1.894756 6.209732
0.581970 2.033490 6.450449
0.585070 2.005805 6.886446
0.576431 2.080852 7.305540
0.576545 2.079193 7.824678
0.579780 2.050427 8.182035
0.580577 2.042884 8.622129
0.578607 2.059451 9.144946
0.580404 2.043263 9.505706
0.577029 2.072116 10.030614
0.597259 1.894475 10.527210
0.744461 0.412515 0.550377
0.647212 0.907631 0.980429
0.549897 1.403216 1.233008
0.508407 1.614209 1.735586
0.523358 1.537653 2.247505
0.518753 1.560789 2.672699
0.515490 1.577215 2.932202
0.488921 1.712193 3.431422
0.483229 1.740935 3.772208
0.509615 1.608193 1.555463
0.445579 1.932051 4.687966
0.458779 1.864599 4.956975
0.465275 1.831114 5.473677
0.470401 1.804605 5.992115
0.438704 1.965781 6.398122
0.392548 2.200754 6.621558
0.391743 2.204402 7.219285
0.392220 2.201582 7.737104
0.394624 2.189003 8.174894
0.406329 2.129221 8.369614
0.400104 2.160477 8.972652
0.395871 2.181645 9.495289
0.394283 2.189400 9.937560
0.422834 2.043775 10.161960
0.462231 1.842484 10.933157
0.428616 1.441712 1.058361
0.342946 1.739814 1.477274
0.367248 1.655005 1.823054
0.360802 1.677183 2.330909
0.352476 1.705907 2.838408
0.371579 1.639158 3.270699
0.334327 1.768656 3.687277
0.327728 1.791499 3.946517
0.313424 1.841042 4.452275
0.305375 1.868934 4.710979
0.288243 1.928325 5.215587
0.351209 1.708772 5.761780
0.306454 1.864404 6.170915
0.233270 2.119041 6.560403
0.248437 2.066083 6.833801
0.223467 2.152767 7.335147
0.219152 2.167476 7.936400
0.231526 2.124238 8.212941
0.223303 2.152553 8.816744
0.212239 2.190990 8.991415
0.211594 2.193002 9.433297
0.224628 2.147280 10.064048
0.267555 1.997494 10.643312
0.237546 1.666762 1.425681
0.235602 1.671848 1.603564
0.252239 1.627226 2.708577
0.248171 1.637949 2.886644
0.197409 1.772466 3.469729
0.181404 1.814744 3.976419
0.166158 1.855043 4.400253
0.184236 1.806870 4.835367
0.165586 1.856205 5.259241
0.215059 1.724682 5.710534
0.206024 1.748595 5.888079
0.064795 2.123256 6.510692
0.044551 2.176857 6.849212
0.047215 2.169572 7.368251
0.211943 1.733243 5.017675
0.040601 2.186875 7.982533
0.025015 2.227968 8.666966
0.004518 2.282273 8.923188
-0.010063 2.320733 9.526954
0.028353 2.218591 9.913089
0.042107 2.181813 10.546517
0.178565 1.819365 11.020338
0.135058 1.594664 1.570606
0.087926 1.693134 1.827573
0.079704 1.710182 2.252848
0.107922 1.650974 2.849484
0.033346 1.806604 3.774138
0.022797 1.828577 4.033322
-0.004006 1.884425 4.621129
-0.025759 1.929767 5.043845
-0.002016 1.879999 5.397295
0.100549 1.665373 5.863159
-0.060679 2.002356 6.323935
-0.127235 2.141418 6.646735
-0.116336 2.118479 7.083828
-0.136690 2.160954 7.340559
-0.150553 2.189712 8.022612
-0.123954 2.134027 8.217082
-0.136721 2.160519 8.820245
-0.136751 2.160432 9.261496
-0.147877 2.183521 9.785266
-0.134377 2.155195 10.065640
-0.099136 2.081345 10.536163
0.008011 1.597317 1.454725
-0.051406 1.699354 1.959889
-0.061720 1.716968 2.385095
-0.029874 1.662028 2.981957
-0.039426 1.678379 3.242284
-0.103468 1.788419 3.576586
-0.135336 1.843032 4.247356
-0.158560 1.882848 4.670550
-0.179010 1.917919 5.011151
-0.145723 1.860594 5.282362
-0.043677 1.684889 5.995557
-0.206242 1.964428 6.127485
-0.303417 2.131383 6.695780
-0.298482 2.122746 7.214464
-0.322641 2.164219 7.471028
-0.323126 2.164902 7.991122
-0.309524 2.141406 8.349560
-0.316173 2.152688 8.872124
-0.316619 2.153327 9.314329
-0.309420 2.140841 9.676115
-0.303979 2.131379 10.038894
-0.296711 2.118672 10.755190
0.685011 0.433910 0.600225
-0.191983 1.683264 1.790779
-0.196157 1.689165 1.970215
-0.210681 1.709731 2.479911
-0.247652 1.762175 3.415647
-0.273351 1.798665 3.924009
-0.292948 1.826503 4.267275
-0.251955 1.768021 4.539055
-0.286343 1.816892 5.047218
-0.217465 1.718589 5.664437
-0.232181 1.739513 5.843623
-0.496187 2.115611 6.207881
-0.503030 2.125188 6.889939
-0.481635 2.094610 7.247587
-0.536951 2.173304 7.750128
-0.530080 2.163401 8.190782
-0.526203 2.157764 8.632646
-0.525163 2.156170 9.074389
-0.560190 2.206017 9.330984
-0.508220 2.131845 9.798308
-0.472083 2.080211 10.350388
-0.343393 1.896661 11.042181
0.583887 0.564715 0.540658
-0.326525 1.660560 1.734941
-0.274250 1.597523 2.167288
-0.292006 1.618785 2.675931
-0.299229 1.627440 2.853362
-0.395158 1.742785 3.518333
-0.404898 1.754471 3.694999
-0.441154 1.797988 4.283017
-0.477015 1.841049 4.787973
-0.383634 1.728517 5.235761
-0.271855 1.593891 5.439042
-0.373113 1.715710 5.850389
-0.691599 2.099022 6.456622
-0.655951 2.056041 6.729213
-0.659587 2.060281 7.329099
-0.711147 2.122262 7.747905
-0.703180 2.112570 8.186333
-0.664405 2.065842 8.381709
-0.735351 2.151145 8.881623
-0.723472 2.136761 9.241160
-0.704433 2.113675 9.951542
-0.637429 2.032915 10.339874
-0.540647 1.916258 10.921461
0.674272 0.469676 0.570888
0.391072 0.757155 0.923558
-0.106224 1.262003 1.345589
-0.462341 1.623541 1.593879
-0.403753 1.563963 2.024624
-0.418673 1.579023 2.451890
-0.436967 1.597509 2.878889
-0.533166 1.695082 3.380233
-0.564139 1.726425 3.887672
-0.593765 1.756418 4.312249
-0.626743 1.789814 4.736325
-0.578952 1.741233 5.008009
-0.432907 1.592795 5.720676
-0.537593 1.699021 6.049728
-0.801450 1.966837 6.508142
-0.772620 1.937490 6.864433
-0.804761 1.970072 7.122390
-0.813354 1.978671 7.724995
-0.873276 2.039427 8.145338
-0.880667 2.046822 8.667602
-0.948031 2.115134 9.086806
-0.922722 2.089377 9.366518
-0.874229 2.040025 9.915950
-0.846960 2.012205 10.550335
-0.659359 1.821612 11.079998
-0.283046 1.312985 1.256542
-0.521961 1.518765 1.758646
-0.611411 1.595765 2.179941
-0.618209 1.601589 2.357035
-0.565574 1.556133 2.870811
-0.669243 1.645370 3.370574
-0.685590 1.659407 3.629361
-0.715246 1.684880 4.052609
-0.755380 1.719367 4.557578
-0.717730 1.686840 4.991938
-0.550869 1.542932 5.620148
-0.663040 1.639527 5.947984
-0.936817 1.875373 6.324177
-0.968488 1.902616 6.580476
-0.970923 1.904598 7.180061
-1.042773 1.966416 7.680232
-1.007251 1.935753 7.955491
-1.026442 1.952174 8.557626
-0.981877 1.913734 8.753702
-1.084477 2.002034 9.334791
-1.058254 1.979384 9.613798
-1.040966 1.964349 10.325832
-0.874271 1.820641 10.660575
-0.720731 1.519421 1.345286
-0.739898 1.533142 2.018295
-0.753373 1.542811 2.360583
-0.769357 1.554292 2.702707
-0.716827 1.516265 3.217097
-0.819872 1.590618 3.551161
-0.720499 1.519256 1.334308
-0.819850 1.590418 4.573494
-0.665150 1.479132 2.189284
-0.806362 1.580552 5.268605
-0.711778 1.512138 5.885768
-0.893436 1.643294 6.033215
-1.128876 1.813216 6.586848
-1.084396 1.781046 6.860285
-1.145533 1.825120 7.280068
-1.144047 1.823953 7.799842
-1.134405 1.816911 8.239381
-1.208086 1.870044 8.658387
-1.191248 1.857819 9.017806
-1.209433 1.870858 9.541052
-1.199496 1.863616 9.902601
-1.149282 1.827256 10.452945
0.794399 0.465063 0.720065
-0.854829 1.466929 1.896637
-0.779296 1.420990 2.161465
-0.798712 1.432714 2.587682
-0.832453 1.453114 3.178990
-0.844134 1.460181 3.356579
-0.960056 1.530544 3.771886
-0.994835 1.551604 4.194663
-0.948743 1.523524 4.628202
-1.009554 1.560372 5.215564
-0.784708 1.423705 5.513763
-0.868124 1.474274 6.186604
-1.229329 1.693722 6.300254
-1.288306 1.729484 6.719343
-1.305952 1.740090 7.400076
-1.264051 1.714584 7.674656
-1.321831 1.749633 8.011798
-1.359658 1.772500 8.694926
-1.441561 1.822193 9.112158
-1.444495 1.823900 9.552304
-1.451879 1.828312 9.993471
-1.381256 1.785321 10.461780
-1.088925 1.607593 11.096980
-0.880658 1.340326 1.687771
-0.979149 1.389101 1.943108
-0.993378 1.396098 2.284460
-0.951291 1.375099 3.138944
-1.126884 1.461955 4.224223
-1.151383 1.474056 4.481814
-1.105979 1.451481 4.915431
-0.986108 1.391980 5.446418
-1.050208 1.423669 5.952493
-1.251057 1.523196 6.098035
-1.411324 1.602554 6.583662
-1.052698 1.425157 4.393539
-1.484743 1.638778 7.600774
-1.427450 1.610350 7.793792
-1.463463 1.628088 8.476848
-1.530454 1.661237 8.813065
-1.495809 1.644020 9.090279
-1.534770 1.663233 9.693811
-1.563130 1.677205 10.216932
-1.364971 1.578933 10.549882
-0.129030 0.923221 0.557998
-0.508228 1.074132 1.171371
-1.076194 1.300247 1.585486
-1.098388 1.308992 2.177360
-1.106782 1.312307 2.356067
-1.037265 1.284555 2.788730
-1.163506 1.334749 3.290721
-1.210449 1.353350 3.880919
-1.226314 1.359640 4.059038
-1.275483 1.379141 4.563035
-1.248386 1.368257 5.160958
-1.085306 1.303282 5.362196
-1.173366 1.338245 6.032988
-1.095920 1.307781 3.626708
-1.574856 1.498004 6.825663
-1.539037 1.483685 7.179742
-1.626943 1.518613 7.678961
-1.567851 1.495050 7.871794
-1.589903 1.503738 8.473030
-1.642206 1.524526 8.727645
-1.641020 1.523985 9.167167
-1.644648 1.525360 9.607764
-1.602941 1.508652 10.237459
-1.571099 1.495872 10.870776
0.180305 0.792022 0.416069
-0.594781 1.030763 1.278305
-1.177339 1.210251 1.606146
-1.104928 1.187844 2.200928
-1.213293 1.221202 2.455402
-1.254669 1.233851 3.127108
-1.286666 1.243647 3.550839
-1.323203 1.254843 3.974168
-1.347757 1.262371 4.232577
-1.287743 1.243821 4.584114
-1.355102 1.264491 5.171880
-1.219705 1.222694 5.621879
-1.278443 1.240732 6.045865
-1.599756 1.339725 6.257824
-1.678554 1.363933 6.758821
-1.641265 1.352387 7.113786
-1.761632 1.389381 7.776809
-1.717481 1.375732 8.052188
-1.743136 1.383547 8.654256
-1.798324 1.400516 8.909546
-1.818211 1.406565 9.431220
-1.865186 1.420950 10.034962
-1.765699 1.390230 10.422407
-1.485965 1.303951 10.866422
-0.279702 0.889006 0.406499
-0.876826 1.017742 1.267962
-1.274689 1.103566 1.519629
-1.293345 1.107517 2.028621
-1.314118 1.111936 2.454757
-1.339578 1.117367 2.880627
-1.382667 1.126577 3.471016
-1.411841 1.132822 3.813701
-1.444053 1.139723 4.156101
-1.479302 1.147279 4.498188
-1.430202 1.136617 4.934077
-1.396785 1.129328 5.453684
-1.358479 1.120996 5.892588
-1.640470 1.181769 6.449911
-1.875117 1.232374 6.674604
-1.836415 1.223968 7.029880
-1.846796 1.226119 7.630654
-1.849932 1.226718 8.151376
-1.842527 1.225054 8.591962
-1.917042 1.241085 8.929850
-1.899497 1.237244 9.290363
-1.945623 1.247108 9.895555
-1.864030 1.229430 10.365233
-1.671748 1.187871 10.783271
-0.846121 0.929385 0.453945
-1.054131 0.956877 1.226850
-1.363431 0.997865 1.644883
-1.380138 1.000019 2.069599
-1.397028 1.002211 2.411542
-1.427712 1.006208 2.918331
-1.465123 1.011099 3.424661
-1.486856 1.013945 3.683417
-1.534422 1.020183 4.188879
-1.579401 1.026090 4.611501
-1.510767 1.016942 4.881350
-1.509517 1.016663 5.646680
-1.362351 0.997077 6.016863
-1.525534 1.018674 6.425427
-1.888442 1.066783 6.797019
-1.933070 1.072668 7.052770
-1.897153 1.067849 7.408031
-1.913458 1.069924 8.008935
-1.869346 1.064029 8.285244
-1.996311 1.080794 8.866390
-1.996878 1.080804 9.306867
-2.002608 1.081499 9.748398
-1.896443 1.067353 10.135029
-1.860983 1.062553 10.769205
-1.022480 0.858048 0.410604
-1.023767 0.858069 0.674002
-1.332992 0.872255 1.264374
-1.642297 0.886481 1.598582
-1.562575 0.882727 2.108840
-1.480255 0.878877 2.456369
-1.495585 0.879546 2.716568
-1.524490 0.880818 3.141604
-1.579968 0.883280 3.813380
-1.612812 0.884746 4.155137
-1.667156 0.887181 4.660923
-1.588576 0.883526 4.849516
-1.652233 0.886390 5.355565
-1.512925 0.879895 5.806571
-1.687990 0.887903 6.297311
-1.967847 0.900750 6.767416
-1.998225 0.902127 6.942110
-1.976252 0.901049 7.379072
-1.975746 0.900949 7.898849
-1.947676 0.899602 8.256900
-2.038619 0.903738 8.675863
-2.095091 0.906244 9.360491
-2.040605 0.903700 9.558527
-2.070540 0.905005 10.082711
-1.915228 0.897753 10.660863
-0.388458 0.797272 0.507336
-0.989245 0.776868 0.686615
-1.300959 0.766197 1.362845
-1.511447 0.759008 1.702017
-1.521653 0.758623 1.963761
-1.556304 0.757349 2.638230
-1.584430 0.756333 3.064613
-1.604046 0.755630 3.325819
-1.655086 0.753812 3.916292
-1.697607 0.752308 4.341479
-1.735389 0.750976 4.684027
-1.697883 0.752173 5.203038
-1.721219 0.751355 5.381246
-1.619072 0.754717 6.081594
-1.758234 0.749961 6.326816
-2.011178 0.741337 6.635587
-2.000688 0.741617 7.155847
-2.095525 0.738326 7.658305
-2.082327 0.738710 8.098610
-2.038989 0.740139 8.377253
-2.150249 0.736292 8.879084
-2.132032 0.736857 9.240525
-2.137569 0.736604 9.684288
-2.116613 0.737211 10.398587
-1.801601 0.747842 10.762681
-0.653646 0.737208 0.358421
-1.254006 0.664894 0.954420
-1.459453 0.640127 1.295453
-1.673795 0.614267 1.797614
-1.593091 0.623913 2.227041
-1.606756 0.622230 2.487328
-1.627468 0.619688 2.830028
-1.677094 0.613619 3.502239
-1.692175 0.611779 3.679556
-1.756791 0.603906 4.350473
-1.775827 0.601590 4.527403
-1.824744 0.595643 4.950563
-1.790955 0.599632 5.468543
-1.850187 0.592444 5.890190
-1.619934 0.620076 6.358163
-1.786952 0.599923 6.764905
-2.153659 0.555752 7.132867
-2.133906 0.558064 7.569299
-2.102744 0.561761 7.925581
-2.127263 0.558722 8.527418
-2.183649 0.551901 8.782585
-2.261374 0.542438 9.547551
-2.208046 0.548825 9.745225
-2.122850 0.559005 10.212971
-1.992952 0.574536 10.873944
-2.202320 0.377084 7.192601
-2.183445 0.380864 7.628747
-2.169572 0.383624 8.066180
-2.126237 0.392408 8.341920
-2.138665 0.389799 8.863214
-2.234302 0.370260 9.280841
-2.239486 0.369138 9.721742
-2.176132 0.381959 10.270526
-2.026313 0.412385 10.849685
-1.446037 0.419509 1.154127
-1.737755 0.333833 1.323996
-1.664081 0.355362 1.998934
-1.675713 0.351907 2.258009
-1.698436 0.345171 2.682075
-1.731558 0.335369 3.188308
-1.750999 0.329622 3.446874
-1.641475 0.362104 1.311707
-1.731118 0.335329 4.303043
-1.804043 0.313816 4.973295
-2.025516 0.248755 5.205638
-2.164011 0.208042 5.530031
-1.845398 0.301910 3.422984
-1.930821 0.276347 6.591547
-1.972443 0.264087 6.847651
-2.182736 0.202246 7.493294
-2.120708 0.220428 7.685490
-2.123969 0.219392 8.204976
-2.245351 0.183665 8.785126
-2.263309 0.178313 9.305597
-2.210311 0.193844 9.501964
-2.165381 0.206940 10.131210
-2.087389 0.229767 10.600919
-0.907190 0.520015 0.532880
-1.283653 0.375845 0.875377
-1.571377 0.265635 1.295777
-1.764856 0.191529 1.548111
-1.693103 0.218904 2.139613
-1.709497 0.212575 2.479911
-1.739119 0.201156 2.985033
-1.775038 0.187327 3.489686
-1.788953 0.181973 3.664433
