1.762084 0.352530 3.795091
1.722848 0.354151 4.576836
1.599657 0.327849 5.547218
1.561322 0.330592 6.365827
1.835154 0.455847 7.366431
2.261955 0.635379 8.184037
2.244149 0.646670 9.037817
1.815084 0.498968 9.765723
2.250292 0.293898 1.591709
1.945023 0.224485 2.489563
1.882237 0.225497 3.417292
1.810626 0.224325 4.362345
1.706045 0.210406 5.149222
1.647358 0.213302 6.111206
1.819175 0.283932 7.139831
2.130610 0.393058 8.085838
2.199023 0.431578 9.000709
2.300484 0.129504 1.638789
1.888262 0.063784 2.607357
1.837872 0.069980 3.430540
1.860811 0.092706 4.321082
1.793198 0.095464 5.150405
1.571759 0.067952 6.056649
1.640847 0.099216 6.897207
1.983013 0.191220 7.948246
2.191538 0.253870 8.914674
1.945078 -0.122888 1.126557
1.935444 -0.100105 2.327894
1.929672 -0.084254 3.158247
1.919177 -0.069219 3.975446
1.833296 -0.060339 4.929088
1.559869 -0.073050 5.906611
0.982367 -0.132000 6.358694
2.132624 0.048583 8.631204
2.022863 0.053359 9.519823
1.487928 -0.002532 9.873945
1.964723 -0.275277 1.039219
2.044144 -0.250389 2.141706
1.917066 -0.236700 3.082099
1.885448 -0.222090 3.882354
1.859416 -0.201337 4.982093
1.711916 -0.191215 5.782210
1.611577 -0.177453 6.674038
1.830423 -0.150470 7.609617
2.027914 -0.125185 8.501120
2.026438 -0.111574 9.191897
1.509363 -0.118213 9.867929
1.963957 -0.451439 0.961657
2.144301 -0.441162 1.937205
1.977778 -0.418164 2.677470
1.860021 -0.393300 3.635457
1.973425 -0.381548 4.516084
1.888534 -0.359225 5.428853
1.833811 -0.334942 6.516953
1.806259 -0.316193 7.394342
1.896367 -0.307831 8.044742
2.004451 -0.292923 9.071355
1.612937 -0.259950 9.746092
2.057867 -0.660331 -0.209861
2.014213 -0.631776 0.922251
2.191344 -0.635005 1.972846
1.954655 -0.588253 2.695595
1.844908 -0.556059 3.557725
1.878469 -0.537842 4.700327
1.978114 -0.534947 5.527441
1.652601 -0.477486 6.178883
1.313040 -0.411207 7.176081
1.688854 -0.447962 7.906531
1.900194 -0.456840 8.908156
1.587796 -0.397840 9.726515
2.183673 -0.818839 1.771680
1.938001 -0.751817 2.446315
1.726215 -0.683798 3.534017
1.709093 -0.663910 4.333127
1.847546 -0.676868 5.179349
1.650675 -0.579116 7.896772
1.788332 -0.591874 8.744261
1.606790 -0.539685 9.374417
1.761055 -0.894578 1.193686
1.861116 -0.901239 2.332333
1.815649 -0.875479 2.915733
1.728244 -0.830362 3.824046
1.881672 -0.855645 4.840305
1.786112 -0.809910 5.659455
1.453921 -0.689912 6.619121
1.371378 -0.645392 7.569569
1.590646 -0.698504 8.199673
1.632713 -0.690183 9.216903
1.237075 -0.560014 9.742567
1.456555 -0.978137 -0.136745
1.925087 -1.116803 2.050582
1.720431 -1.021357 2.735612
1.584069 -0.949871 3.563218
1.743452 -0.988585 4.705064
1.886477 -1.025271 5.638206
1.501493 -0.823968 7.950226
1.522019 -0.808331 9.067316
1.332288 -0.719750 9.706911
1.450843 -1.105546 1.041422
1.704816 -1.204883 2.207570
1.660068 -1.159511 3.266736
1.817060 -1.219967 4.030670
1.886838 -1.229025 5.178463
1.722925 -1.137782 5.656902
0.999974 -0.763271 6.500158
0.903818 -0.697861 7.320098
1.336589 -0.888092 8.356162
1.422572 -0.910445 9.262709
1.070791 -0.720670 10.015255
1.491281 -1.342621 -0.163482
1.654210 -1.392823 1.937943
1.449550 -1.249742 2.758971
1.431564 -1.222715 3.456186
1.562330 -1.274024 4.666307
1.754547 -1.372629 5.442503
1.195676 -0.979664 7.781729
1.124218 -0.909871 8.926272
1.034609 -0.836294 9.758431
1.346757 -1.413589 1.184401
1.357033 -1.393575 2.308474
1.021339 -1.130286 3.059136
1.811670 -1.656879 5.102837
1.195951 -1.146027 7.621100
1.122776 -1.074645 8.356320
1.075256 -1.016697 9.307453
0.656742 -0.692034 10.096917
1.239909 -1.511453 2.068764
1.026233 -1.304961 2.887549
1.705645 -1.840235 4.921211
1.350098 -1.509238 5.802085
0.794514 -1.012869 6.381462
0.568594 -0.800182 7.031690
0.684219 -0.876912 7.926965
0.769506 -0.921801 9.034965
0.701815 -0.847598 9.630320
1.078263 -1.592527 0.730348
1.144159 -1.634006 1.616722
1.296579 -1.760316 2.584603
1.587959 -2.018848 3.826668
1.570937 -1.977301 4.696610
1.405658 -1.795087 5.259690
0.997223 -1.365896 5.899471
0.597286 -0.941457 6.674842
0.580974 -0.901225 7.523398
0.778434 -1.072768 8.495422
0.634206 -1.337900 0.009582
0.676274 -1.359250 0.949543
1.248772 -1.917652 5.053437
0.717476 -1.214416 7.246305
0.479629 -0.898296 8.270197
0.593259 -1.009879 9.060382
0.508816 -0.879439 10.014478
0.762950 -1.723341 0.759718
0.746728 -1.659118 1.939050
0.512366 -1.307079 2.362139
1.032286 -1.969829 4.835035
0.816738 -1.640570 5.382353
0.604090 -1.302874 6.293513
0.476466 -1.095457 6.977281
0.416180 -0.980422 7.792431
0.535484 -1.121958 8.664093
0.482478 -1.017675 9.471400
0.661640 -1.828430 0.613931
0.662031 -1.792245 1.561080
0.556180 -1.570626 2.647294
0.795609 -1.932513 3.773769
0.876053 -2.036629 4.601388
0.648863 -1.627912 5.211798
0.623163 -1.546468 6.185948
0.498656 -1.309687 6.849269
0.336521 -1.006791 7.573135
0.476989 -1.202399 8.663367
0.500790 -1.214041 9.400850
0.360539 -1.546226 1.240097
0.563059 -1.917517 2.306368
0.693817 -2.127827 3.641203
0.752634 -2.207782 4.563463
0.559039 -1.778379 5.180854
0.196710 -1.001412 5.749583
0.128237 -0.825837 6.488742
0.203092 -0.929440 7.621935
0.334313 -1.156700 8.605387
0.355242 -1.174286 9.172306
0.100090 -0.604219 10.076672
0.270756 -1.746601 0.019941
0.246962 -1.641726 0.791292
0.265381 -1.623876 1.983960
0.113705 -1.189748 2.664813
0.179384 -1.272119 4.278721
0.031380 -0.838264 5.128101
-0.095305 -0.455770 6.056296
0.207694 -1.135177 8.090864
0.254556 -1.219127 8.787396
0.165618 -0.941872 9.596778
0.177569 -1.780086 2.305370
0.243740 -1.921181 3.528590
0.155980 -1.450228 5.910552
0.071120 -1.089422 6.879378
0.065134 -1.012250 7.677421
0.138989 -1.203535 8.565758
0.158101 -1.215513 9.325022
-0.032425 -0.520496 9.876921
-0.014869 -1.800688 -0.058108
-0.055067 -1.506346 0.910725
-0.026609 -1.549109 1.891032
0.025226 -1.692293 3.019788
0.072547 -1.848763 3.791090
-0.052949 -1.156864 4.531727
-0.127743 -0.714148 5.278560
-0.213083 -0.222881 5.991059
0.023426 -1.179874 8.085889
0.051769 -1.225728 9.029394
0.001868 -0.909982 9.732643
-0.190153 -1.355632 1.333698
-0.185578 -1.227233 2.312579
-0.133367 -1.500969 3.338747
-0.108971 -1.565960 4.185253
-0.149099 -1.068816 5.069423
-0.163521 -0.772798 6.071721
-0.141059 -0.818700 6.932437
-0.081127 -1.186426 7.798207
-0.051658 -1.285125 8.702905
-0.060652 -1.050042 9.622465
-0.329848 -1.166896 0.089624
-0.320721 -0.890028 1.033261
-0.286850 -1.331493 1.976365
-0.253532 -1.569021 3.246713
-0.231986 -1.775466 3.976190
-0.231714 -1.262948 4.882717
-0.234320 -0.730089 5.679176
-0.219258 -0.661695 6.559687
-0.186201 -1.007853 7.627618
-0.167905 -1.110462 8.373661
-0.151369 -1.037948 9.335821
-0.154213 -0.649365 9.868981
-0.407620 -1.012624 0.782479
-0.397267 -1.193890 1.766788
-0.389062 -1.504065 2.970746
-0.380472 -1.740122 4.005445
-0.345543 -1.229967 4.471337
-0.297407 -0.616855 5.342323
-0.278542 -0.576256 6.191895
-0.267609 -0.800512 7.314942
-0.263574 -1.038987 8.125762
-0.251221 -1.149357 9.030634
-0.227840 -0.940657 9.680480
-0.476186 -0.955769 1.314431
-0.461616 -1.008556 2.397867
-0.494019 -1.535249 4.295777
-0.399984 -0.973814 5.255306
-0.332176 -0.537654 5.737815
-0.311472 -0.558858 6.917577
-0.365103 -1.097738 7.832756
-0.367107 -1.238437 8.673251
-0.319193 -1.012270 9.562776
-0.541294 -0.851733 1.336292
-0.551569 -0.978733 2.211941
-0.608067 -1.335158 3.303168
-0.655857 -1.648684 4.357307
-0.531373 -1.159703 5.180325
-0.386258 -0.560992 5.827240
-0.379627 -0.616377 6.757937
-0.425303 -0.911610 7.717273
-0.427116 -0.989709 8.478253
-0.584176 -0.627520 -0.095553
-0.636122 -0.922884 1.792336
-0.709205 -1.242964 3.026673
-0.750370 -1.446969 4.075112
-0.600617 -1.010819 4.818059
-0.424052 -0.473433 5.349287
-0.395503 -0.460482 6.536304
-0.456011 -0.727691 7.591073
-0.466415 -0.823482 8.514725
-0.481292 -0.928236 9.355723
-0.351620 -0.540912 9.855193
-0.522834 -0.376846 1.342557
-0.623320 -0.684704 2.418918
-0.707521 -0.961281 3.671130
-0.767980 -1.153532 4.450924
-0.538710 -0.616708 5.111330
-0.354916 -0.193002 5.765695
-0.384148 -0.331007 6.990570
-0.558539 -0.815505 7.921698
-0.580561 -0.924747 8.943725
-0.521265 -0.809413 9.556878
-0.736088 -0.726629 1.962783
-0.890052 -1.078595 2.970994
-0.972953 -1.287898 3.962012
-0.746746 -0.874119 4.820988
-0.451746 -0.322620 5.672051
-0.471686 -0.394554 6.399387
-0.589047 -0.674021 7.421061
-0.573792 -0.691442 8.505446
-0.578506 -0.729375 9.151330
-0.359605 -0.327702 9.954067
-0.668323 -0.467339 2.308571
-0.834451 -0.786782 3.578531
-0.888123 -0.903211 4.338079
-0.579558 -0.428601 5.114453
-0.381633 -0.140282 6.037945
-0.536133 -0.419090 6.736427
-0.695649 -0.717917 7.747168
-0.690946 -0.754294 8.910674
-0.659112 -0.733104 9.724227
-0.796375 -0.520670 1.702296
-0.880633 -0.677274 2.913054
-1.023886 -0.905777 3.848826
-0.853567 -0.703392 4.797064
-0.572141 -0.334412 5.335731
-0.495411 -0.262340 6.331110
-0.673001 -0.540542 7.340345
-0.736349 -0.663630 8.409690
-0.738927 -0.686701 8.990355
-0.482051 -0.361187 9.817502
-0.457627 0.009814 0.954950
-0.732543 -0.347626 2.250011
-0.990509 -0.679018 3.332573
-1.066263 -0.793466 4.216898
-0.717658 -0.418356 5.158151
-0.504722 -0.192158 5.829872
-0.590277 -0.319843 6.776664
-0.751555 -0.532869 7.646683
-0.728057 -0.538566 8.734405
-0.696002 -0.528996 9.644960
-0.888005 -0.399740 1.779715
-0.777228 -0.310037 2.463964
-0.899163 -0.465651 3.764463
-0.989147 -0.574135 4.494766
-0.630462 -0.246636 5.372506
-0.566545 -0.208145 6.246310
-0.732331 -0.398534 7.249458
-0.901014 -0.584535 7.991525
-0.839362 -0.555984 9.144075
-0.629360 -0.367789 9.786063
-0.402269 0.121186 1.107356
-0.832726 -0.259380 2.069638
-1.061043 -0.473666 3.064570
-1.210365 -0.628072 4.271145
-0.922639 -0.412367 5.135474
-0.562106 -0.128225 5.678419
-0.612150 -0.200872 6.897439
-0.791635 -0.374123 7.866557
-0.835724 -0.425034 8.430209
-0.785518 -0.408945 9.421052
-0.278692 -0.005105 10.012741
-0.916729 -0.234309 1.928214
-0.888253 -0.232136 2.663706
-0.966689 -0.315193 3.831846
-0.967766 -0.337599 4.729213
-0.659356 -0.135514 5.295471
-0.553840 -0.086690 6.331110
-0.755851 -0.248936 7.198489
-0.871444 -0.353028 8.161110
-0.920737 -0.407760 9.000317
-0.573358 -0.188204 9.972324
-0.523962 0.097131 1.219524
-0.800478 -0.089400 2.338659
-0.990907 -0.223524 3.357059
-0.945392 -0.217076 4.233131
-0.649332 -0.066700 5.191577
-0.300456 0.115677 6.094871
-0.525384 -0.033637 6.899613
-0.886144 -0.265717 7.866665
-0.931870 -0.317936 8.986017
-0.775967 -0.243932 9.717283
-0.285302 0.278746 -0.135499
-0.884375 -0.053742 2.029598
-0.909532 -0.088147 3.054148
-0.842647 -0.076683 3.984190
-0.704930 -0.031268 4.903065
-0.600663 0.001453 5.674702
-0.708812 -0.072505 6.701959
-0.920570 -0.191992 7.556814
-0.858145 -0.185465 8.615403
-0.817113 -0.183403 9.412968
-0.355096 0.022120 10.067689
-0.988041 -0.011369 1.739792
-0.791478 0.038106 2.897814
-0.898683 -0.018084 3.648848
-0.923582 -0.046636 4.557106
-0.628660 0.047138 5.369438
-0.496700 0.070912 6.593797
-0.797353 -0.056973 7.294131
-0.903193 -0.118264 8.310901
-0.961563 -0.155744 9.045838
-0.493653 -0.001351 10.068858
-0.616038 0.187251 1.074740
-0.787622 0.111232 2.368757
-1.006227 0.025755 3.464554
-1.133290 -0.027486 4.274380
-0.773265 0.061213 5.000726
-0.371211 0.155196 6.058236
-0.569028 0.081123 6.890647
-0.892576 -0.032819 7.901589
-1.000278 -0.081124 8.742409
-0.661918 0.251542 -0.203572
-0.714717 0.219977 0.842214
-0.938246 0.152521 1.986790
-1.196913 0.084761 2.800294
-1.316870 0.036621 4.006824
-1.060116 0.072156 4.773115
-0.654387 0.140027 5.402695
-0.555793 0.139955 6.377432
-0.826546 0.068212 7.269486
-0.973799 0.021908 8.116107
-0.979338 0.002669 9.015926
-0.631109 0.056595 9.770918
-0.645856 0.272498 1.379315
-0.821102 0.234727 2.266873
-1.148592 0.175113 3.374303
-1.225764 0.146632 4.360483
-0.776390 0.185314 5.007541
-0.426755 0.209237 5.821188
-0.559505 0.173726 6.840211
-0.912103 0.112245 7.896628
-1.040952 0.082323 8.657315
-0.829282 0.088105 9.587116
-0.765716 0.349730 -0.055458
-0.567092 0.336930 0.895232
-1.013824 0.300782 2.039799
-1.422437 0.269880 2.977430
-1.273218 0.251145 4.152672
-0.889775 0.251297 4.731086
-0.554686 0.243161 5.654535
-0.556392 0.227180 6.459868
-0.868462 0.198335 7.441054
-0.951669 0.179411 8.270557
-0.928640 0.164067 9.081458
-0.495895 0.161416 9.876921
-1.292493 0.399801 1.860158
-1.339282 0.382813 2.836299
-1.585100 0.372072 3.998992
-1.409355 0.353723 4.482546
-0.797215 0.307926 5.251670
-0.039556 0.255855 5.970659
-0.952853 0.262842 7.921698
-0.998422 0.243284 9.024561
-0.689483 0.211787 9.836264
-0.966225 0.481970 1.146988
-0.917360 0.454239 2.207756
-1.505093 0.491352 4.307994
-1.076021 0.422108 4.887520
-0.888543 0.379365 5.766713
-0.825142 0.348956 6.863713
-0.790084 0.327034 7.726330
-0.879809 0.322373 8.564631
-0.782321 0.288869 9.587116
-0.292517 0.214447 10.016958
-0.971148 0.597821 -0.236907
-0.742433 0.528219 0.728002
-1.153911 0.593765 1.940356
-1.433728 0.630299 3.161960
-1.413605 0.606477 4.121233
-1.059030 0.516697 4.721751
-0.646878 0.406884 5.689211
-0.541260 0.370898 6.324768
-0.687298 0.382032 7.354280
-0.809237 0.387950 8.380844
-0.875067 0.386884 9.145577
-0.487479 0.283126 10.079590
-0.987700 0.681581 0.701228
-1.129450 0.706255 1.637160
-1.318301 0.737876 2.944569
-1.656571 0.820363 4.037992
-1.387645 0.722878 4.709806
-0.869797 0.550788 5.248596
-0.086659 0.293638 5.913619
-0.812741 0.472754 8.161110
-0.947898 0.499056 8.919457
-0.629034 0.379446 9.910268
-1.029677 0.796759 0.836595
-1.241246 0.864706 1.640400
-1.388653 0.901898 2.676656
-1.578893 0.956058 3.724915
-1.239009 0.803084 4.489799
-0.857297 0.634337 5.205544
-0.311924 0.394141 6.185847
-0.359695 0.399217 6.849104
-0.824070 0.564155 7.871861
-0.879960 0.564187 8.925017
-0.677382 0.467123 9.657197
-0.607124 0.722270 -0.126370
-0.918866 0.823953 2.332392
-1.235090 0.958597 3.401838
-1.371336 1.005945 4.344911
-1.024174 0.818439 4.965831
-0.586378 0.580077 5.834954
-0.444181 0.491891 6.604151
-0.640961 0.568349 7.601079
-0.741968 0.599592 8.474809
-0.691419 0.553366 9.421052
-0.262569 0.327380 9.932985
-0.861648 0.958659 0.029852
-0.747092 0.865413 1.046743
-1.005762 0.998219 2.109702
-1.260226 1.124692 3.335692
-1.670570 1.357597 4.061595
-1.280608 1.098770 4.991575
-0.712552 0.738232 5.633564
-0.026202 0.303018 6.391852
-0.665645 0.650033 8.211027
-0.688864 0.644016 9.081458
-0.431517 0.472387 9.730657
-0.993811 1.174583 0.832100
-1.088124 1.223930 1.655658
-1.097388 1.201865 2.831866
-1.431182 1.427662 3.665024
-1.041457 1.119989 4.484659
-0.603858 0.781311 5.128699
-0.635464 0.778230 6.203102
-0.641466 0.764014 6.961902
-0.571174 0.685996 8.026523
-0.693401 0.758473 8.746908
-0.536409 0.619788 9.677224
-0.744498 1.108254 1.422577
-0.833998 1.161951 2.360782
-1.237133 1.463469 4.316508
-0.809146 1.067303 5.134656
-0.536316 0.809853 5.842911
-0.334763 0.605668 6.898637
-0.466614 0.700793 7.671137
-0.564168 0.764550 8.494766
-0.641933 1.202293 -0.148078
-0.522454 1.046780 0.977223
-0.826517 1.323867 2.286755
-1.595675 2.060157 4.355387
-1.196209 1.631694 4.900934
-0.611537 1.009486 5.527004
-0.089720 0.448328 6.291159
-0.100878 0.434662 7.177336
-0.423626 0.738181 8.236550
-0.461062 0.750823 9.152881
-0.298003 0.560285 9.925642
-0.561942 1.279445 -0.167801
-0.483684 1.152341 0.837745
-0.715586 1.398219 2.044907
-1.203308 1.922534 4.353347
-0.948316 1.588950 5.050204
-0.699118 1.267992 5.569688
-0.138304 0.564277 6.143433
-0.078614 0.458508 7.192878
-0.365083 0.777470 8.196526
-0.422018 0.820212 9.057214
-0.304546 0.645527 10.050832
-0.427158 1.275664 0.019736
-0.444128 1.271184 0.855253
-0.628470 1.492278 2.197282
-1.041914 2.027781 4.070963
-0.906122 1.797186 5.024240
-0.712169 1.489557 5.762711
-0.298835 0.872398 6.234691
-0.177954 0.665460 7.130962
-0.349165 0.879394 8.131166
-0.427022 0.961232 9.028878
-0.304750 0.760920 9.677224
-0.329171 1.284808 0.973233
-0.547158 1.624495 2.010251
-0.514830 1.537566 2.774592
-0.844182 2.019452 5.128624
-0.670303 1.692649 5.704267
-0.363430 1.124570 6.502076
-0.218901 0.844795 7.184860
-0.262978 0.878191 8.280933
-0.356481 1.017768 8.879682
-0.296911 0.877561 9.786398
-0.413460 1.635141 2.155850
-0.330349 1.436420 2.677110
-0.715132 2.129342 5.197709
-0.545990 1.747888 5.759511
-0.325595 1.258190 6.332034
-0.194796 0.948246 7.091533
-0.214696 0.948196 8.001467
-0.266334 1.006718 9.088587
-0.219333 0.865670 10.006147
-0.232757 1.705281 -0.058591
-0.239521 1.658482 1.082767
-0.283525 1.716474 2.153665
-0.224662 1.510487 2.972396
-0.545230 2.261599 5.012474
-0.398087 1.822656 5.727125
-0.216328 1.293133 6.387513
-0.109567 0.956363 7.226735
-0.119674 0.919320 8.355605
-0.184627 1.054736 9.063028
-0.141178 0.898966 9.732643
-0.086282 1.594451 1.016226
-0.160506 1.771298 2.190547
-0.118070 1.555153 3.104809
-0.377089 2.334165 4.971597
-0.259347 1.850732 5.905500
-0.115643 1.288202 6.666280
-0.063964 1.055173 7.363488
-0.090218 1.092204 8.130669
-0.122879 1.140374 9.056072
-0.083677 0.927446 10.083330
-0.019851 1.787817 2.094058
-0.043334 1.818528 2.955003
-0.129389 2.133269 4.109858
-0.190948 2.353843 4.981189
-0.115722 1.894033 5.798545
-0.018824 1.357017 6.304724
0.028956 1.034214 7.128106
-0.010836 1.118346 8.269558
-0.058769 1.289987 8.949095
-0.026030 1.023169 9.964688
0.112609 1.977187 2.000842
0.088097 2.026870 2.953087
0.041894 2.257140 3.978637
0.015624 2.356585 4.738974
0.026083 2.117932 5.557249
0.080087 1.493188 6.361044
0.124594 0.987476 6.971870
0.087128 1.104646 8.195178
0.040028 1.365270 9.094869
0.050873 1.183622 9.572703
0.269839 2.117650 1.871837
0.258384 1.868700 2.836740
0.249346 1.649589 3.633269
0.223973 1.830837 4.635049
0.197854 2.125121 5.499309
0.200684 1.570220 6.216260
0.209939 0.882840 6.813740
0.185677 1.013956 7.837088
0.151959 1.449084 8.867233
0.143418 1.346247 9.458381
0.465141 1.805591 0.614324
0.459188 2.046914 1.623916
0.431259 1.884703 2.557524
0.410018 1.844787 3.512746
0.405358 2.021293 4.266606
0.377757 1.968235 5.504318
0.348227 1.628526 5.997267
0.302246 1.041267 6.593542
0.286246 1.162831 7.758559
0.296416 1.612537 8.566305
0.271960 1.451195 9.327117
0.207718 0.673330 10.285383
0.625370 1.813696 0.419894
0.637282 2.041792 1.450541
0.591549 1.866434 2.489563
0.564267 1.806352 3.427015
0.545333 1.785463 4.226058
0.527244 1.790977 5.171125
0.479985 1.563676 5.916001
0.419327 1.236152 6.616861
0.423525 1.400442 7.578588
0.435067 1.647195 8.760866
0.400425 1.513817 9.544035
0.304438 0.898879 9.963570
0.701358 1.550502 1.150200
0.741392 1.834808 2.288013
0.720282 1.813779 3.099991
0.694405 1.785738 4.070502
0.668188 1.749900 4.972366
0.613697 1.572570 5.720317
0.540110 1.323630 6.626690
0.553112 1.467487 7.560605
0.595726 1.756993 8.627999
0.543889 1.605241 9.525117
0.421619 1.094481 9.967048
0.852264 1.589520 1.361048
0.900329 1.796702 2.133870
0.845885 1.691890 3.198710
0.840571 1.726694 3.975446
0.812371 1.704640 5.008561
0.725979 1.477013 5.782287
0.629251 1.227548 6.729209
0.699872 1.500525 7.395066
0.760741 1.772095 8.511098
0.722184 1.703590 9.350739
0.573498 1.259340 9.898147
1.053396 1.666781 1.135874
1.033339 1.662376 1.992015
0.962689 1.542966 3.031422
0.949434 1.562315 4.020654
0.932277 1.561426 4.807779
0.844140 1.385225 5.586394
0.739585 1.184095 6.660194
0.826872 1.442164 7.478770
0.943130 1.769332 8.254091
0.897414 1.700275 9.082864
0.718368 1.301286 9.883774
1.129502 1.446356 1.079975
1.148977 1.532345 2.175596
1.077564 1.435687 3.176022
1.062680 1.431818 3.758095
1.039031 1.430918 4.803289
1.018848 1.425140 5.580373
0.881885 1.192310 6.410201
0.958960 1.390054 7.474401
1.098418 1.699401 8.288085
1.051807 1.647099 9.188626
0.838707 1.258610 9.877751
1.318594 1.503478 2.019364
1.243507 1.410531 2.779774
1.163865 1.312757 3.607872
1.123247 1.292544 4.818367
1.087123 1.263824 5.609386
0.973779 1.104454 6.250454
1.087172 1.329290 7.347370
1.282446 1.678451 8.225579
1.248123 1.659930 9.210214
1.019839 1.315240 9.871245
1.448677 1.403363 1.903897
1.320728 1.261524 2.859055
1.269052 1.216016 3.598111
1.250431 1.224342 4.606115
1.225261 1.219280 5.479186
0.917643 0.819349 6.008033
1.440020 1.599936 8.153360
1.424450 1.605808 8.963496
1.196886 1.323133 9.750040
1.680566 1.410469 1.717454
1.490632 1.216881 2.510163
1.385652 1.129058 3.586451
1.376359 1.142687 4.393944
1.276765 1.052734 5.194141
0.889415 0.626913 5.778729
1.878164 1.828498 8.101117
1.782299 1.745710 8.997720
1.612519 1.109918 2.346229
1.533918 1.061450 3.352670
1.449238 1.001323 4.149581
1.360130 0.936681 4.938447
1.342282 0.950693 6.075555
2.164842 1.804545 8.132724
2.157160 1.817715 8.881423
1.760002 1.453469 9.632221
1.107676 0.832743 10.049736
1.765415 1.014808 1.922471
1.602832 0.908238 2.963241
1.533029 0.872873 3.816626
1.462840 0.836689 4.650307
1.400169 0.805184 5.426139
2.362079 1.651723 7.720785
2.507755 1.793005 8.580006
2.052098 1.439581 9.354770
1.408521 0.930073 10.045000
2.027986 0.976034 1.639823
1.691006 0.767407 2.551504
1.615769 0.741444 3.615710
1.631982 0.773860 4.506099
1.583060 0.755036 5.117072
1.291417 0.576319 5.982976
2.679942 1.581742 8.312139
2.512781 1.481724 8.909392
1.044666 0.166700 -0.097477
1.500134 0.458530 1.289157
1.855629 0.682883 2.221132
1.796819 0.671503 3.197103
1.678461 0.625291 4.137593
1.576954 0.591060 5.181437
1.671554 0.659017 5.791961
2.576898 1.228459 8.081120
2.681445 1.305338 8.833839
2.201095 1.048511 9.608703
1.345097 0.573132 10.211944
1.812058 0.453112 0.866488
1.954932 0.543128 1.941842
1.753363 0.471536 2.964747
1.670328 0.450245 3.762120
1.589004 0.434506 4.777498
1.500363 0.412066 5.641862
1.283763 0.328417 6.433065
2.777100 1.068763 8.480242
2.413838 0.912668 9.082468
1.664968 0.584608 10.036629
2.190954 0.463333 1.668703
1.843430 0.351482 2.569713
1.823604 0.362576 3.448232
1.809250 0.376639 4.369742
1.688655 0.351073 5.309433
1.810223 0.412465 6.048104
2.030165 0.520702 7.250328
2.435903 0.690248 8.042400
2.464257 0.724311 9.149191
1.987542 0.226280 2.229832
1.872745 0.215425 3.294305
1.793113 0.210807 4.174354
1.731407 0.211444 5.061332
1.595325 0.190476 5.929198
1.638127 0.217515 6.650595
1.998113 0.343481 7.783565
2.282400 0.443160 8.688108
2.100357 0.409556 9.578934
1.428999 0.233115 10.310323
1.758078 -0.013096 1.275002
2.001299 0.054477 2.296674
1.864710 0.049348 3.352670
1.841472 0.064014 4.303917
1.823439 0.077322 5.137831
1.623967 0.053333 5.860620
1.594289 0.068240 6.885648
2.015285 0.165810 7.691127
2.299271 0.239507 8.625775
1.974408 -0.106780 2.221132
1.920102 -0.099754 2.882523
1.932921 -0.079032 3.851206
1.817100 -0.073080 4.807779
1.639648 -0.080880 5.423052
1.376743 -0.088744 6.520154
1.712630 -0.031712 7.479815
2.136706 0.036120 8.481655
2.142944 0.052347 9.261761
1.727196 0.015920 9.791010
2.170336 -0.279120 1.870422
1.885291 -0.269786 2.711711
1.856383 -0.253722 3.561373
1.877663 -0.238389 4.309066
1.776077 -0.223966 5.169902
1.507954 -0.213354 6.053868
1.493535 -0.194005 7.050859
1.969663 -0.167327 7.782740
2.110372 -0.139693 8.997631
1.850435 -0.460354 1.165831
1.970022 -0.446099 2.248220
1.914899 -0.424985 3.146979
1.833063 -0.399273 4.196875
1.869971 -0.385081 5.025288
1.676386 -0.359749 5.717079
1.302300 -0.322389 6.468703
1.550758 -0.319290 7.378685
1.949227 -0.320417 8.530327
1.948006 -0.306450 9.231727
1.399972 -0.255619 10.135853
1.929964 -0.627736 1.057965
2.095508 -0.633640 1.937205
1.880802 -0.585523 2.822890
1.799456 -0.555088 3.769658
1.943298 -0.557956 4.646934
1.784536 -0.517062 5.567970
1.927933 -0.520856 6.395735
1.974178 -0.507558 7.389833
1.871231 -0.478431 8.117762
1.879731 -0.458919 9.155186
1.549288 -0.399189 9.800968
1.924571 -0.798143 0.989929
2.124436 -0.826313 1.839547
1.932070 -0.765877 2.665337
1.835513 -0.725531 3.573530
1.856025 -0.707788 4.678450
1.915820 -0.705469 5.462632
1.843216 -0.673386 6.231671
1.592386 -0.594499 7.312549
1.661915 -0.595074 8.063062
1.826207 -0.612107 9.063445
1.506124 -0.527114 9.669670
1.933495 -0.985717 0.777406
1.965687 -0.969088 2.070648
1.774587 -0.890838 2.926823
1.699947 -0.849168 3.796863
1.877203 -0.891462 4.463046
1.841465 -0.854725 5.688991
1.666485 -0.751304 8.004971
1.777979 -0.768765 8.864820
1.423517 -0.638526 9.734370
1.742811 -1.099630 0.980505
1.871683 -1.130675 2.013589
1.711558 -1.046362 2.868656
1.694441 -1.024643 3.554132
1.756140 -1.021902 4.871882
1.862780 -1.052868 5.480002
1.456914 -0.826096 8.258217
1.563813 -0.856949 8.876618
1.316699 -0.740112 9.575253
1.591117 -1.208691 0.807248
1.794935 -1.286924 1.955751
1.608132 -1.170542 2.917126
1.410842 -1.051667 3.750341
1.598670 -1.128266 4.605745
1.741700 -1.176576 5.708825
1.385005 -0.944160 8.003781
1.443794 -0.954478 8.887132
1.180934 -0.804630 9.612450
1.718752 -1.509969 -0.130020
1.780223 -1.505482 1.705006
1.572450 -1.355407 2.598821
1.179094 -1.091394 3.427483
1.745362 -1.397435 5.413620
1.315443 -1.112379 6.169115
0.886198 -0.828362 6.898002
0.906472 -0.823935 7.629766
1.127139 -0.936631 8.685632
1.095383 -0.896991 9.539521
1.628230 -1.630296 1.638789
1.410658 -1.450595 2.381785
0.997924 -1.120358 3.358407
1.672131 -1.565715 5.584993
1.278758 -1.259042 6.187882
0.767628 -0.861430 6.936187
0.850400 -0.901605 7.798575
1.124701 -1.082567 8.713811
1.450872 -1.726193 1.697025
1.262589 -1.540279 2.469010
1.258729 -1.504784 3.688116
1.533731 -1.726004 4.471840
1.575505 -1.736036 5.486108
1.157561 -1.348194 6.256130
0.712726 -0.945229 6.702274
0.745642 -0.943882 7.852880
1.049919 -1.192687 8.566721
0.908347 -1.041114 9.594642
0.882121 -1.410213 1.248030
1.083023 -1.587874 2.299832
1.102971 -1.581640 3.244063
1.266735 -1.713903 4.543117
1.421402 -1.853752 5.244742
0.819832 -1.160291 7.775456
0.770446 -1.090204 8.446054
0.794230 -1.084314 9.517586
0.397199 -0.660464 9.997883
0.912398 -1.642190 2.061869
0.447244 -1.045280 2.911235
1.257725 -1.971879 5.057952
0.716327 -1.234938 7.395152
0.565475 -1.022629 8.269280
0.627771 -1.068462 9.245824
0.419742 -0.789919 9.996154
0.609250 -1.546753 -0.107917
0.616489 -1.524525 0.830459
1.073898 -2.048779 4.882970
0.582226 -1.254131 7.146498
0.411172 -0.972536 8.081051
0.508793 -1.079931 9.074604
0.414498 -0.912434 9.941063
0.442979 -1.526585 0.127346
0.455090 -1.510362 1.065276
0.545893 -1.630029 2.067862
0.652696 -1.779207 3.036555
0.823753 -2.031040 4.265545
0.793652 -1.953723 4.873924
0.423802 -1.207073 7.268139
0.357038 -1.059442 8.021377
0.404841 -1.102777 9.040549
0.348746 -0.977192 9.712027
0.357226 -1.647980 -0.039160
0.349805 -1.585873 0.947602
0.429297 -1.709485 1.950671
0.532522 -1.885211 2.928238
0.635904 -2.057954 3.976724
0.526253 -1.786645 4.746774
0.277046 -1.137542 7.191101
0.268534 -1.079024 8.051177
0.322417 -1.145808 9.094426
0.259857 -0.984253 9.678282
0.222180 -1.684146 -0.068505
0.239966 -1.685517 0.751824
0.266867 -1.694859 1.865589
0.040291 -1.036536 2.606876
0.228996 -1.437698 4.558677
0.090422 -1.027042 5.152210
-0.067327 -0.552372 5.953433
0.209319 -1.190175 7.947127
0.256431 -1.270166 8.786510
0.166028 -0.970167 9.734195
0.123911 -1.772854 0.828717
0.143402 -1.780123 1.680083
-0.018343 -1.127114 2.639983
0.089885 -1.382877 4.450924
-0.028681 -0.894558 5.285021
-0.113571 -0.537439 5.983727
0.118018 -1.224816 7.962069
0.150108 -1.274308 8.855702
0.080256 -0.959789 9.710400
-0.023072 -1.784916 0.809205
-0.011949 -1.737744 1.806968
-0.100677 -1.197031 2.499406
-0.022284 -1.412465 4.362199
-0.111692 -0.847287 5.251670
-0.163429 -0.494639 6.007871
0.015220 -1.226321 7.981873
0.047841 -1.302946 8.879920
0.005411 -0.998430 9.644500
-0.194363 -1.370915 1.635209
-0.188080 -1.302772 2.318275
-0.138291 -1.400481 4.295728
-0.171743 -0.956491 5.005347
-0.181700 -0.657117 6.117465
-0.159722 -0.692812 7.030443
-0.094469 -1.152998 7.832756
-0.063000 -1.239340 8.950196
-0.073028 -1.047536 9.479194
-0.317277 -1.358812 1.264628
-0.297778 -1.316321 2.297147
-0.268696 -1.517786 3.547150
-0.252495 -1.638125 4.234645
-0.245093 -1.050559 5.252068
-0.237517 -0.758124 5.955223
-0.221321 -0.797806 6.730756
-0.192909 -1.085649 7.852351
-0.170280 -1.254556 8.811676
-0.161678 -1.098310 9.417692
-0.409859 -1.336419 2.091198
-0.400696 -1.592975 3.319718
-0.313549 -0.968521 5.855581
-0.283622 -0.738245 6.679126
-0.281151 -1.012590 7.622887
-0.271095 -1.123782 8.462524
-0.556872 -1.228916 -0.177714
-0.483780 -0.851334 0.745911
-0.501762 -1.126101 1.836122
-0.532545 -1.478072 2.844758
-0.534525 -1.649890 3.990236
-0.462183 -1.225212 4.535197
-0.366190 -0.661251 5.255076
-0.336642 -0.581672 6.157707
-0.353811 -0.855420 7.281180
-0.369003 -1.070128 8.075994
-0.359062 -1.127746 8.990976
-0.295809 -0.836316 10.046122
-0.534998 -0.807855 1.446062
-0.538409 -0.892616 2.226219
-0.606674 -1.379379 4.305499
-0.474446 -0.869164 5.118726
-0.329578 -0.297300 5.865582
-0.444378 -0.988929 7.941807
-0.454874 -1.109081 8.768489
-0.408884 -0.968974 9.469244
-0.651329 -0.958268 2.112601
-0.740219 -1.312290 3.261968
-0.804012 -1.579049 4.281610
-0.631836 -1.093923 5.133942
-0.449908 -0.563640 5.763180
-0.453317 -0.636638 6.719237
-0.497585 -0.847824 7.826914
-0.537927 -1.011087 8.388338
-0.483298 -0.901660 9.341662
-0.244454 -0.206004 10.175841
-0.656210 -0.603662 -0.245554
-0.536032 -0.372485 0.915394
-0.722458 -0.871961 1.830899
-0.807570 -1.144929 3.115371
-0.853142 -1.307970 4.128720
-0.670681 -0.905597 4.900434
-0.457822 -0.420435 5.496890
-0.422392 -0.385733 6.484245
-0.534135 -0.702371 7.365723
-0.546669 -0.788721 8.444878
-0.560043 -0.853272 9.064391
-0.393546 -0.501745 10.070191
-0.814132 -0.842656 1.653270
-0.826148 -0.911792 2.711085
-0.952622 -1.201943 3.729655
-0.812071 -0.959800 4.454212
-0.487993 -0.368082 5.352790
-0.471548 -0.367228 6.072828
-0.561917 -0.588289 7.118315
-0.625342 -0.763044 8.305262
-0.667686 -0.876679 9.027577
-0.488375 -0.562920 9.840016
-0.731724 -0.564782 2.350564
-0.940234 -0.975120 4.300754
-0.573950 -0.412233 5.077551
-0.387671 -0.139125 5.822688
-0.459813 -0.304049 7.108134
-0.677394 -0.694389 8.136053
-0.732396 -0.808629 8.810095
-0.599034 -0.631339 9.828778
-0.730612 -0.437493 2.129727
-0.954485 -0.781425 3.310740
-1.010630 -0.886393 4.167517
-0.675098 -0.456035 4.947391
-0.451082 -0.182056 5.867921
-0.516126 -0.304518 6.886185
-0.699424 -0.584731 7.811652
-0.742048 -0.669965 8.628266
-0.795346 -0.398227 2.019591
-1.026351 -0.690556 3.068872
-1.226896 -0.945113 4.005704
-0.919364 -0.628368 5.036495
-0.531647 -0.210017 5.698603
-0.553755 -0.256507 6.419544
-0.713251 -0.475419 7.716324
-0.754979 -0.541344 8.345620
-0.700124 -0.506427 9.252877
-0.395720 -0.184071 9.977131
-0.868297 -0.370329 1.653551
-0.788985 -0.324554 2.785614
-0.945546 -0.507026 3.894319
-0.935254 -0.522814 4.829858
-0.586454 -0.197913 5.322548
-0.534930 -0.172754 6.224167
-0.764124 -0.424538 7.290328
-0.856687 -0.538753 8.175710
-0.794946 -0.504069 9.091438
-0.516540 -0.254360 9.833913
-0.307433 0.227506 0.037264
-0.421168 0.103298 1.245947
-0.799903 -0.235027 2.326991
-1.049538 -0.467604 3.414015
-1.020136 -0.470685 4.477642
-0.695055 -0.217304 4.997144
-0.376033 0.021365 5.897667
-0.566302 -0.158561 6.830125
-0.783017 -0.367315 8.041581
-0.822060 -0.418197 8.778839
-0.695799 -0.337144 9.659463
-0.817251 -0.163449 2.111195
-1.028285 -0.332454 3.080247
-1.168720 -0.458521 4.291172
-0.917573 -0.302741 5.025304
-0.495531 -0.028250 5.730112
-0.567318 -0.098020 6.570811
-0.762565 -0.260599 7.726082
-0.792114 -0.299987 8.516181
-0.788372 -0.313802 9.198690
-0.296483 0.001970 10.192682
-0.963834 -0.165811 1.838341
-0.886873 -0.141893 2.723706
-1.013953 -0.238135 3.752140
-0.989313 -0.244760 4.662386
-0.604768 -0.040636 5.372955
-0.536137 -0.023244 6.335247
-0.757885 -0.174423 7.394391
-0.865576 -0.257917 8.350865
-0.899775 -0.293704 9.061498
-0.563773 -0.122331 9.988836
-0.463965 0.169043 1.152162
-0.754208 0.006500 2.420656
-0.936775 -0.100379 3.431245
-0.989985 -0.140416 4.133379
-0.669282 -0.015030 5.218382
-0.385845 0.104318 5.785991
-0.550492 0.003619 6.895123
-0.928449 -0.190819 7.756846
-0.891952 -0.200155 8.963016
-0.806261 -0.171888 9.493056
-0.628683 0.143372 1.005169
-0.802379 0.052777 2.270073
-0.932153 -0.015179 3.227905
-0.898246 -0.020154 4.056487
-0.666417 0.044388 5.043907
-0.557476 0.069850 5.738981
-0.719388 -0.009412 6.671815
-0.885866 -0.096820 7.911585
-0.997547 -0.151985 8.578448
-0.317636 0.299214 -0.086902
-0.872158 0.102688 1.980977
-1.054391 0.029452 3.082191
-1.085018 0.001722 4.018750
-0.788558 0.068762 4.766251
-0.472332 0.134443 5.847684
-0.535218 0.097040 6.818806
-0.839817 -0.005298 7.681148
-0.849924 -0.027595 8.630850
-0.857950 -0.043206 9.282885
-0.350376 0.082358 10.037249
-0.627280 0.264358 -0.253300
-0.405885 0.282079 0.952786
-0.916420 0.166190 1.899580
-1.168342 0.097122 2.957247
-1.268099 0.058926 3.914996
-0.991702 0.094707 4.742129
-0.554233 0.158841 5.678419
-0.585100 0.137260 6.459868
-0.882588 0.058166 7.586295
-0.908712 0.033213 8.580004
-0.858199 0.031551 9.138660
-0.487729 0.086631 9.893426
-1.247056 0.212283 1.678757
-1.221784 0.194751 2.691272
-1.406886 0.150932 3.940639
-1.226558 0.156127 4.609908
-0.651450 0.198431 5.449484
-0.349182 0.216207 6.115047
-0.545095 0.173951 7.230036
-0.975504 0.112984 8.076220
-1.020568 0.091974 8.900716
-0.707690 0.107943 9.711966
-0.729689 0.333972 1.157125
-0.796109 0.307768 2.413869
-1.140981 0.281019 3.411924
-1.266290 0.258498 4.421886
-0.822421 0.251509 5.231651
-0.532198 0.243612 5.929362
-0.614870 0.221481 6.963447
-0.932933 0.199916 7.726908
-0.976606 0.177763 8.802200
-0.923121 0.435938 -0.256345
-0.649310 0.394866 0.940959
-1.077877 0.404023 1.849569
-1.313705 0.393659 3.127046
-1.343399 0.381481 3.836722
-0.952480 0.338040 4.779038
-0.682258 0.303408 5.662734
-0.528022 0.279557 6.373287
-0.724934 0.269118 7.530065
-0.972770 0.271835 8.185673
-0.944183 0.253377 9.025896
-0.581867 0.213862 9.861530
-0.891161 0.482857 1.188588
-0.785457 0.444265 2.342166
-1.416260 0.499085 4.239133
-0.972867 0.417648 5.052642
-0.681991 0.360836 5.755794
-0.600547 0.329669 6.716312
-0.769795 0.330262 7.931574
-0.925314 0.337607 8.708002
-0.814740 0.552567 0.864279
-1.055222 0.587121 1.905506
-1.362812 0.635298 3.041189
-1.547687 0.660501 3.908726
-1.223962 0.570384 4.655457
-0.677802 0.425786 5.548780
-0.004347 0.257923 6.136038
-0.889431 0.421171 8.190782
-0.942577 0.419878 8.860890
-0.594457 0.319829 9.818704
-0.903054 0.633765 2.125261
-1.405130 0.750891 4.192708
-0.948883 0.588165 5.026558
-1.173213 0.641779 5.888554
-1.072741 0.587455 6.963131
-0.717328 0.460519 7.621093
-0.736515 0.446926 8.570819
-0.711281 0.419953 9.483043
-0.257492 0.265288 9.966238
-0.935711 0.776555 0.858168
-1.034633 0.795226 1.920578
-1.291812 0.881096 2.941299
-1.619414 1.000221 3.787144
-1.324596 0.859808 4.575096
-0.823382 0.632100 5.401357
-0.140256 0.329106 6.184180
-0.785192 0.559505 8.041364
-0.877990 0.580295 8.885214
-0.636055 0.464267 9.569238
-0.792075 0.832108 0.119859
-0.700404 0.767691 0.852859
-1.001702 0.897933 2.093651
-1.292982 1.023689 3.300136
-1.515635 1.122942 4.082356
-1.134269 0.902159 5.017271
-0.612525 0.611829 5.771205
-0.358793 0.461873 6.530459
-0.576932 0.559621 7.274087
-0.686117 0.593264 8.330882
-0.657851 0.557642 9.262880
-0.389421 0.397573 10.130022
-1.145372 1.138695 0.772418
-1.189640 1.143365 1.761637
-1.147413 1.094325 2.728558
-1.398096 1.229379 3.676250
-1.211740 1.093682 4.484340
-0.756891 0.789739 5.288609
-0.591474 0.665635 6.162518
-0.622025 0.667593 6.899371
-0.602165 0.629187 8.011574
-0.679995 0.656610 8.927437
-0.578043 0.574492 9.707268
-0.642984 0.937472 0.149670
-0.578645 0.871099 0.901964
-0.834556 1.026969 2.298508
-1.167297 1.252387 3.190797
-1.423177 1.418124 4.185951
-1.087359 1.148305 5.002857
-0.622661 0.790023 5.520910
-0.337484 0.552183 6.568131
-0.430441 0.595997 7.595089
-0.563959 0.673450 8.480808
-0.560420 0.651056 9.282885
-0.338540 0.468936 9.978754
-0.832604 1.202235 0.892054
-0.979180 1.308817 1.733152
-1.122979 1.407444 2.783954
-1.284376 1.523695 3.752241
-0.851373 1.122615 4.544262
-0.475380 0.774262 5.235035
-0.420294 0.704501 6.047824
-0.393887 0.652906 7.127354
-0.485110 0.711721 7.936575
-0.583276 0.775527 8.787769
-0.488065 0.665251 9.801207
-0.672895 1.218067 1.274492
-0.803267 1.321793 2.470689
-1.181308 1.691723 3.539170
-1.421732 1.919882 4.465348
-0.969356 1.417938 5.244009
-0.458294 0.862312 5.726806
-0.252861 0.620149 6.573963
-0.345446 0.694360 7.404420
-0.431541 0.757333 8.386125
-0.435633 0.729951 9.487038
-0.164703 0.422613 10.186660
-0.512232 1.228086 0.118423
-0.517163 1.210626 0.865695
-0.728305 1.437702 2.004598
-1.131618 1.870816 4.200157
-0.817628 1.455475 4.965023
-0.575166 1.127853 5.774009
-0.074520 0.490162 6.216188
-0.399972 0.831351 8.250970
-0.429893 0.837534 9.235383
-0.297138 0.652211 9.866390
-0.618089 1.564867 0.605936
-0.702811 1.653926 1.650826
-0.517838 1.346947 2.543736
-0.938308 1.897194 4.675972
-0.745056 1.583842 5.401081
-0.502343 1.200393 6.026859
-0.261183 0.808426 6.958088
-0.277310 0.804483 7.746344
-0.383660 0.933276 8.578448
-0.380668 0.896609 9.487069
-0.302454 1.250381 0.876165
-0.490189 1.532780 2.081935
-0.905243 2.181456 4.139979
-0.797282 1.959289 4.939006
-0.566435 1.514577 5.890006
-0.167791 0.797147 6.270466
-0.084567 0.606229 7.377205
-0.269059 0.893219 8.325651
-0.305148 0.928745 9.025896
-0.202837 0.715523 9.850051
-0.397631 1.761982 0.497967
-0.420687 1.755352 1.698798
-0.505217 1.890555 2.785423
-0.758774 2.412134 3.632757
-0.759148 2.367908 4.569446
-0.640417 2.064502 5.402802
-0.420179 1.550739 5.929198
-0.146429 0.895989 6.919356
-0.129436 0.819251 7.731209
-0.223716 0.980183 8.732446
-0.233205 0.962342 9.540905
0.015801 0.388489 9.990142
-0.285631 1.754005 2.123321
-0.389521 1.976814 3.219876
-0.522597 2.287528 4.187954
-0.535663 2.278525 4.964474
-0.401330 1.868125 5.655934
-0.162079 1.163909 6.426672
-0.073656 0.878519 7.144856
-0.102516 0.894802 8.236170
-0.164653 1.023268 8.974783
-0.135458 0.898267 9.742632
-0.081577 1.651408 0.742679
-0.148876 1.799864 2.045306
-0.137947 1.694066 2.923589
-0.383280 2.446104 4.859033
-0.300135 2.077649 5.718488
-0.125430 1.391736 6.346512
-0.001914 0.891893 6.989321
-0.058495 1.024420 7.981537
-0.128957 1.227210 8.713586
-0.102701 1.055328 9.725841
-0.035124 2.023092 1.817470
-0.063633 2.087781 2.636325
-0.146816 2.392724 3.950108
-0.180820 2.509760 4.557741
-0.146789 2.236532 5.394368
-0.053890 1.641337 6.283807
0.053237 0.989303 6.991808
0.029742 1.044118 7.652745
-0.035204 1.271023 8.782005
-0.034357 1.174612 9.632187
0.178655 2.005023 0.449006
0.152182 2.038716 1.625140
0.151051 1.854342 2.541771
0.137463 1.859868 3.200330
0.097407 2.016553 4.487020
0.055461 2.300358 5.276225
0.091017 1.745752 6.071478
0.140734 1.067811 6.728665
0.129951 0.992601 7.622397
0.082206 1.340114 8.406569
0.066918 1.267432 9.515390
0.106692 0.748047 9.934036
0.296983 1.951918 2.087247
0.275414 1.884908 3.235973
0.250606 2.117570 4.289108
0.233492 2.326099 4.974073
0.222981 1.852848 5.915228
0.217027 1.292007 6.701791
0.209855 1.089630 7.239665
0.183905 1.222418 8.437021
0.166117 1.389206 9.192157
0.154582 1.016890 10.097774
0.460059 1.974855 2.085425
0.440596 1.909401 2.852000
0.415450 1.780932 3.697647
0.403252 1.918213 4.765744
0.394526 2.040286 5.608544
0.335607 1.359025 6.336655
0.283019 0.834022 7.260326
0.290600 1.197578 8.075980
0.288032 1.464971 9.086936
0.264701 1.273119 9.632096
0.643103 2.034678 1.804939
0.604453 1.865989 2.479858
0.576712 1.820801 3.530385
0.565276 1.891832 4.632414
0.576274 2.056646 5.311915
0.482474 1.561930 6.313177
0.369170 0.864745 6.779519
0.435091 1.581575 8.830009
0.393237 1.414796 9.679399
0.719063 1.520849 1.266997
0.752377 1.767269 2.519878
0.736934 1.767551 3.282922
0.702784 1.704119 4.218571
0.692778 1.747242 5.216924
0.653955 1.642630 5.899222
0.559967 1.305055 6.561658
0.549333 1.356803 7.692077
0.599778 1.640218 8.536276
0.573346 1.590478 9.252935
0.435918 1.070658 9.913728
0.943200 1.841431 2.045827
0.896746 1.740345 2.709096
0.840458 1.637630 3.820295
0.838280 1.686076 4.678685
0.796957 1.616418 5.583889
0.635738 1.144183 5.997211
0.557492 0.977500 7.170129
0.726570 1.569322 8.238724
0.760007 1.709650 8.812321
0.637983 1.378004 9.526143
1.033632 1.583766 1.474856
1.044511 1.657848 2.413064
1.031368 1.664527 3.156684
0.972079 1.579565 4.264981
0.951924 1.573610 5.089141
0.867597 1.414693 5.922402
0.778309 1.236098 6.603089
0.806167 1.365636 7.831327
0.922624 1.687098 8.671167
0.846525 1.538120 9.314440
0.592197 0.974684 10.185289
1.169041 1.491778 1.194998
1.188255 1.567712 2.106652
1.145670 1.530179 3.140388
1.118722 1.518752 4.082356
1.078329 1.481476 5.023748
1.013404 1.389669 5.791978
0.927261 1.251046 6.418580
0.978763 1.401066 7.612188
1.101821 1.675682 8.506021
1.044121 1.604062 9.421596
0.822410 1.205601 10.060771
1.351147 1.470755 0.874910
1.420101 1.612537 1.766318
1.287994 1.438880 2.710397
1.200701 1.332732 3.566950
1.212743 1.382480 4.398948
1.148278 1.314969 5.325990
0.655523 0.567816 6.156395
1.262121 1.593370 7.997260
1.287428 1.671349 9.026606
1.083953 1.378179 9.785141
1.499040 1.429868 1.691614
1.402143 1.325167 2.423905
1.320007 1.246339 3.346389
1.248161 1.181760 4.286277
1.189580 1.132244 5.148120
1.085648 1.021542 5.982276
1.112293 1.082220 6.750499
1.272553 1.337598 8.039252
1.417259 1.558433 8.906205
1.478218 1.183542 2.377587
1.443040 1.171140 3.295986
1.412025 1.162479 4.181861
1.426512 1.198297 4.831753
1.374423 1.169933 5.856923
1.444947 1.274292 6.677069
1.557958 1.433480 7.722067
1.617282 1.525648 8.558669
1.513655 1.434946 9.450690
1.145066 1.029839 9.861927
1.658745 1.117005 2.019364
1.548119 1.046015 3.266793
1.561182 1.077522 3.967796
1.481993 1.022216 4.696025
1.394234 0.970930 5.870146
1.660375 1.245966 6.693517
1.992441 1.592291 7.836797
2.132830 1.751821 8.801144
1.871469 1.514618 9.199288
1.266663 0.967092 10.171024
1.793263 1.007279 2.007966
1.631302 0.904253 3.047808
1.559189 0.862714 3.682049
1.495917 0.832298 4.476878
1.407144 0.783521 5.350826
2.199028 1.476306 7.738512
2.424859 1.678754 8.612207
2.141582 1.469241 9.272303
1.520118 0.992242 10.034341
1.888741 0.876866 1.940241
1.664482 0.745308 2.792288
1.568834 0.700742 3.639109
1.537839 0.703428 4.630751
2.619665 1.530302 8.570259
2.386716 1.384583 9.075795
1.729080 0.956665 9.810491
1.794369 0.638641 2.491922
1.724581 0.617697 3.297680
1.626211 0.584171 4.256972
1.593361 0.583638 5.047427
1.463149 0.532540 6.020905
2.746644 1.302572 8.169585
2.656335 1.271374 9.031778
1.627119 0.363401 1.238243
1.861296 0.493528 2.290117
1.784913 0.481054 3.325186
1.866242 0.532821 3.992804
1.806409 0.524240 4.858317
1.716442 0.503975 5.821205
2.676527 0.992833 8.081120
2.797902 1.066326 8.904435
2.253131 0.833510 9.671654
1.430128 0.465844 10.097599
1.898681 0.332392 2.213446
1.917106 0.353022 2.881118
1.863873 0.353376 3.806584
1.779726 0.344648 4.827264
1.526282 0.273303 5.756342
0.859696 0.045385 6.282554
2.806205 0.790349 8.527012
2.384831 0.657587 9.398291
1.589499 0.386300 10.057152
2.028310 0.204688 2.056371
1.909220 0.191223 2.968522
1.768012 0.172989 3.939300
1.795576 0.195527 4.676533
1.616387 0.165593 5.576599
1.115395 0.046386 6.358975
2.466325 0.452950 8.405727
2.273586 0.419465 9.311002
1.691393 0.273948 9.878898
1.993549 0.032797 2.105719
1.918430 0.036265 2.968522
1.874514 0.049611 4.035863
1.854021 0.064121 4.945870
1.619133 0.033795 5.596189
1.149215 -0.038376 6.325304
2.281954 0.211484 8.342283
2.220157 0.217263 9.197612
1.667828 0.134208 10.142761
2.012782 -0.128529 2.114489
1.904503 -0.118867 3.150106
1.844365 -0.105589 4.123439
1.702317 -0.102132 5.018105
1.515042 -0.107775 5.684413
0.824802 -0.161786 6.468716
2.223398 0.023348 8.688565
2.105184 0.027232 9.483825
1.503937 -0.021195 10.097599
1.946978 -0.290178 2.460451
1.938788 -0.275045 3.232742
1.863814 -0.255942 4.262717
1.800871 -0.239120 5.167053
1.555929 -0.227530 5.962040
0.900659 -0.227698 6.512390
2.208405 -0.161659 8.736711
2.077161 -0.152321 9.320833
1.303598 -0.147779 10.210235
2.026317 -0.477083 1.461198
1.932776 -0.450561 2.488404
1.875484 -0.433126 3.177673
1.774570 -0.407688 4.125634
1.853630 -0.394112 5.073881
1.636026 -0.362241 5.958141
0.845248 -0.296343 6.652278
2.135890 -0.342716 8.606981
1.933737 -0.309539 9.608599
1.179734 -0.247004 10.255412
2.215011 -0.671392 1.886338
1.876581 -0.604791 2.670283
1.847830 -0.586535 3.366997
1.872580 -0.572290 4.265712
1.809844 -0.542721 5.272405
1.485709 -0.477284 6.105700
1.256334 -0.428050 6.841827
1.638290 -0.467283 7.754256
1.994745 -0.500675 8.766828
2.199248 -0.865489 1.828123
1.889817 -0.777694 2.543084
1.758167 -0.727610 3.473860
1.778294 -0.711795 4.486733
1.825924 -0.702670 5.490872
1.729115 -0.629852 7.946560
1.908973 -0.651446 8.979770
1.711438 -0.592388 9.584387
1.743248 -0.936085 1.318900
1.888901 -0.965838 2.187316
1.687954 -0.876248 3.321795
1.735155 -0.879761 3.897758
1.826743 -0.889562 4.871882
1.644514 -0.811458 5.749774
1.080177 -0.613469 6.359460
1.179299 -0.622747 7.477575
1.725570 -0.785155 8.292602
1.675749 -0.744751 9.448062
1.171244 -0.565160 10.117732
1.798899 -1.161930 -0.103247
1.898523 -1.159061 1.983917
1.691649 -1.053881 2.831238
1.657976 -1.025594 3.489756
1.755056 -1.044875 4.494377
1.798750 -1.041364 5.514816
1.711718 -0.986205 6.379881
1.296164 -0.800957 6.868311
1.264063 -0.768831 7.736645
1.638302 -0.906173 8.671572
1.391523 -0.780975 9.669670
1.457176 -1.145092 1.504681
1.635805 -1.218025 2.409765
1.583238 -1.174835 3.117872
1.566070 -1.146378 3.992804
1.711380 -1.199086 5.025977
1.406195 -0.985727 7.460279
1.394920 -0.958355 8.424332
1.370975 -0.925966 9.317166
0.868663 -0.651522 9.882611
1.480580 -1.349673 0.990734
1.573782 -1.383796 2.044980
1.420628 -1.264509 3.017112
1.202313 -1.110170 3.731157
1.693185 -1.375839 5.606299
1.269177 -1.045942 8.282675
1.288974 -1.041305 9.015066
1.016240 -0.851277 9.788050
1.579212 -1.627203 1.801694
1.407460 -1.483211 2.323678
1.164404 -1.273415 3.304595
1.666483 -1.603923 5.414871
1.204803 -1.192607 7.793345
1.156030 -1.133504 8.674007
1.081480 -1.062491 9.242872
0.515426 -0.612836 9.961456
1.018671 -1.371823 1.334216
1.206003 -1.510385 2.414192
0.982638 -1.295906 2.985470
1.585101 -1.772819 5.277807
1.111365 -1.287142 7.651271
1.053849 -1.217911 8.326771
0.957291 -1.111448 9.092440
0.543885 -0.714757 10.139661
0.927767 -1.485570 1.091073
1.060734 -1.592273 2.252310
0.889843 -1.393476 2.907125
1.498062 -1.975911 4.933148
0.835069 -1.209011 7.321871
0.636008 -0.971004 8.308957
0.790951 -1.116005 8.942563
0.573100 -0.858914 9.904954
0.958925 -1.767854 0.710467
1.007956 -1.797084 1.720642
0.967758 -1.711790 2.832592
1.285480 -2.071704 3.984770
1.354216 -2.129354 4.873461
1.148316 -1.848735 5.625583
0.709778 -1.229835 7.898787
0.683392 -1.170445 8.736314
0.653602 -1.106969 9.568831
0.620393 -1.543118 1.383781
0.755384 -1.717603 2.138712
1.162733 -2.249752 4.258335
1.083212 -2.102886 5.055424
0.599078 -1.298297 7.385305
0.567514 -1.220055 8.263585
0.638846 -1.291756 9.240024
0.340495 -0.825501 9.842544
0.409904 -1.483501 0.058690
0.444299 -1.511885 0.870497
0.570215 -1.694803 1.882375
0.288775 -1.153462 2.907639
0.811983 -1.991817 5.169873
0.449445 -1.265486 7.210000
0.324405 -1.009027 8.061153
0.421469 -1.147011 8.916094
0.357517 -1.001554 9.705948
0.424257 -1.799774 0.847308
0.473757 -1.874568 1.570143
0.397672 -1.656058 2.616569
0.593789 -2.034852 3.762253
0.660265 -2.141261 4.608713
0.470652 -1.693861 5.192280
0.472485 -1.655553 6.074924
0.397498 -1.453309 6.833050
0.241481 -1.061933 7.797551
0.321199 -1.195244 8.693787
0.294201 -1.102496 9.382057
0.193019 -1.645945 0.029353
0.206875 -1.629622 0.966738
0.273982 -1.763334 1.892129
0.307783 -1.785413 3.127285
0.412418 -2.021776 4.096699
0.353593 -1.822406 4.681202
0.135622 -1.055013 7.333640
0.164738 -1.081853 8.264738
0.226717 -1.200487 9.202012
0.177804 -1.024872 9.855187
0.239285 -2.368708 -0.157319
0.056335 -1.571692 1.211296
0.137391 -1.788972 2.362722
0.256418 -2.154149 3.456832
0.168335 -1.622487 6.030077
0.060523 -1.153987 6.821310
0.045472 -1.040963 7.547965
0.116036 -1.244230 8.367737
-0.069499 -1.578201 0.860684
-0.020860 -1.717669 2.000478
0.029277 -1.868083 3.114362
0.054666 -1.921181 3.890056
-0.076020 -1.135091 4.601226
-0.118589 -0.824652 5.331780
-0.174523 -0.431805 6.153507
-0.017836 -1.059848 8.185444
0.016335 -1.155624 9.006459
-0.006046 -0.944486 9.830117
-0.203968 -1.696390 -0.029265
-0.205358 -1.472951 1.028212
