1.879345 -0.090848 5.307989
1.930278 -0.086018 5.690610
1.886396 -0.090317 6.087400
2.001105 -0.079413 6.817900
2.149285 -0.065200 7.095260
2.233233 -0.057207 7.561644
2.225010 -0.058091 8.046529
2.222700 -0.058405 8.532631
2.226328 -0.058148 9.019875
2.235923 -0.057317 9.508189
2.294622 -0.051792 10.170174
2.295638 -0.051770 10.574043
2.109193 -0.069806 11.033286
1.486748 -0.006921 1.727021
1.884936 0.064635 1.832063
1.926926 0.072026 2.649742
1.854014 0.058845 3.038535
1.791957 0.047599 3.516377
1.817433 0.052121 3.811928
1.871346 0.061706 4.369029
1.845520 0.056938 5.024461
1.904495 0.067449 5.493914
2.053945 0.094243 5.861426
2.012132 0.086651 6.256789
1.988231 0.082262 6.740462
2.163941 0.113760 7.190644
2.231921 0.125907 7.569746
2.223763 0.124348 8.053958
2.143281 0.109767 8.646716
2.263423 0.131257 9.198741
2.274928 0.133232 9.686332
2.270927 0.132436 10.088581
2.243290 0.127336 10.776457
2.013362 0.085951 11.061379
0.973548 -0.020664 0.736357
1.280260 0.060576 1.475454
1.483935 0.114563 1.767960
1.786183 0.194707 2.052693
1.820792 0.203764 2.698604
1.756009 0.186481 3.176917
1.793053 0.196219 3.648477
1.827194 0.205203 4.032268
1.777874 0.192022 4.513710
1.850856 0.211261 5.159441
1.898862 0.223925 5.541569
2.046058 0.262911 5.908899
2.058781 0.266142 6.651644
2.135158 0.286317 7.118264
2.216826 0.307896 7.583924
2.175987 0.296999 7.895197
2.206879 0.305068 8.553566
2.173418 0.296128 8.867189
2.161474 0.292880 9.268342
2.173603 0.296003 9.757062
2.256206 0.317775 10.505941
2.283101 0.324816 10.996333
1.364165 0.185636 1.380446
1.468196 0.221499 1.675070
1.672495 0.291969 2.051258
1.696136 0.300038 2.522338
1.737063 0.314041 3.168035
1.773086 0.326386 3.638238
1.720257 0.308049 4.117787
1.740205 0.314895 4.325876
1.818589 0.341815 5.057871
1.875569 0.361397 5.526933
2.124799 0.447368 5.966288
1.998580 0.403572 7.033097
1.954502 0.388289 7.344121
2.161504 0.459644 7.965473
2.141175 0.452544 8.364050
2.142474 0.452896 8.850291
2.168434 0.461745 9.424112
2.253838 0.491160 9.802292
2.230327 0.482979 10.117582
2.248388 0.489043 10.977461
1.148412 0.211803 0.771333
1.251315 0.257074 1.334353
1.540780 0.384654 1.797948
1.743680 0.474053 2.259528
1.763729 0.482817 2.641646
1.695853 0.452799 3.030683
1.742936 0.473433 3.675438
1.767647 0.484271 3.970202
1.984624 0.579899 4.331129
1.832895 0.512740 5.475531
2.228266 0.686944 6.364324
2.130417 0.643666 6.947068
2.130397 0.643539 7.515726
2.091137 0.626159 7.826250
2.086317 0.623933 8.310979
2.104256 0.631728 8.883410
2.111279 0.634725 9.370403
2.174345 0.662482 9.662051
2.210166 0.678163 10.236226
2.186686 0.667665 10.923528
0.951237 0.209203 0.750995
1.223513 0.356793 1.224368
1.503598 0.508601 1.778388
1.702504 0.616376 2.329143
1.732600 0.632581 2.887517
1.663708 0.595147 3.191265
1.690923 0.609826 3.575434
1.744018 0.638489 4.221135
1.771294 0.653221 4.515503
2.229536 0.901577 5.484862
2.264977 0.920739 5.775130
2.250204 0.912605 6.338059
2.082318 0.821392 7.022694
1.910480 0.728051 7.628239
1.873533 0.707943 7.940291
2.074169 0.816642 8.559644
2.077435 0.818309 9.045535
2.118399 0.840485 9.250679
2.166209 0.866278 9.910087
2.145112 0.854766 10.225444
1.187399 0.443835 0.913049
1.195067 0.448685 1.301151
1.376772 0.565586 1.769680
1.639673 0.734812 2.053376
1.665183 0.751114 2.610948
1.607916 0.714130 3.088088
1.633050 0.730229 3.471311
1.675160 0.757220 4.028858
1.715744 0.783248 4.498474
2.227546 1.112617 5.370205
2.260817 1.133976 5.660516
1.834844 0.859260 7.528484
1.867530 0.880262 7.735407
2.026465 0.982396 8.667656
2.030582 0.984938 9.152861
2.057178 1.001935 9.725444
2.053838 0.999694 10.126348
2.011053 0.972009 10.726501
1.324714 0.675854 1.737342
1.579356 0.871029 2.194002
1.600470 0.887110 2.662111
1.611142 0.895245 2.868083
1.582715 0.873248 3.693184
1.597598 0.884613 3.899259
1.570549 0.863714 4.552289
2.193596 1.341366 5.223894
2.233278 1.371709 5.597188
2.139335 1.299528 6.171066
1.715398 0.974031 7.782665
1.738997 0.991972 8.442271
1.895565 1.111937 8.886113
1.901456 1.116340 9.371754
1.955917 1.158037 9.662051
1.969359 1.168229 10.148600
1.929114 1.137223 10.748106
1.098580 0.632151 0.904055
1.035305 0.574627 1.475925
1.262985 0.781040 1.679543
1.510714 1.005501 2.404211
1.519946 1.013819 2.615723
1.474565 0.972522 3.183749
1.502947 0.998140 3.653596
1.841066 1.304382 5.109801
2.106325 1.544817 5.532999
2.081802 1.522458 6.007422
1.910694 1.367021 7.081030
1.747006 1.218206 8.569556
1.779712 1.247812 8.775245
1.886299 1.344305 9.412463
1.865607 1.325461 9.726793
1.856758 1.317240 10.498522
1.126277 0.808954 1.679515
1.348291 1.046124 2.230556
1.359652 1.058185 2.529862
1.448927 1.153487 2.996950
1.400848 1.101984 3.390387
1.714146 1.436454 4.947131
1.935139 1.672637 5.118444
1.917641 1.653778 5.681959
1.924106 1.660484 6.418722
1.831914 1.561823 6.830625
1.629693 1.345486 7.454419
1.341264 1.036902 8.424293
1.663820 1.381615 8.724521
1.668034 1.385984 9.213231
1.742778 1.465753 9.679588
1.785163 1.510879 10.341648
1.687198 1.405985 10.970737
1.174368 1.053245 1.508971
1.369213 1.300164 1.882468
1.324785 1.243665 2.445837
1.289215 1.198368 3.099022
1.237378 1.132581 3.316604
1.568320 1.551745 4.688449
1.739705 1.768846 5.301775
1.710124 1.731223 5.693186
1.699232 1.717242 6.258095
1.605700 1.598561 6.582316
1.480757 1.439969 7.186397
1.250311 1.147576 7.922521
1.286689 1.193606 8.220033
1.468407 1.423864 8.649986
1.532121 1.504501 9.118183
1.624978 1.622034 9.757806
1.576757 1.560741 10.272410
1.504141 1.468571 10.616847
0.803718 0.722125 1.251865
0.980419 0.987856 1.811949
1.213983 1.339197 2.270449
1.229349 1.362162 2.741575
1.185391 1.295905 3.045035
1.103897 1.173035 3.709056
1.407059 1.628806 5.078235
1.550375 1.844337 5.518136
1.518206 1.795821 5.824250
1.509500 1.782525 6.390253
1.387998 1.599498 6.905048
1.270196 1.422037 7.425870
1.002725 1.019282 8.098024
1.035927 1.069148 8.397199
1.393348 1.606827 9.026131
1.430343 1.662401 9.320056
1.491610 1.754445 9.786116
1.448685 1.689671 10.300439
1.368966 1.569485 10.930636
0.647081 0.600593 1.019349
1.043977 1.306398 1.387144
1.199382 1.582633 1.846563
1.115040 1.432399 2.413083
1.083548 1.376167 2.977715
1.045483 1.308347 3.281679
1.267836 1.703240 4.835587
1.436564 2.003219 5.177624
1.412501 1.960268 5.567873
1.264091 1.696028 6.263329
1.196953 1.576454 6.675572
1.180192 1.546490 7.073921
1.185975 1.556146 8.708932
1.150701 1.493175 9.307566
1.194453 1.570848 9.688611
1.239985 1.651688 10.068787
1.287293 1.735687 10.448061
1.170362 1.527454 11.104793
0.719092 0.919798 0.753992
0.859435 1.224886 1.959560
0.992430 1.514350 2.327779
0.997364 1.525001 2.534538
0.973959 1.473738 3.185116
0.989977 1.508408 3.654279
1.015693 1.564121 4.297474
1.111829 1.773359 4.569048
1.208724 1.984252 4.837463
1.205897 1.977762 5.571696
1.090068 1.724851 7.041918
0.913022 1.339075 7.510776
0.745400 0.973780 8.077011
0.711352 0.899359 8.681679
0.868350 1.241115 9.004968
1.043237 1.621756 9.496154
1.090086 1.723570 9.962970
1.089470 1.722045 10.366660
1.129899 1.809750 11.118264
0.641610 0.975292 0.746016
0.751666 1.277453 1.602473
0.798887 1.406853 2.420900
0.803087 1.418286 2.627980
0.850297 1.547804 3.178283
0.831995 1.497163 3.743029
0.944165 1.804945 4.950100
1.044119 2.079417 5.647823
0.916494 1.727650 7.133767
0.760825 1.299423 7.427678
0.674494 1.061581 8.240401
0.634560 0.951534 8.667104
0.743043 1.249557 9.187603
0.865965 1.587444 9.415900
0.929961 1.763225 9.772869
0.992278 1.934186 10.498110
0.822062 1.983314 5.033577
0.858016 2.114753 5.313863
0.760475 1.756493 6.888846
0.626531 1.265665 7.463333
0.546449 0.972063 8.012809
0.555470 1.004608 8.687924
0.623849 1.254784 8.945039
0.703166 1.544886 9.374100
0.794874 1.880232 9.971113
0.820097 1.972314 10.350622
0.807714 1.926542 10.954357
0.425957 0.777270 1.178287
0.543328 1.380332 1.636880
0.584583 1.592090 2.012930
0.570292 1.518136 2.489477
0.558288 1.455853 3.055963
0.583015 1.582627 3.432316
0.589401 1.615085 3.815544
0.730501 2.339381 5.063494
0.692313 2.142270 5.824953
0.627580 1.808982 6.263074
0.601442 1.674175 6.676078
0.584996 1.588936 7.355257
0.573487 1.529532 7.581398
0.525983 1.284468 8.394780
0.489069 1.094128 8.932049
0.594801 1.637607 9.122172
0.615480 1.743477 9.591899
0.641368 1.876042 10.147330
0.664339 1.993696 10.614137
0.637772 1.856466 11.246272
0.392461 1.103726 0.982878
0.427453 1.421383 1.660276
0.440664 1.540942 2.129036
0.432690 1.467456 2.607304
0.436939 1.505204 3.168246
0.442916 1.558545 3.816390
0.445086 1.577952 4.025154
0.463406 1.743777 4.660836
0.502032 2.094961 5.093458
0.506174 2.132191 5.385934
0.494456 2.024279 6.052964
0.471633 1.815289 6.653892
0.444774 1.569971 6.998697
0.466415 1.766211 7.539641
0.420849 1.350223 8.017043
0.403333 1.189390 8.729026
0.433837 1.466734 9.073370
0.456262 1.670278 9.523242
0.471009 1.803676 10.080673
0.492179 1.995952 10.437215
0.301068 1.137669 1.221793
0.301581 1.153074 1.702625
0.307867 1.378328 2.261532
0.311626 1.511472 2.821025
0.312258 1.532439 3.121550
0.313166 1.562859 3.509753
0.322815 1.904887 4.906604
0.330265 2.172800 5.433920
0.334476 2.323754 5.796985
0.329499 2.137108 6.564518
0.316946 1.677644 6.851274
0.312537 1.511533 7.637340
0.303858 1.192096 8.097442
0.307095 1.306178 8.660728
0.315336 1.603565 9.090863
0.321033 1.808118 9.538027
0.323604 1.899182 9.918511
0.322229 1.844939 10.521990
0.321102 1.802250 10.753568
0.229035 0.753878 1.003940
0.212372 1.060738 1.301221
0.194693 1.387774 2.035390
0.183062 1.602255 2.325568
0.192163 1.437209 2.901657
0.190699 1.465437 3.290298
0.173260 1.790089 4.607932
0.159536 2.043530 5.055941
0.159810 2.041089 5.799359
0.162210 1.998403 6.197033
0.169769 1.861113 6.611985
0.190727 1.478984 7.345134
0.214575 1.042628 7.736547
0.209645 1.134785 8.217602
0.193750 1.428034 8.656380
0.175494 1.765231 9.264316
0.172924 1.813121 9.472881
0.163426 1.989987 10.203719
0.164654 1.968549 10.523064
0.172443 1.827779 11.157154
0.151033 0.884360 1.561767
0.146744 0.916670 2.312273
0.075930 1.433430 2.673997
0.073300 1.453018 2.973622
0.082048 1.389912 3.457379
0.088889 1.340836 4.031426
0.083658 1.379515 4.420023
0.022547 1.825629 4.849860
-0.025692 2.177901 5.282500
-0.025773 2.179524 6.023088
0.006682 1.943511 6.450193
0.061302 1.546200 7.091391
0.094358 1.305700 7.443096
0.088767 1.347521 8.204309
0.083009 1.389787 8.416162
0.048397 1.643123 9.134388
0.023273 1.826781 9.497100
0.010916 1.917399 9.880740
0.015314 1.886299 10.574449
0.017855 1.868226 10.896407
0.052728 1.614792 11.474848
-0.006080 1.269779 1.023400
-0.006673 1.272554 1.147581
0.054651 0.997301 1.725887
0.093476 0.823143 2.217485
-0.042329 1.434205 2.664007
-0.027611 1.368444 3.147607
-0.039070 1.420537 3.798663
-0.005657 1.270716 4.292845
-0.053561 1.486288 4.481805
-0.172874 2.023163 4.895810
-0.206969 2.176873 5.349432
-0.161660 1.973723 6.030595
-0.109807 1.740927 6.457416
-0.040724 1.430749 6.993990
0.001959 1.239353 7.609689
0.007506 1.214761 8.016053
-0.128637 1.828639 9.953513
-0.154083 1.943467 10.422105
-0.128693 1.829596 10.766869
-0.011530 0.975735 0.870186
-0.071480 1.175549 1.256119
0.009327 0.906939 1.835158
0.034233 0.824233 2.142620
-0.118346 1.332491 2.683317
-0.127603 1.363617 3.159339
-0.136329 1.392921 3.546688
-0.127357 1.363546 4.296513
-0.165020 1.489105 4.584656
-0.323515 2.016974 4.998276
-0.369106 2.169035 5.452505
-0.330763 2.041723 5.946872
-0.237348 1.731112 6.476215
-0.097937 1.267532 7.224586
-0.056603 1.130157 7.560051
-0.064099 1.155554 8.234948
-0.143163 1.418970 8.583691
-0.251182 1.778756 8.906573
-0.247699 1.767427 9.312127
-0.291544 1.913800 9.956953
-0.304016 1.955699 10.537676
-0.277525 1.867798 10.971351
-0.018896 0.785498 0.883123
-0.057769 0.884583 1.183876
-0.100891 0.994615 1.750616
-0.112094 1.023466 2.408650
-0.230068 1.323891 2.779656
-0.244756 1.361560 3.343565
-0.256503 1.391656 3.730426
-0.233204 1.332566 4.126712
-0.178475 1.193542 4.623946
-0.311448 1.532220 5.152723
-0.478797 1.958323 5.571666
-0.462133 1.916120 5.966709
-0.271232 1.430583 6.528064
-0.160821 1.149921 7.157809
-0.149925 1.122402 7.564563
-0.153096 1.130774 8.150285
-0.266720 1.420207 8.675323
-0.411330 1.788439 9.083994
-0.400129 1.760097 9.401567
-0.448524 1.883543 9.958314
-0.428956 1.834057 10.563550
-0.395329 1.748704 10.997470
0.266730 0.068827 1.182831
-0.001575 0.614918 1.474244
-0.231651 1.083331 2.027413
-0.372439 1.369975 2.401804
-0.341171 1.306555 2.882195
-0.359500 1.344094 3.444964
-0.333715 1.291830 3.928176
-0.346376 1.317722 4.226116
-0.250599 1.123159 5.000405
-0.315463 1.255309 5.375673
-0.512921 1.657252 5.707468
-0.504951 1.641279 6.279614
-0.320109 1.265385 6.830665
-0.239428 1.101511 7.535403
-0.278707 1.181642 8.012243
-0.340094 1.306638 8.202928
-0.528710 1.690700 8.790132
-0.565754 1.766243 9.171957
-0.579730 1.794929 9.750347
-0.620811 1.878686 10.131021
-0.620803 1.878844 10.535977
-0.547902 1.730732 11.081428
0.312918 -0.000033 1.063255
-0.051715 0.620275 1.713434
-0.309292 1.058361 1.906879
-0.430041 1.263969 2.640150
-0.436836 1.275603 2.851124
-0.403681 1.219403 3.334813
-0.386008 1.189628 4.086283
-0.401233 1.215630 4.386230
-0.427762 1.260922 4.862827
-0.462893 1.320872 5.427054
-0.552177 1.472906 5.975963
-0.467508 1.329013 6.215251
-0.377029 1.175446 7.004139
-0.295455 1.036819 7.249851
-0.347358 1.125292 7.816432
-0.493630 1.374193 8.253692
-0.682493 1.695479 8.577143
-0.753677 1.816767 9.220004
-0.738649 1.791329 9.536295
-0.795708 1.888532 10.003677
-0.768904 1.843176 10.606976
-0.587907 1.535612 11.206049
0.254034 0.107793 1.076808
-0.272182 0.854025 1.536624
-0.513334 1.196087 1.997858
-0.469723 1.134412 2.477988
-0.480119 1.149248 2.776075
-0.449824 1.106512 3.436202
-0.526217 1.214947 3.814193
-0.557634 1.259675 4.376557
-0.576056 1.285891 4.673471
-0.620768 1.349499 5.322637
-0.643190 1.381385 5.618719
-0.582673 1.295804 6.295901
-0.446639 1.103073 6.728385
-0.387843 1.019906 7.327006
-0.447379 1.104504 7.892352
-0.593762 1.312134 8.151763
-0.783392 1.581195 8.758022
-0.831563 1.649617 9.139231
-0.837547 1.658262 9.629736
-0.890498 1.733462 10.010009
-0.859929 1.690318 10.613611
-0.737515 1.517002 11.361540
0.181040 0.203950 1.013002
-0.370192 0.863687 2.526482
-0.581633 1.116712 2.983719
-0.536029 1.062285 3.377281
-0.572427 1.106009 4.029521
-0.591261 1.128622 4.326743
-0.624209 1.168169 4.800653
-0.731536 1.296697 5.349471
-0.772140 1.345399 5.820754
-0.689447 1.246642 6.321401
-0.547449 1.076961 6.842050
-0.462919 0.975984 7.262365
-0.539314 1.067548 7.915919
-0.713505 1.275987 8.262642
-0.889556 1.486651 8.604907
-1.004787 1.624577 8.964221
-1.072462 1.705657 9.430270
-1.046624 1.674955 10.116749
-1.028369 1.653324 10.806891
-0.831591 1.418088 11.204678
-0.114577 0.499506 0.747659
-0.360887 0.749106 2.281149
-0.660987 1.052834 2.738000
-0.614106 1.005536 3.222666
-0.646822 1.038786 3.789238
-0.685085 1.077648 4.355104
-0.637751 1.029844 4.665867
-0.739128 1.132507 5.042725
-0.867723 1.262775 5.681268
-0.776177 1.170296 6.184225
-0.609598 1.001886 6.617443
-0.536939 0.928539 7.217175
-0.597081 0.989512 7.695391
-0.774938 1.169517 7.957408
-1.047779 1.445657 8.371355
-1.062114 1.460315 8.949579
-1.150771 1.550157 9.506020
-1.161496 1.561139 9.997767
-1.040368 1.438741 10.540595
-1.008983 1.407154 11.150153
-0.248644 0.574295 1.809800
-0.484704 0.779895 2.101495
-0.729913 0.993504 2.565939
-0.602904 0.883046 3.058451
-0.625262 0.902610 3.449796
-0.737924 1.000840 4.009098
-0.788710 1.045221 4.664176
-0.755939 1.016811 5.153652
-0.793453 1.049570 5.542950
-0.768701 1.028143 6.034407
-0.578681 0.862787 6.380285
-0.606951 0.887614 7.233166
-0.721536 0.987448 7.517584
-0.566816 0.852875 8.052622
-0.800547 1.056506 8.581294
-1.217095 1.419225 8.776234
-1.252386 1.450119 9.443071
-1.174329 1.382265 9.873007
-1.172857 1.381086 10.281268
-1.119011 1.334335 10.803433
-0.908430 1.151208 11.673638
0.124631 0.243205 1.169702
-0.443527 0.661586 1.368444
-0.782118 0.911021 1.925118
-0.885532 0.987297 2.487487
-0.829537 0.946181 2.972301
-0.766955 0.900175 3.281605
-0.738341 0.879283 4.036580
-0.769834 0.902563 4.427793
-0.796254 0.922087 4.729951
-0.869188 0.975962 5.474529
-0.911806 1.007433 5.864111
-0.729405 0.873254 6.386739
-0.608529 0.784331 6.720918
-0.777432 0.908845 7.363068
-0.755519 0.892806 7.772046
-1.002224 1.074579 8.300507
-1.333104 1.318323 8.800765
-1.291439 1.287700 9.032150
-1.271248 1.273015 9.811578
-1.347421 1.329191 10.196154
-1.270746 1.272837 10.630394
-1.158835 1.190587 11.269087
0.105101 0.251917 1.087080
-0.505967 0.626217 1.645349
-0.857120 0.841304 1.932741
-0.962469 0.905917 2.406307
-0.902329 0.869199 2.890634
-0.853197 0.839241 3.465661
-0.796917 0.804867 3.865136
-0.844405 0.834071 4.433686
-0.974446 0.913803 4.901163
-1.034141 0.950481 5.465668
-0.994594 0.926354 5.866872
-0.969887 0.911334 6.357885
-0.853729 0.840299 6.777946
-0.851774 0.839231 7.361681
-0.940737 0.893831 7.927949
-1.089359 0.984919 8.296376
-1.407697 1.179919 8.620797
-1.445287 1.203085 9.287129
-1.420780 1.188148 9.605535
-1.416672 1.185723 10.012162
-1.431158 1.194785 10.881413
-1.294691 1.111344 11.432038
0.089368 0.257311 0.904018
-0.550985 0.586932 1.643949
-0.917092 0.775355 1.930662
-0.933831 0.784050 2.320411
-0.969493 0.802537 2.975761
-0.919294 0.776832 3.550214
-0.868733 0.750921 4.037968
-0.903439 0.768860 4.428139
-1.109253 0.874811 4.706906
-1.169129 0.905737 5.270681
-1.136996 0.889308 5.759250
-1.221960 0.933161 6.410462
-1.000783 0.819438 6.757039
-0.809512 0.721141 7.285652
-1.003750 0.821212 7.923800
-1.174607 0.909216 8.380686
-1.474394 1.063488 8.530066
-1.529937 1.092225 9.284064
-1.522838 1.088659 9.690052
-1.499914 1.076932 10.008412
-1.453121 1.052985 10.614691
-1.350353 1.000265 11.338603
-0.307214 0.416065 1.054206
-0.965004 0.683583 1.427737
-1.159811 0.762846 1.719867
-1.099978 0.738671 2.465034
-1.029647 0.710156 2.858795
-0.975726 0.688350 3.431697
-0.837082 0.632100 4.016148
-0.956592 0.680749 4.306793
-1.372421 0.849903 4.738741
-1.332834 0.833907 5.223106
-1.206886 0.782801 5.722741
-1.453154 0.883018 6.167058
-1.246651 0.799165 6.685705
-0.863800 0.643620 7.244637
-0.928209 0.669886 7.633977
-0.788664 0.613314 8.436592
-1.044853 0.717545 8.785077
-1.521016 0.911239 9.260559
-1.493977 0.900311 9.578624
-1.559296 0.926928 9.874031
-1.619278 0.951451 10.542430
-1.421780 0.871306 11.291350
-0.051525 0.299848 1.032986
-0.733038 0.518921 1.590750
-1.037103 0.616708 2.059559
-1.161162 0.656678 2.621155
-1.084626 0.632149 2.928701
-1.016800 0.610436 3.326325
-0.770534 0.531413 3.832333
-1.012282 0.609193 4.380299
-1.525357 0.774104 4.711695
-1.327691 0.710749 5.483265
-1.189230 0.666344 5.895863
-1.632271 0.808771 6.309230
-1.313983 0.706597 6.755201
-0.951403 0.590249 7.492003
-1.113265 0.642327 7.861568
-1.201829 0.670876 8.336485
-1.446481 0.749531 8.592945
-1.711367 0.834795 9.390992
-1.704345 0.832619 9.794957
-1.680446 0.825003 10.112703
-1.767874 0.853242 10.867070
-1.476796 0.759801 11.266690
-0.764311 0.455174 1.306824
-0.679508 0.435481 1.702753
-0.797197 0.463009 2.180369
-1.028444 0.517042 2.826920
-1.158803 0.547523 3.297466
-0.914259 0.490629 3.889858
-1.119345 0.538459 3.994560
-1.774936 0.691420 4.669749
-1.732598 0.681644 5.151262
-1.587864 0.647983 5.560418
-1.832768 0.705143 5.915726
-1.626080 0.657077 6.517909
-1.110905 0.537074 7.001023
-1.000252 0.511378 7.513530
-0.946905 0.499093 8.296830
-1.084113 0.531116 8.489070
-1.600289 0.651556 9.056530
-1.799400 0.698059 9.503638
-1.657652 0.665064 9.756955
-1.740648 0.684559 10.512450
-1.627744 0.658306 10.858117
-1.096028 0.534480 11.515963
-1.151326 0.444185 2.587060
-1.182223 0.448870 3.062951
-0.937996 0.412682 3.741604
-1.153842 0.444816 3.934323
-1.809050 0.542361 4.521974
-1.872846 0.551954 5.076995
-1.626877 0.515457 5.496788
-1.495686 0.496043 5.995529
-1.539219 0.502573 6.291606
-1.266646 0.462193 7.092844
-0.976824 0.419216 7.728202
-1.096598 0.437047 7.831687
-1.205964 0.453418 8.396399
-1.478970 0.494081 8.741258
-1.717023 0.529600 9.365728
-1.730315 0.531670 9.857993
-1.771678 0.537932 10.438495
-1.560676 0.506625 10.809209
-1.234658 0.458277 11.501833
-1.124048 0.343615 1.163888
-0.942565 0.331889 1.739123
-0.873674 0.327522 2.403686
-1.195773 0.348598 2.776768
-1.610859 0.375932 4.176262
-1.939154 0.397391 4.440451
-1.793861 0.388009 4.931716
-1.666186 0.379793 5.514578
-1.929161 0.397026 5.956513
-1.928944 0.397136 6.613724
-1.319087 0.357476 7.201223
-1.126603 0.345040 7.819552
-1.103602 0.343617 8.227315
-1.164057 0.347616 8.527178
-1.673990 0.380962 9.005914
-1.821297 0.390690 9.650866
-1.816740 0.390470 10.056476
-1.793946 0.389043 10.375760
-1.627165 0.378270 10.922259
-0.661140 0.263396 1.647915
-0.885685 0.261314 2.212474
-1.301361 0.257314 2.493014
-1.244600 0.257992 3.154278
-1.083439 0.259656 3.649177
-1.409134 0.256533 3.923392
-1.962754 0.251231 4.433995
-1.916583 0.251772 4.915108
-1.590399 0.255067 5.524717
-1.346786 0.257523 5.953145
-1.687498 0.254250 6.208460
-1.677200 0.254459 6.784549
-1.265710 0.258576 7.344239
-1.190638 0.259439 8.036144
-1.072139 0.260675 8.465727
-1.387229 0.257702 8.990200
-1.746185 0.254246 9.222641
-1.800290 0.253844 9.891090
-1.776304 0.254139 10.210960
-1.703813 0.254944 10.731973
-1.615341 0.255960 11.546158
-0.880139 0.190176 1.658841
-1.091285 0.170850 1.953080
-1.329591 0.149114 2.686425
-1.256240 0.155922 3.081633
-1.186736 0.162377 3.478483
-1.426726 0.140435 3.937861
-1.959909 0.091556 4.273580
-2.041592 0.084197 5.003025
-1.694702 0.116121 5.436224
-1.463569 0.137434 5.950679
-1.730993 0.112971 6.394515
-1.708585 0.115120 6.882405
-1.186262 0.163158 7.371385
-1.014078 0.179098 8.083250
-1.012182 0.179367 8.583173
-1.367487 0.146798 8.822258
-1.782929 0.108758 9.318956
-1.838503 0.103783 9.987614
-1.793519 0.107956 10.220518
-1.767919 0.110438 10.916879
-1.584606 0.127353 11.380857
-0.603255 0.167647 1.818240
-0.822164 0.129136 2.296190
-1.325472 0.040418 2.484724
-1.269484 0.050417 3.146322
-1.201463 0.062489 3.544323
-1.456548 0.017629 4.180661
-1.976660 -0.074042 4.427199
-2.039229 -0.084969 4.983688
-1.719089 -0.028398 5.592912
-1.564938 -0.001152 5.918971
-1.758999 -0.035252 6.553104
-1.641859 -0.014498 7.059018
-1.305665 0.044857 7.427891
-1.136582 0.074810 8.139527
-1.003043 0.098424 8.481518
-1.391240 0.030049 8.899178
-1.687493 -0.022110 9.330976
-1.817543 -0.044936 9.891090
-1.786882 -0.039396 10.586696
-1.697228 -0.023503 11.023246
-1.447091 0.020718 11.604779
-0.682719 0.104983 0.755694
-0.893831 0.051565 1.504147
-1.202484 -0.026657 1.973630
-1.313443 -0.054752 2.270181
-1.238190 -0.035582 2.665650
-1.379239 -0.071243 3.313555
-1.031874 0.016992 3.826178
-2.071053 -0.246542 4.501280
-1.951745 -0.216141 5.167767
-1.712025 -0.155236 5.590860
-1.860335 -0.192794 5.961702
-1.846992 -0.189297 6.535308
-1.334757 -0.059236 7.019297
-1.256716 -0.039301 7.709368
-1.043422 0.014904 8.156323
-1.137492 -0.008870 8.636563
-1.464428 -0.091703 9.248882
-1.625250 -0.132453 9.525406
-1.776903 -0.170805 10.173404
-1.893948 -0.200411 10.644593
-1.736000 -0.160229 11.193912
-0.996117 -0.056636 1.696630
-1.196856 -0.125484 1.988183
-1.309576 -0.164100 2.370378
-1.354226 -0.179279 3.110340
-1.463490 -0.216745 3.311977
-1.131939 -0.102817 3.909565
-2.155878 -0.454147 4.661421
-1.854081 -0.350414 5.349883
-1.610130 -0.266608 5.684495
-1.898875 -0.365583 6.387268
-1.743121 -0.312072 6.625529
-1.302696 -0.160723 7.462794
-1.014792 -0.061787 8.012937
-0.902007 -0.022986 8.441781
-1.107119 -0.093284 8.989264
-1.465270 -0.216160 9.311172
-1.641623 -0.276623 9.672743
-1.882963 -0.359343 10.293176
-1.928540 -0.374872 10.873188
-1.548315 -0.244270 11.299509
-0.715106 -0.019069 1.753876
-1.100793 -0.188192 2.218428
-1.308310 -0.279143 2.683662
-1.240765 -0.249428 3.077481
-1.813148 -0.500275 4.450108
-2.134572 -0.641210 4.882985
-1.814267 -0.500589 5.312076
-1.544294 -0.381977 6.099862
-1.663518 -0.434246 6.293296
-1.591848 -0.402643 7.059361
-1.278854 -0.265243 7.425817
-1.105338 -0.188986 8.046145
-1.030145 -0.155870 8.652769
-1.231372 -0.244046 9.198006
-1.490486 -0.357660 9.539840
-1.643801 -0.424870 9.813108
-1.770362 -0.480284 10.370644
-1.748914 -0.470730 11.065732
-0.516918 0.027947 1.079602
-1.232950 -0.357604 1.539082
-1.418880 -0.457682 1.830914
-1.346724 -0.418736 2.222582
-1.194867 -0.336842 2.710653
-1.329813 -0.409365 3.445654
-1.433126 -0.464965 3.648047
-2.057510 -0.801028 4.703313
-2.019681 -0.780551 5.181737
-1.738412 -0.628783 6.484177
-1.459219 -0.478296 7.021304
-1.474546 -0.486409 7.687492
-1.021158 -0.242110 8.187633
-0.950721 -0.204043 8.795863
-1.368831 -0.429169 9.099435
-1.567495 -0.536052 9.637805
-1.667838 -0.589995 10.108514
-1.793138 -0.657362 10.665018
-1.628290 -0.568477 11.124849
-0.766146 -0.175396 0.897481
-0.939422 -0.287694 1.194615
-0.952016 -0.295754 1.673641
-1.060748 -0.366117 2.325376
-1.163419 -0.432610 2.707538
-1.285931 -0.511911 3.352533
-1.734686 -0.802608 4.727616
-1.996303 -0.972241 4.812073
-2.000049 -0.974485 5.634906
-1.692082 -0.774717 5.896616
-1.585040 -0.705191 6.395541
-1.520987 -0.663482 7.161461
-1.262277 -0.495594 7.705237
-0.942332 -0.287969 8.365875
-0.814090 -0.204751 8.617635
-1.276925 -0.504739 9.277741
-1.381771 -0.572707 9.376536
-1.574128 -0.697325 9.913004
-1.710160 -0.785393 10.557078
-0.279055 0.125261 1.184335
-0.995569 -0.428345 1.373165
-1.255706 -0.629179 2.103308
-1.197006 -0.583707 2.583164
-1.142820 -0.541723 3.065027
-1.172033 -0.564182 3.540517
-1.126880 -0.529177 4.025021
-1.543861 -0.851320 4.272583
-1.977316 -1.186152 4.685182
-1.873227 -1.105586 5.259848
-1.834813 -1.075810 5.651645
-1.830654 -1.072441 6.304975
-1.632992 -0.919626 6.645034
-1.486022 -0.805896 7.339856
-1.324487 -0.680600 9.346953
-1.455882 -0.782064 9.620676
-1.563091 -0.864771 10.178526
-1.676424 -0.952211 10.734440
-1.452547 -0.779105 11.220783
-0.748727 -0.317948 1.872495
-1.054019 -0.596496 2.155526
-1.077530 -0.617808 2.721038
-1.097032 -0.635508 3.108962
-1.552767 -1.051098 4.394922
-1.900314 -1.368130 4.989337
-1.780953 -1.259116 5.306164
-1.763632 -1.243164 5.871594
-1.742213 -1.223494 6.352030
-1.579414 -1.074786 6.867063
-1.360601 -0.874930 7.493632
-1.089500 -0.627324 8.237633
-0.858676 -0.416546 8.706617
-0.992521 -0.538603 9.075377
-1.272801 -0.794315 9.396828
-1.514184 -1.014478 9.909854
-1.529188 -1.028045 10.403380
-1.460064 -0.964850 10.836246
-0.714498 -0.364045 1.549087
-1.004811 -0.671548 2.101827
-1.094668 -0.766618 2.661561
-1.121365 -0.794756 3.225585
-1.279580 -0.962319 3.595522
-1.110306 -0.782772 4.185391
-1.781701 -1.494088 4.852956
-1.761241 -1.472252 5.416012
-1.720689 -1.429194 5.721675
-1.650202 -1.354312 6.389939
-1.479392 -1.173205 6.731554
-1.274718 -0.956133 7.357801
-1.088560 -0.758656 8.082065
-0.872986 -0.530077 8.549758
-0.969471 -0.632145 9.206554
-1.283628 -0.965010 9.417051
-1.398083 -1.086226 9.690701
-1.440609 -1.131109 10.359731
-1.392067 -1.079524 10.879985
-1.083800 -0.752670 11.511162
-0.362489 -0.021679 1.137572
-0.683316 -0.423315 1.607896
-1.002433 -0.822867 1.889320
-1.079227 -0.918896 2.359759
-0.980221 -0.794708 3.024547
-0.998521 -0.817507 3.412264
-1.321414 -1.221509 4.617489
-1.603571 -1.574732 5.038263
-1.594088 -1.562660 5.688929
-1.582918 -1.548500 6.254897
-1.550077 -1.507280 6.562826
-1.343435 -1.248363 7.009163
-1.129883 -0.980652 7.920937
-0.860396 -0.643049 8.316298
-0.884758 -0.673353 8.993084
-1.096472 -0.938442 9.139391
-1.250732 -1.131437 9.765534
-1.309202 -1.204544 10.148817
-1.412890 -1.334200 10.792608
-1.236937 -1.113702 11.280048
-0.761854 -0.648637 1.773255
-0.885688 -0.832463 2.245247
-0.953744 -0.933448 2.630134
-0.968132 -0.954693 3.019921
-0.988641 -0.985004 3.497726
-1.021840 -1.034108 4.151394
-0.988847 -0.984953 4.550044
-1.179846 -1.268613 4.903218
-1.446994 -1.665328 5.497102
-1.428496 -1.637681 5.978460
-1.413266 -1.614890 6.461342
-1.282980 -1.421171 6.892249
-1.100321 -1.149633 7.345792
-1.157906 -1.234666 8.894373
-1.239704 -1.355980 9.541778
-1.248877 -1.369441 10.036707
-1.236378 -1.350762 10.358026
-0.701538 -0.700870 1.518979
-0.857240 -0.978836 1.987834
-0.871769 -1.004571 2.554843
-0.890169 -1.037222 3.121382
-0.901534 -1.057409 3.422548
-1.126305 -1.458335 4.993094
-1.349292 -1.856518 5.412304
-1.332667 -1.826633 5.893109
-1.277351 -1.727590 6.477582
-1.204546 -1.597404 6.805675
-1.051987 -1.324663 7.346017
-0.959234 -1.158731 7.963927
-0.996895 -1.225858 8.351805
-1.102601 -1.414483 8.892918
-1.096849 -1.404051 9.298809
-1.113668 -1.433872 9.880514
-1.134615 -1.471067 10.463037
-1.100983 -1.410786 10.985179
-0.894951 -1.042450 11.707611
-0.262046 0.075384 1.001605
-0.683278 -0.848344 1.550055
-0.858800 -1.233105 2.099193
-0.828102 -1.165549 2.579603
-0.794655 -1.092044 2.885302
-0.770813 -1.039486 3.457900
-0.832921 -1.175468 4.013643
-0.803999 -1.111887 4.322736
-0.912210 -1.349004 4.863545
-1.091803 -1.742831 5.111562
-1.127187 -1.820156 5.752504
-1.144854 -1.858775 6.046075
-1.110620 -1.783338 6.804125
-0.968079 -1.470505 7.166847
-0.935750 -1.399280 7.849958
-0.893219 -1.305756 8.361758
-0.967210 -1.467890 8.726247
-0.978036 -1.491374 9.306663
-0.974868 -1.484241 9.713244
-1.013663 -1.569163 10.096688
-0.971843 -1.477063 10.904582
-0.855542 -1.221732 11.395322
-0.474467 -0.521795 1.442281
-0.578486 -0.810779 1.648214
-0.688437 -1.116052 2.204873
-0.699577 -1.146699 2.772060
-0.713293 -1.184505 3.334596
-0.726908 -1.222082 3.808312
-0.770102 -1.341969 4.095531
-0.722745 -1.210028 4.677263
-0.768022 -1.335707 4.962441
-0.959814 -1.868477 5.455917
-0.986125 -1.941294 6.007537
-0.943454 -1.822425 6.503138
-0.902882 -1.709384 7.002494
-0.820353 -1.479819 7.348412
-0.833974 -1.517258 8.099712
-0.854144 -1.573151 8.394231
-0.861222 -1.592504 8.971420
-0.871119 -1.619688 9.549621
-0.861996 -1.594154 9.866865
-0.876276 -1.633519 10.447017
-0.852709 -1.567731 10.966741
-0.516643 -0.848943 1.584121
-0.603560 -1.160490 2.138177
-0.610632 -1.185538 2.613902
-0.622771 -1.228643 3.265949
-0.631306 -1.259003 3.652527
-0.645511 -1.309591 4.215089
-0.683157 -1.444433 4.589878
-0.668435 -1.391319 4.986146
-0.734612 -1.628568 5.345352
-0.811650 -1.904618 5.960771
-0.807958 -1.890967 6.529591
-0.775948 -1.775737 7.030047
-0.710646 -1.541130 7.377160
-0.703333 -1.514602 7.778740
-0.742638 -1.655147 8.511642
-0.733261 -1.621274 8.827360
-0.746073 -1.666785 9.493689
-0.744472 -1.660755 9.898937
-0.749955 -1.680086 10.392469
-0.717992 -1.564867 11.113905
-0.464091 -0.986096 1.566735
-0.508019 -1.214129 2.300241
-0.530069 -1.328675 2.592006
-0.519750 -1.274273 3.249045
-0.522900 -1.290472 3.458069
-0.535667 -1.356220 4.196154
-0.563931 -1.502954 4.657800
-0.555761 -1.459924 5.141048
-0.565129 -1.508329 5.524717
-0.635980 -1.876794 6.039429
-0.641846 -1.907137 6.245246
-0.608436 -1.732366 7.022122
-0.581085 -1.589597 7.351150
-0.594423 -1.658676 7.733461
-0.600010 -1.687110 8.396962
-0.596796 -1.669969 8.799355
-0.605717 -1.715763 9.465034
-0.618868 -1.783955 9.758861
-0.604113 -1.706598 10.275126
-0.590610 -1.635759 10.794545
-0.294012 -0.210417 1.031951
-0.370654 -0.919095 1.499122
-0.426818 -1.438074 2.043136
-0.417753 -1.353622 2.344595
-0.411495 -1.294537 3.000938
-0.413908 -1.316353 3.298032
-0.430698 -1.470665 3.938517
-0.432888 -1.490572 4.146368
-0.438284 -1.539700 4.617666
-0.445454 -1.605094 5.176041
-0.444157 -1.591928 5.834935
-0.451674 -1.660692 6.304924
-0.444569 -1.594530 6.527407
-0.447334 -1.618803 7.277211
-0.465432 -1.785707 7.640923
-0.477106 -1.892804 8.195572
-0.473101 -1.855181 8.508576
-0.475591 -1.877220 9.083995
-0.478973 -1.907510 9.660402
-0.476206 -1.881347 9.976681
-0.473055 -1.850962 10.667400
-0.453000 -1.664499 11.126217
-0.277943 -0.232839 1.102129
-0.302468 -0.940207 1.388337
-0.320424 -1.456737 1.847769
-0.321296 -1.479363 2.322007
-0.315683 -1.313979 2.897384
-0.316983 -1.348943 3.373228
-0.321625 -1.481089 3.751538
-0.323598 -1.535035 4.313258
-0.324753 -1.566814 4.610805
-0.327537 -1.643743 5.258912
-0.329361 -1.694365 5.643185
-0.331311 -1.748660 6.026956
-0.327553 -1.636808 6.615776
-0.329822 -1.700291 6.999369
-0.334515 -1.831960 7.731593
-0.337151 -1.906088 8.113270
-0.337840 -1.922854 8.688872
-0.336735 -1.889207 9.004381
-0.337869 -1.918835 9.582209
-0.339293 -1.956825 10.160919
-0.336857 -1.883587 10.678973
-0.329636 -1.672819 11.051647
-0.262361 -0.157262 1.184690
-0.212950 -1.167203 1.549417
-0.192723 -1.581503 1.921134
-0.201208 -1.410518 2.493466
-0.205250 -1.329188 2.798646
-0.203033 -1.376947 3.451172
-0.201845 -1.402355 3.750071
-0.194440 -1.555623 4.302959
-0.191529 -1.617215 4.863888
-0.189307 -1.664039 5.248640
-0.185751 -1.738781 5.807966
-0.192771 -1.597092 6.221304
-0.189914 -1.656892 6.606187
-0.176508 -1.932204 7.043992
-0.170154 -2.064715 7.773038
-0.177008 -1.926083 8.105786
-0.176294 -1.942885 8.682071
-0.174213 -1.987933 9.346398
-0.172866 -2.015881 9.466930
-0.174895 -1.977120 10.156163
-0.178573 -1.904051 10.674888
-0.190195 -1.669390 11.337576
-0.248713 -0.178302 1.196414
-0.118288 -1.175315 1.383015
-0.062797 -1.600442 2.107424
-0.086120 -1.422781 2.503803
-0.083787 -1.441044 2.802131
-0.090636 -1.389655 3.460828
-0.072411 -1.529614 3.926490
-0.067569 -1.567178 4.311885
-0.062249 -1.608394 4.696901
-0.055062 -1.664005 5.169192
-0.031185 -1.847398 5.801857
-0.062515 -1.608591 6.228850
-0.051146 -1.696291 6.788656
-0.019133 -1.941318 7.050795
-0.016930 -1.959118 7.711286
-0.020122 -1.935303 8.111909
-0.018046 -1.952007 8.687852
-0.002238 -2.073625 9.242598
-0.003428 -2.065116 9.645702
-0.016685 -1.964428 10.073926
-0.029349 -1.868270 10.504954
-0.057222 -1.656348 11.254015
-0.170114 -0.488494 1.058086
-0.063165 -0.982164 1.262211
0.026270 -1.395414 1.905746
0.050360 -1.506833 2.201668
0.038471 -1.452642 2.948487
0.043050 -1.474035 3.249003
0.051284 -1.512456 3.725409
0.062582 -1.565087 4.289225
0.071324 -1.605769 4.676665
0.087789 -1.682323 5.326700
0.096074 -1.720819 5.624035
0.089246 -1.689746 6.110592
0.080730 -1.650805 6.510962
0.141977 -1.933883 7.037190
0.142199 -1.935418 7.611655
0.144174 -1.945045 8.187411
0.140069 -1.926463 8.590241
0.136825 -1.911855 8.994172
0.155086 -1.996455 9.376623
0.151025 -1.978409 10.153445
0.125859 -1.862596 10.498480
0.095830 -1.724597 11.134424
-0.130047 -0.500954 1.073606
0.017899 -0.989493 1.455227
0.137879 -1.385727 1.831261
0.173283 -1.502883 2.302754
0.150784 -1.428882 2.696388
0.160186 -1.460224 3.172599
0.173435 -1.504319 3.736411
0.183870 -1.539011 4.123698
0.203846 -1.605363 4.774061
0.214048 -1.639230 5.072594
0.238464 -1.720234 5.721143
0.197053 -1.583828 6.135546
0.218206 -1.653951 6.609612
0.302503 -1.932514 7.135807
0.303297 -1.935508 7.710946
0.301399 -1.929561 8.200332
0.313742 -1.970435 8.409328
0.319873 -1.991046 8.986826
0.334395 -2.039409 9.652144
0.326936 -2.014997 9.971113
0.304988 -1.942895 10.489078
0.277842 -1.853829 11.298268
0.177134 -1.182139 1.793776
0.258563 -1.388368 2.260498
0.270660 -1.419256 2.823139
0.278233 -1.438567 3.120968
0.255322 -1.380858 3.603231
0.314100 -1.529873 4.243901
0.329057 -1.567908 4.628643
0.378031 -1.691942 4.913475
0.367244 -1.664946 5.484471
0.359449 -1.645522 6.057194
0.349521 -1.620657 6.543850
0.419749 -1.798589 7.085542
0.475050 -1.938623 7.362463
0.470955 -1.928515 7.848583
0.475621 -1.940611 8.422913
0.519224 -2.051198 8.976700
0.500359 -2.003591 9.204968
0.519964 -2.053526 9.867968
0.543635 -2.113746 10.531579
0.482929 -1.960460 11.075637
0.269807 -1.155862 1.563282
0.368579 -1.356138 2.120545
0.417528 -1.455362 2.326133
0.388377 -1.396566 2.895114
0.362787 -1.344981 3.466345
0.428925 -1.479166 4.020639
0.441856 -1.505480 4.315318
0.468977 -1.560645 4.873144
0.484667 -1.592546 5.167137
0.522412 -1.669265 5.811042
0.465228 -1.553663 6.309093
0.498156 -1.620551 6.778389
0.620707 -1.868935 7.211951
0.600422 -1.827985 7.521504
0.647197 -1.922953 8.074043
0.637856 -1.904204 8.472152
0.655857 -1.940942 9.132058
0.669454 -1.968724 9.706042
0.667360 -1.964654 10.107434
0.624207 -1.877439 10.534957
0.561391 -1.750490 11.166020
0.150107 -0.786188 1.501128
0.460028 -1.312244 1.780566
0.521748 -1.417162 2.250837
0.490771 -1.364835 2.907511
0.505005 -1.389135 3.294083
0.525052 -1.423333 3.768383
0.539105 -1.447291 4.066332
0.573629 -1.506122 4.715421
0.602151 -1.554702 5.188028
0.639620 -1.618495 5.747466
0.567216 -1.495776 6.160590
0.604361 -1.558989 6.633241
0.729282 -1.771085 6.896674
0.778825 -1.855368 7.452449
0.791234 -1.876673 8.113065
0.781058 -1.859552 8.514250
0.812831 -1.913582 8.807654
0.836598 -1.954162 9.469561
0.844090 -1.967058 9.959023
0.854644 -1.985150 10.449414
0.794449 -1.883263 11.166918
0.449226 -1.105220 1.733818
0.576521 -1.285877 2.200177
0.595043 -1.312325 2.762178
0.606665 -1.328902 3.059349
0.566165 -1.271602 3.452551
0.589940 -1.305470 3.926493
0.679595 -1.432780 4.477333
0.761573 -1.549146 4.849534
0.794769 -1.596372 5.319402
0.724149 -1.496424 5.904132
0.707514 -1.472996 6.389996
0.864813 -1.696188 6.827916
0.902457 -1.749692 7.208552
0.951575 -1.819494 7.675386
0.947338 -1.813644 8.160899
0.946517 -1.812639 8.647611
1.005350 -1.896217 9.113446
1.023169 -1.921671 9.687769
0.977261 -1.856742 10.200960
0.961904 -1.835192 10.890980
0.802826 -1.379799 1.992841
0.751199 -1.318227 2.385263
0.713434 -1.273296 3.041103
0.663735 -1.214001 3.346324
0.748324 -1.315185 3.723690
0.794348 -1.370394 4.460173
0.808971 -1.387928 4.668776
0.866068 -1.456367 5.403371
0.899317 -1.496208 5.786434
0.825104 -1.407706 6.374229
0.864303 -1.454656 6.757855
1.022656 -1.643944 7.019502
1.107282 -1.745276 7.747612
1.103187 -1.740525 8.233477
1.090986 -1.726064 8.633703
1.106444 -1.744704 9.208697
1.162994 -1.812385 9.588004
1.145869 -1.792015 9.903854
1.125548 -1.767937 10.592457
0.619730 -1.012079 1.557736
0.776447 -1.171028 2.114685
0.787337 -1.182143 2.413521
0.750925 -1.145448 3.160374
0.777607 -1.172612 3.635981
0.866332 -1.262593 3.925459
0.905876 -1.302814 4.486941
0.929074 -1.326400 4.784348
0.969150 -1.367135 5.256858
0.969789 -1.367983 6.005498
0.922071 -1.319692 6.229536
1.043408 -1.442763 6.685982
1.259147 -1.661532 7.295542
1.239201 -1.641428 7.693360
1.259091 -1.661759 8.352798
1.328446 -1.732161 8.818519
1.250761 -1.653557 9.241242
1.259139 -1.662178 9.730443
1.287219 -1.690786 10.307295
1.272497 -1.675954 10.624976
0.937935 -1.175611 2.124985
0.890437 -1.134374 2.780777
0.905801 -1.147841 3.078627
0.951039 -1.187456 3.816508
0.972157 -1.205938 4.113737
1.001981 -1.232030 4.498609
1.058504 -1.281460 5.146244
1.104656 -1.321806 5.617537
0.931257 -1.170792 6.132003
0.975617 -1.209555 6.517298
1.256865 -1.454809 6.939552
1.330850 -1.519437 7.494543
1.385005 -1.566736 7.874710
1.381440 -1.563750 8.360931
1.368150 -1.552266 8.761554
1.461238 -1.633544 9.314311
1.502970 -1.670085 9.975564
1.445905 -1.620473 10.489995
1.036063 -1.098074 2.241898
0.977536 -1.055093 2.720845
1.003898 -1.074615 3.194282
1.028649 -1.092928 3.579270
1.077078 -1.128738 4.227761
1.109761 -1.152893 4.611834
1.145392 -1.179218 4.995501
1.212145 -1.228519 5.641475
1.027089 -1.092384 6.155391
1.085856 -1.135764 6.627866
1.399312 -1.366680 7.135467
1.428783 -1.388428 7.341743
1.539693 -1.470261 8.068424
1.523024 -1.458081 8.467304
1.494365 -1.437053 8.780538
1.610086 -1.522409 9.419046
1.587483 -1.505839 9.733742
1.619671 -1.529674 10.308880
1.562048 -1.487367 10.824344
0.154058 -0.412417 1.321892
1.121467 -1.010748 2.242585
1.059813 -0.972735 2.724289
1.093595 -0.993748 3.288578
1.134079 -1.018902 3.852255
1.173445 -1.043347 4.327334
1.209045 -1.065443 4.714049
1.247802 -1.089492 5.100343
1.299672 -1.121667 5.573758
1.126148 -1.014535 6.266112
1.249628 -1.090942 6.549673
1.483754 -1.235795 6.989567
1.568221 -1.288142 7.546810
1.659305 -1.344580 8.102610
1.658101 -1.343945 8.591219
1.562516 -1.284941 9.016017
1.671065 -1.352177 9.571765
1.713542 -1.378486 9.780040
1.685461 -1.361277 10.469706
1.627072 -1.325292 10.989592
-0.088206 -0.257767 0.923251
0.917025 -0.770953 1.861355
1.297417 -0.965189 2.406498
1.145709 -0.887872 2.893737
1.176861 -0.903871 3.369438
1.213001 -0.922414 3.844694
1.334752 -0.984626 4.221481
1.371097 -1.003255 4.606997
1.439658 -1.038380 5.254515
1.418257 -1.027579 5.827446
1.292179 -0.963327 6.241882
1.358444 -0.997244 6.715411
1.692876 -1.168000 7.136213
1.652289 -1.147354 7.449054
1.658963 -1.150881 8.023811
1.689512 -1.166611 8.686618
1.746782 -1.195899 8.981441
1.791551 -1.218886 9.644827
1.836232 -1.241731 9.852334
1.787715 -1.217100 10.454825
1.726241 -1.185839 10.974009
1.161949 -0.770237 1.867469
1.376968 -0.858894 2.509705
1.209613 -0.790056 2.822106
1.254271 -0.808575 3.475053
1.370201 -0.856364 3.766327
1.412138 -0.873727 4.241006
1.468528 -0.897058 4.802681
1.521769 -0.919074 5.276032
1.488592 -0.905514 5.762507
1.357234 -0.851517 6.177742
1.425490 -0.879716 6.652416
1.758379 -1.016839 6.987970
1.865239 -1.060965 7.630774
1.858651 -1.058353 8.118516
1.840657 -1.051026 8.520807
1.880250 -1.067462 9.184147
1.943339 -1.093497 9.479155
1.957829 -1.099563 9.970164
2.019855 -1.125235 10.634702
1.825296 -1.045209 11.007546
1.320455 -0.715645 2.082686
1.434645 -0.753051 2.464104
1.386399 -0.737426 3.208415
1.328484 -0.718589 3.691372
1.362452 -0.729770 4.078355
1.494459 -0.773000 4.454344
1.535379 -0.786454 4.839616
1.623263 -0.815330 5.574034
1.462458 -0.762808 5.811295
1.567172 -0.797186 6.546270
1.800619 -0.873555 6.809750
1.907440 -0.908604 7.451371
1.882230 -0.900442 7.850652
1.844148 -0.888055 8.164291
1.971722 -0.929887 8.804997
1.940813 -0.919846 9.120213
1.951108 -0.923308 9.609653
2.008720 -0.942274 10.273085
2.010647 -0.942985 10.677879
1.574761 -0.653240 2.197710
1.417645 -0.615881 2.857440
1.438077 -0.620813 3.154856
1.467722 -0.627961 3.539946
1.534393 -0.644011 4.275600
1.574458 -0.653645 4.659692
1.650017 -0.671798 5.305742
1.711483 -0.686555 5.775946
1.464188 -0.627617 6.114959
1.548642 -0.647876 6.675014
1.898608 -0.731441 7.007990
1.995116 -0.754574 7.561738
2.082327 -0.775473 8.027619
2.002358 -0.756508 8.620323
1.987874 -0.753129 9.021391
1.957762 -0.746006 9.336807
2.127467 -0.786637 10.062274
2.127193 -0.786650 10.465470
1.627525 -0.520941 2.275716
1.550634 -0.509304 2.665001
1.582414 -0.514234 3.136478
1.634910 -0.522353 3.782709
1.688566 -0.530631 4.340565
1.739761 -0.538518 4.810290
1.796398 -0.547234 5.279375
1.748575 -0.540025 5.674326
1.606813 -0.518513 6.085263
1.692129 -0.531613 6.643291
2.047423 -0.585789 6.974788
2.129131 -0.598323 7.440074
2.153075 -0.602095 8.096498
2.054381 -0.587160 8.602049
2.039335 -0.584944 9.002433
2.144549 -0.601058 9.467675
2.180402 -0.606628 10.042035
2.202029 -0.610015 10.530893
2.087702 -0.592668 10.874060
1.659603 -0.380063 2.151177
1.691171 -0.382253 2.710068
1.717344 -0.384053 3.093555
1.662595 -0.380546 3.660238
1.697834 -0.382945 4.043956
1.845319 -0.392767 4.503924
1.821313 -0.391306 5.159441
1.771822 -0.388114 5.553903
1.726219 -0.385178 5.949765
1.824311 -0.391775 6.593585
2.084075 -0.408988 6.940936
2.280084 -0.422027 7.474226
2.138875 -0.412768 7.802586
2.151003 -0.413677 8.373513
2.152304 -0.413854 8.859078
2.139635 -0.413094 9.259214
2.172736 -0.415387 9.833419
2.266593 -0.421654 10.210954
2.263864 -0.421620 10.984201
1.777987 -0.246273 2.013778
1.702696 -0.247365 2.489506
1.726798 -0.247116 2.872790
1.775690 -0.246588 3.518084
1.817873 -0.246115 3.987936
1.856283 -0.245676 4.370051
1.898341 -0.245189 4.751782
1.954991 -0.244524 5.220110
1.942658 -0.244812 5.875613
1.729761 -0.247757 6.476898
1.905248 -0.245508 6.930364
2.137921 -0.242446 7.103041
2.222143 -0.241413 7.568396
2.133051 -0.242710 8.158445
2.150483 -0.242586 8.731285
2.273621 -0.241052 9.282711
2.168159 -0.242535 9.707039
2.282934 -0.241096 10.171859
2.329523 -0.240585 10.747193
1.791407 -0.098660 1.995343
1.820686 -0.095947 2.551936
1.752064 -0.102644 3.027949
1.781126 -0.099918 3.410192
1.838348 -0.094531 4.054091
1.867951 -0.091736 4.348245
1.919563 -0.086856 4.816441
1.900605 -0.088805 5.471105
1.940580 -0.085012 5.764762
1.825256 -0.096226 6.349482
1.969918 -0.082350 6.627658
2.290046 -0.051658 7.319211
2.229595 -0.057521 7.542062
2.255348 -0.055166 8.198083
2.138753 -0.066471 8.616939
2.240135 -0.056798 9.081655
2.291337 -0.051993 9.740951
2.309359 -0.050350 10.228476
2.333361 -0.048132 10.716889
1.683946 0.016610 1.728155
1.812525 0.038664 2.371455
1.731481 0.024628 2.675193
1.776739 0.032310 3.323111
1.808557 0.037724 3.708199
1.843823 0.043733 4.090915
1.901628 0.053597 4.647621
1.880272 0.049788 5.303220
1.907168 0.054387 5.510934
2.081933 0.084426 6.051947
1.888878 0.050997 6.740409
1.870740 0.047776 7.226641
2.198336 0.104249 7.380616
2.238442 0.111023 8.124177
2.218878 0.107573 8.523175
2.241340 0.111337 9.096168
2.231440 0.109553 9.497386
2.300434 0.121397 9.789486
2.267660 0.115613 10.475589
2.199643 0.103783 10.992362
0.783238 -0.076962 0.956665
1.279141 0.050539 1.425656
1.676456 0.152709 1.711723
1.798020 0.183879 2.267719
1.824835 0.190686 2.739870
1.773790 0.177425 3.394143
1.813474 0.187544 3.866512
1.849806 0.196817 4.251127
1.793474 0.182246 4.646502
1.858038 0.198749 5.205784
1.906836 0.211229 5.589896
2.055039 0.249289 5.959076
2.137343 0.270357 6.514457
2.131752 0.268807 7.085787
2.213577 0.289769 7.553541
2.222504 0.291954 8.126203
2.203718 0.287043 8.527227
2.170419 0.278414 8.842856
2.197439 0.285254 9.419046
2.232572 0.294181 9.996149
2.232190 0.294004 10.401369
2.187783 0.282460 11.006552
0.881426 0.020679 0.958215
1.551452 0.253358 1.331499
1.847051 0.355968 1.706719
1.871200 0.364245 2.264841
1.814057 0.344265 2.916496
1.753264 0.323051 3.395850
1.878485 0.366475 3.771528
1.827392 0.348630 4.252149
1.894809 0.371921 4.897418
1.762889 0.325995 5.393492
1.905699 0.375530 5.764082
2.250904 0.495362 6.188813
2.200962 0.477952 6.497971
2.023528 0.416177 7.188770
2.011620 0.411944 7.675725
2.190561 0.474014 8.124515
2.097118 0.441452 8.632505
2.175754 0.468693 9.013459
2.165858 0.465175 9.416344
2.179835 0.469932 9.906702
2.242115 0.491434 10.570672
2.087486 0.437611 11.115895
0.875549 0.092397 0.887647
1.249396 0.257685 1.270715
1.538159 0.385320 1.737551
1.748977 0.478441 2.376915
1.775492 0.490072 2.848989
1.709516 0.460808 3.238747
1.752313 0.479624 3.796233
1.777856 0.490862 4.091255
1.831496 0.514475 4.647621
1.801483 0.501082 5.215666
2.039487 0.606269 5.657061
2.270142 0.708224 6.006955
2.232584 0.691530 6.399344
2.058926 0.614573 7.086125
2.031203 0.602228 7.483201
2.096885 0.631203 7.862417
2.092535 0.629179 8.347488
2.146338 0.652825 9.093131
2.118522 0.640455 9.407562
2.220314 0.685386 9.872030
2.238538 0.693347 10.360165
2.085732 0.625643 10.901447
1.040058 0.249442 0.685227
1.136237 0.300672 1.161808
1.416562 0.450166 1.716700
1.695728 0.599081 2.088193
1.722912 0.613470 2.645739
1.657549 0.578502 3.035467
1.703078 0.602663 3.680899
1.662063 0.580652 4.248325
1.769034 0.637701 4.446020
2.262833 0.900978 5.708636
1.890441 0.701850 7.476213
1.852595 0.681584 7.789801
2.020755 0.771237 8.238616
2.037465 0.780033 8.812772
2.147433 0.838605 9.365292
2.159804 0.845103 9.853840
2.157972 0.844039 10.257114
2.115381 0.821179 10.859793
0.852007 0.228765 0.985464
1.280191 0.504956 1.361471
1.465481 0.624386 1.915301
1.645120 0.740230 2.201169
1.672287 0.757634 2.757603
1.622185 0.725180 3.321403
1.655690 0.746693 3.790774
2.033988 0.990475 5.158046
2.315666 1.172165 5.409262
2.203385 1.099608 5.897664
2.167890 1.076618 6.288337
2.031958 0.988719 7.145194
1.732115 0.795190 7.421445
1.737789 0.798722 7.995200
2.012451 0.975807 8.594755
1.983467 0.957036 8.907400
2.007132 0.972177 9.480505
2.119280 1.044414 10.030260
2.118614 1.043894 10.431520
1.066932 0.478073 0.858034
1.155076 0.545528 1.333316
1.321503 0.673036 1.625870
1.582217 0.872739 2.259187
1.599606 0.885979 2.640964
1.550990 0.848578 3.204588
1.575537 0.867303 3.586698
1.702431 0.964426 4.220207
1.482818 0.796021 4.458452
2.201197 1.346507 5.294842
1.879404 1.099000 8.791812
1.868838 1.090806 9.191926
1.988274 1.182210 9.828911
1.986030 1.180394 10.230161
1.928562 1.136219 10.744393
0.731572 0.298586 1.113195
1.332466 0.842630 1.480137
1.568254 1.056030 1.940022
1.508284 1.001625 2.327779
1.538135 1.028493 2.972747
1.496291 0.990457 3.538225
1.521677 1.013348 3.921430
1.623508 1.105466 4.293976
1.654249 1.133206 4.675505
