-1.510679 -5.775327 7.055102
-2.197582 -6.095767 1.016915
-2.198247 -6.097611 1.581974
-2.192682 -6.082173 2.082553
-2.183741 -6.057372 2.646070
-2.179063 -6.044396 3.218968
-2.176041 -6.036014 3.741521
-2.201331 -6.106164 4.711132
-2.193367 -6.084074 5.006259
-2.220178 -6.158444 5.908038
-2.212412 -6.136902 6.263104
-2.195912 -6.091134 6.705680
-2.988201 -6.499069 1.499375
-2.990673 -6.504445 1.600663
-3.011522 -6.549790 2.556718
-3.012479 -6.551871 3.052968
-2.989227 -6.501300 3.220786
-3.009156 -6.544645 4.113020
-3.009969 -6.546413 4.438750
-3.013737 -6.554609 5.055702
-3.041546 -6.615090 5.755706
-3.018799 -6.565618 5.971987
-3.812948 -6.792205 0.423769
-3.812489 -6.791386 1.194398
-3.814300 -6.794612 1.272079
-3.812653 -6.791680 2.009727
-3.802241 -6.773132 2.353058
-3.819038 -6.803054 3.149510
-3.837488 -6.835919 3.805142
-3.856819 -6.870355 4.521434
-3.827838 -6.818729 4.757529
-3.834430 -6.830471 5.347945
-3.828602 -6.820091 5.882217
-3.828411 -6.819751 6.523826
-3.808086 -6.783545 7.055323
-4.288589 -6.266289 0.626295
-4.264413 -6.230965 0.876986
-4.254490 -6.216465 1.570944
-4.270109 -6.239286 2.285659
-4.255387 -6.217775 2.546875
-4.214933 -6.158666 2.828461
-4.224221 -6.172238 3.581101
-4.259313 -6.223512 4.477737
-4.247128 -6.205708 5.056520
-4.208342 -6.149036 5.352386
-4.233168 -6.185311 6.136925
-4.160245 -6.078759 6.242944
-4.202922 -6.141117 7.147292
-4.573580 -5.546391 0.404682
-4.572379 -5.544933 1.178684
-4.588605 -5.564612 1.655411
-4.563846 -5.534585 2.159321
-4.533595 -5.497900 2.732972
-4.529354 -5.492757 3.335513
-4.561444 -5.531672 4.221960
-4.526680 -5.489514 4.506012
-4.541373 -5.507333 5.318274
-4.512312 -5.472090 5.713229
-4.532884 -5.497037 6.522441
-4.535869 -5.500658 7.045896
-4.805408 -4.921111 0.965422
-4.845562 -4.962232 2.002550
-4.828894 -4.945162 2.327708
-4.800672 -4.916260 2.700068
-4.821172 -4.937254 3.593222
-4.786518 -4.901766 3.958111
-4.771252 -4.886132 4.464128
-4.824084 -4.940236 5.425821
-4.747797 -4.862112 5.639063
-4.707926 -4.821281 6.082070
-4.773856 -4.888798 6.999319
-5.056209 -4.361254 0.943159
-5.107266 -4.405293 2.127704
-5.088834 -4.389395 2.137026
-5.066449 -4.370087 2.896849
-5.034809 -4.342795 3.402059
-5.074388 -4.376934 4.138251
-5.054694 -4.359947 4.603351
-5.076780 -4.378998 5.443462
-5.047196 -4.353480 5.866713
-5.044949 -4.351542 6.417639
-4.990352 -4.304449 6.755669
-5.262918 -3.845716 0.637273
-5.294587 -3.868858 1.592416
-5.307857 -3.878554 1.851273
-5.307090 -3.877994 2.468951
-5.290925 -3.866182 3.016466
-5.275939 -3.855231 3.491722
-5.253878 -3.839110 4.024008
-5.266143 -3.848073 4.889020
-5.289308 -3.865000 5.566898
-5.247505 -3.834453 5.926088
-5.291099 -3.866308 6.709934
-5.286318 -3.862815 7.287618
-5.497378 -3.315068 0.691669
-5.534607 -3.337518 1.687371
-5.538223 -3.339699 1.754181
-5.511457 -3.323558 2.339125
-5.466776 -3.296614 2.846971
-5.506273 -3.320432 3.656377
-5.549414 -3.346447 4.499262
-5.501042 -3.317277 4.906734
-5.522155 -3.330010 5.688617
-5.441675 -3.281478 5.848404
-5.432838 -3.276149 6.375166
-5.333786 -3.216417 6.957317
5.958552 -0.290403 1.245671
6.059513 -0.295323 1.865150
5.882172 -0.286680 2.913897
5.941324 -0.289563 3.384326
5.922325 -0.288637 4.114312
5.822582 -0.283776 5.093230
5.810741 -0.283199 5.840515
5.843769 -0.284809 6.507251
5.844915 -0.284864 7.153183
5.551024 -0.724236 0.925121
5.516043 -0.719672 1.865218
5.477670 -0.714665 2.632484
5.432496 -0.708772 3.518105
5.578642 -0.727839 3.869737
5.558774 -0.725247 4.570053
5.480425 -0.715025 5.469932
5.415402 -0.706541 6.410426
5.417961 -0.706875 7.223520
5.312518 -1.126159 0.708432
5.307367 -1.125067 1.471965
5.289277 -1.121232 2.297156
5.259574 -1.114936 3.071490
5.077732 -1.076389 4.197407
5.167388 -1.095394 4.776037
5.239000 -1.110575 5.285220
5.137988 -1.089162 6.170019
5.085501 -1.078036 7.150945
5.237105 -1.600509 0.781935
4.911235 -1.500920 1.546121
4.930195 -1.506714 2.185649
4.829363 -1.475899 3.127468
4.868630 -1.487899 3.786247
4.813252 -1.470975 4.589755
4.842372 -1.479875 5.281487
4.799116 -1.466655 6.159258
4.808857 -1.469632 6.938635
4.735461 -1.862293 0.394950
4.611335 -1.813478 1.348635
4.681951 -1.841249 1.983177
4.648058 -1.827920 2.824078
4.612149 -1.813798 3.656186
4.545422 -1.787557 4.558088
4.559983 -1.793283 5.291482
4.579917 -1.801122 5.901629
4.595461 -1.807235 6.561417
4.285320 -2.104451 1.207998
4.354359 -2.138355 1.895807
4.308540 -2.115854 2.829291
4.241892 -2.083124 3.686988
4.211557 -2.068228 4.500615
4.234425 -2.079458 5.135919
4.295119 -2.109263 5.609908
4.300231 -2.111774 6.367619
3.962298 -2.343481 0.293483
4.051700 -2.396357 1.174007
4.042935 -2.391173 1.927006
4.066623 -2.405183 2.813994
4.128087 -2.441536 3.394767
4.096361 -2.422772 4.129697
4.050222 -2.395483 5.096021
4.050575 -2.395692 5.835902
4.086479 -2.416927 6.499988
3.734954 -2.637408 0.618552
3.800767 -2.683881 1.731843
3.761034 -2.655825 2.655793
3.843360 -2.713958 3.290530
3.770719 -2.662664 4.217231
3.707646 -2.618125 5.114416
3.787665 -2.674630 5.504508
3.783491 -2.671682 6.211371
3.716976 -2.624713 7.312292
3.463879 -2.882970 0.744137
3.481480 -2.897618 1.642499
3.597023 -2.993784 2.254033
3.594119 -2.991368 3.045137
3.480651 -2.896929 4.100025
3.482208 -2.898225 4.780133
3.555063 -2.958861 5.314834
3.472152 -2.889855 6.399634
3.509785 -2.921177 7.257384
3.227090 -3.168668 2.295014
3.258967 -3.199968 3.043864
3.234153 -3.175603 3.891150
3.201463 -3.143505 4.754506
3.209708 -3.151601 5.446315
3.209105 -3.151009 6.219189
3.214545 -3.156351 7.025425
3.071848 -3.524539 1.742807
3.051793 -3.501529 2.627032
3.049276 -3.498641 3.438971
2.962480 -3.399054 4.419772
2.986583 -3.426709 5.241493
3.077624 -3.531166 5.670718
3.011618 -3.455433 6.602551
2.786056 -3.828415 1.848997
2.802678 -3.851257 2.549058
2.758149 -3.790067 3.394130
2.710627 -3.724766 4.240720
2.760170 -3.792845 4.921421
2.783957 -3.825531 5.687277
2.777027 -3.816009 6.344253
2.403884 -3.866503 0.817941
2.495923 -4.014541 1.922262
2.534471 -4.076544 2.528409
2.481520 -3.991375 3.491909
2.486270 -3.999016 4.254434
2.496800 -4.015952 4.962458
2.460909 -3.958224 5.890243
2.529507 -4.068559 6.367619
2.243025 -4.361505 1.117858
2.247797 -4.370783 1.878903
2.203286 -4.284233 2.912042
2.210949 -4.299133 3.686925
2.255062 -4.384909 4.172279
2.213598 -4.304284 5.092918
2.190410 -4.259195 5.977810
2.199380 -4.276638 6.802288
1.896058 -4.608772 0.696283
1.904348 -4.628922 1.471001
1.909074 -4.640409 2.299635
1.917602 -4.661138 2.965699
1.891948 -4.598780 3.809124
1.909494 -4.641430 4.557442
1.901755 -4.622619 5.458933
1.926217 -4.682080 6.105587
1.918737 -4.663897 6.807751
1.620513 -5.017001 1.441962
1.596984 -4.944157 2.449711
1.596057 -4.941287 3.237024
1.637376 -5.069207 3.678572
1.601410 -4.957861 4.685989
1.623609 -5.026587 5.266643
1.600681 -4.955603 6.223277
1.637839 -5.070640 6.653734
1.283967 -5.468415 1.426755
1.261164 -5.371299 2.471490
1.261233 -5.371589 3.244892
1.273925 -5.425647 3.802382
1.267781 -5.399477 4.651555
1.253509 -5.338695 5.514402
1.267164 -5.396850 6.167659
1.278789 -5.446361 6.806658
0.890284 -5.809279 0.881160
0.894803 -5.838764 1.519444
0.889811 -5.806193 2.364800
0.875888 -5.715342 3.327434
0.873577 -5.700260 4.178159
0.883751 -5.766646 4.740138
0.882388 -5.757756 5.528745
0.888278 -5.796185 6.235918
0.901315 -5.881258 6.764199
0.404504 -6.187827 1.123172
0.414130 -6.335078 1.645469
0.412619 -6.311964 2.465923
0.410075 -6.273056 3.305328
0.400835 -6.131708 4.440916
0.414326 -6.338080 4.793123
0.413604 -6.327036 5.577351
0.411298 -6.291762 6.413125
0.408192 -6.244243 7.279743
-0.039428 -6.720482 1.318533
-0.039994 -6.816930 1.990946
-0.039529 -6.737625 2.990750
-0.039616 -6.752472 3.790364
-0.040143 -6.842293 4.458617
-0.040321 -6.872682 5.104957
-0.040293 -6.867806 5.808566
-0.040188 -6.850055 6.673530
-0.679599 -7.377547 0.753971
-0.680723 -7.389748 1.496191
-0.680360 -7.385813 2.409147
-0.688056 -7.469353 3.078097
-0.686503 -7.452503 3.872429
-0.686001 -7.447044 4.687584
-0.684465 -7.430369 5.586261
-0.696588 -7.561976 6.008581
-0.681501 -7.398195 7.146682
-1.294186 -7.389807 0.543876
-1.239936 -7.080041 1.663534
-1.245654 -7.112694 2.353305
-1.245965 -7.114468 3.021173
-1.260956 -7.200064 3.594399
-1.250409 -7.139843 4.463030
-1.259100 -7.189467 4.986477
-1.252444 -7.151462 5.760606
-1.261473 -7.203021 6.337578
-1.260735 -7.198802 7.035650
-1.713581 -6.657523 0.329717
-1.742102 -6.768333 0.986597
-1.702884 -6.615962 2.071705
-1.743973 -6.775599 2.464089
-1.694660 -6.584011 3.628033
-1.697181 -6.593808 4.410118
-1.706660 -6.630634 5.035772
-1.695554 -6.587484 5.841626
-1.714764 -6.662118 6.287016
-1.703580 -6.618669 7.197373
-2.138159 -6.194477 0.895713
-2.168719 -6.283016 1.615438
-2.168910 -6.283568 2.379351
-2.198995 -6.370727 2.929185
-2.165028 -6.272320 3.868701
-2.170058 -6.286895 4.591259
-2.129882 -6.170499 5.647739
-2.172208 -6.293124 5.944739
-2.172948 -6.295265 6.535289
-2.741319 -6.247280 0.722048
-2.627330 -5.987506 1.182176
-2.579722 -5.879012 2.274845
-2.605524 -5.937813 2.941285
-2.586250 -5.893889 3.762701
-2.601349 -5.928299 4.431344
-2.617079 -5.964146 4.994496
-2.594543 -5.912787 5.837968
-2.600444 -5.926235 6.544151
-2.920093 -5.490887 1.408159
-2.977634 -5.599086 1.986395
-2.978695 -5.601082 2.829244
-2.948548 -5.544393 3.745967
-2.975682 -5.595416 4.304607
-2.988774 -5.620035 4.892715
-2.935697 -5.520229 5.888188
-2.922129 -5.494717 6.812777
-3.656394 -5.625536 0.820631
-3.374047 -5.191132 1.194175
-3.334566 -5.130389 2.263049
-3.340616 -5.139696 3.107514
-3.349373 -5.153169 3.863638
-3.368861 -5.183152 4.482285
-3.421312 -5.263851 4.908991
-3.404364 -5.237775 5.685164
-3.360427 -5.170177 6.588389
-3.782000 -4.904024 1.032845
-3.771112 -4.889905 1.817645
-3.685833 -4.779326 2.955028
-3.707436 -4.807338 3.600127
-3.756546 -4.871018 4.295663
-3.707912 -4.807955 5.229542
-3.803116 -4.931404 5.593859
-3.764987 -4.881963 6.513740
-3.761333 -4.877225 7.175827
-3.582123 -4.644848 7.713032
-4.042376 -4.482941 2.148058
-4.135477 -4.586189 2.775990
-4.056606 -4.498722 3.816208
-4.084072 -4.529181 4.421746
-4.104614 -4.551962 5.081075
-4.090342 -4.536135 5.919683
-4.142103 -4.593537 6.454516
-4.112720 -4.560952 7.316648
-3.896080 -4.320701 7.609488
-4.848162 -4.566713 1.219997
-4.505697 -4.244130 1.843838
-4.488145 -4.227596 2.680363
-4.487068 -4.226582 3.392403
-4.523310 -4.260720 4.147643
-4.428025 -4.170966 5.199824
-4.420948 -4.164300 6.016222
-4.482235 -4.222030 6.535960
-4.533186 -4.270023 7.042830
-4.301840 -4.052107 7.563404
-4.819371 -3.867036 1.111322
-4.702526 -3.773280 2.218704
-4.837667 -3.881716 2.661596
-4.812510 -3.861531 3.439748
-4.814799 -3.863367 4.243817
-4.807800 -3.857752 5.060555
-4.822171 -3.869283 5.787405
-4.856524 -3.896847 6.410856
-5.157232 -3.486122 1.078816
-5.142807 -3.476371 2.029682
-5.140205 -3.474613 3.007004
-5.140357 -3.474715 3.792238
-5.252068 -3.550228 4.235972
-5.203745 -3.517563 5.242391
-5.190127 -3.508358 6.001121
-5.281831 -3.570347 6.363250
-5.585269 -3.163499 0.725389
-5.525758 -3.129792 1.533998
-5.624687 -3.185825 2.186883
-5.593843 -3.168355 3.058505
-5.544362 -3.140329 3.970973
-5.627991 -3.187697 4.575100
-5.593181 -3.167980 5.417265
-5.589739 -3.166031 6.074960
-5.670138 -3.211569 6.567633
-6.028314 -2.748113 0.868950
-5.971414 -2.722174 1.775727
-6.000622 -2.735489 2.598153
-5.982192 -2.727087 3.517016
-6.001384 -2.735836 4.336395
-6.128511 -2.793789 4.779403
-6.069921 -2.767080 5.693261
-5.991753 -2.731446 6.599163
-6.024915 -2.746563 7.289258
-6.656497 -2.477598 0.634291
-6.417247 -2.388548 1.190490
-6.378110 -2.373980 2.122298
-6.271002 -2.334114 3.146605
-6.337638 -2.358916 3.829570
-6.317806 -2.351535 4.764905
-6.495433 -2.417649 5.094789
-6.417495 -2.388640 6.079934
-6.478772 -2.411448 6.799442
-6.879907 -1.920950 0.714513
-6.763193 -1.888362 1.868823
-6.915953 -1.931015 2.377540
-6.935741 -1.936540 3.238880
-6.986697 -1.950768 3.955658
-6.988122 -1.951165 4.701387
-6.970823 -1.946335 5.473687
-6.933560 -1.935931 6.433128
-6.982675 -1.949644 7.213199
-7.136918 -1.367050 1.104666
-7.169761 -1.373341 1.824436
-7.277523 -1.393982 2.423278
-7.035334 -1.347592 3.612869
-7.146785 -1.368940 3.965943
-7.034906 -1.347510 4.988722
-7.044289 -1.349307 5.710638
-7.228132 -1.384522 5.992798
-7.017802 -1.344234 7.210722
-6.697105 -0.732715 0.568342
-6.529016 -0.714325 1.657684
-6.520862 -0.713432 2.499373
-6.587615 -0.720736 3.107299
-6.540866 -0.715621 3.809079
-6.596004 -0.721654 4.370545
-6.535486 -0.715032 5.246878
-6.582071 -0.720129 5.682933
-6.497751 -0.710904 6.509175
-6.054093 -0.169825 1.341301
-6.191176 -0.173670 1.836440
-6.182660 -0.173431 2.525353
-6.148381 -0.172470 3.422034
-6.039346 -0.169411 4.363228
-6.004789 -0.168442 5.119082
-5.959141 -0.167161 5.883771
-5.956880 -0.167098 6.576846
-6.058677 -0.169953 6.907442
-5.746920 0.291376 0.688201
-5.761370 0.292109 1.514514
-5.584774 0.283155 2.664435
-5.599547 0.283904 3.475057
-5.679123 0.287939 4.046907
-5.659792 0.286959 4.821850
-5.564360 0.282120 5.786250
-5.675331 0.287747 6.071946
-5.654295 0.286680 6.761598
-5.373772 0.672719 1.601149
-5.318699 0.665825 2.452692
-5.402605 0.676329 3.102421
-5.311067 0.664870 4.067307
-5.275709 0.660443 4.824761
-5.337933 0.668233 5.363637
-5.258815 0.658328 6.262927
-5.219633 0.653423 7.119596
-4.888154 1.017399 0.572335
-4.948223 1.029901 1.765107
-5.015926 1.043993 2.368573
-5.052774 1.051662 3.001734
-5.009830 1.042724 3.788291
-4.867473 1.013094 4.885860
-4.869248 1.013464 5.676710
-4.876324 1.014937 6.429930
-4.872363 1.014112 7.193072
-4.683379 1.409763 1.587910
-4.719561 1.420655 2.371053
-4.708614 1.417359 3.179660
-4.746171 1.428665 3.847790
-4.689661 1.411654 4.661575
-4.649710 1.399629 5.486182
-4.605323 1.386268 6.390958
-4.594668 1.383060 7.266457
-4.441555 1.728627 1.671213
-4.373046 1.701963 2.582742
-4.419498 1.720042 3.204743
-4.304680 1.675356 4.209404
-4.319622 1.681171 4.927238
-4.390058 1.708584 5.372331
-4.294820 1.671518 6.524215
-4.324647 1.683127 7.270742
-4.129080 2.003036 1.691115
-4.157976 2.017053 2.379133
-4.081290 1.979853 3.366206
-4.113250 1.995357 4.126580
-4.118255 1.997784 4.797895
-4.119445 1.998362 5.519078
-4.030338 1.955135 6.517538
-4.141600 2.009109 7.046485
-3.892946 2.293797 0.830000
-3.882319 2.287535 1.747704
-3.799869 2.238954 2.842616
-3.876369 2.284030 3.452611
-3.879788 2.286044 4.162869
-3.804461 2.241660 5.086954
-3.779229 2.226793 5.998530
-3.892046 2.293267 6.399634
-3.656176 2.574666 1.876510
-3.651025 2.571039 2.659086
-3.635264 2.559941 3.513653
-3.588850 2.527256 4.382015
-3.516177 2.476080 5.331178
-3.606423 2.539630 5.848534
-3.613335 2.544498 6.541737
-3.426144 2.883690 0.528945
-3.393244 2.855999 1.213655
-3.336018 2.807833 2.228962
-3.358574 2.826818 3.012699
-3.351370 2.820755 3.800950
-3.362441 2.830072 4.574858
-3.374679 2.840373 5.246006
-3.355981 2.824636 5.998530
-3.400448 2.862062 6.627720
-3.301737 3.211327 0.716045
-3.157877 3.071406 1.385731
-3.189692 3.102351 2.097632
-3.101714 3.016782 3.220137
-3.152403 3.066082 3.890947
-3.176773 3.089785 4.480256
-3.156413 3.069982 5.341225
-3.124049 3.038505 6.243216
-3.167998 3.081250 6.792732
-2.897594 3.310228 0.788363
-2.856150 3.262882 1.986173
-2.920586 3.336495 2.606947
-2.960199 3.381749 3.273703
-2.908456 3.322637 4.383255
-2.893214 3.305225 5.150042
-2.917287 3.332725 5.872371
-2.927442 3.344327 6.627720
-2.606886 3.526177 1.257646
-2.609449 3.529644 2.107846
-2.635476 3.564848 2.852790
-2.607944 3.527607 3.785167
-2.668460 3.609464 4.266469
-2.577827 3.486870 5.379644
-2.570195 3.476546 6.188116
-2.647325 3.580876 6.517809
-2.506244 4.061347 0.614232
-2.376864 3.851688 1.367294
-2.380316 3.857283 2.156008
-2.347382 3.803913 3.141606
-2.354314 3.815146 3.880008
-2.389470 3.872117 4.589555
-2.368800 3.838620 5.486132
-2.352718 3.812559 6.352771
-2.354994 3.816248 7.181950
-2.085000 4.080631 1.199179
-2.094455 4.099137 1.949241
-2.077044 4.065061 2.864434
-2.069488 4.050272 3.787424
-2.100148 4.110279 4.353161
-2.109044 4.127689 5.069913
-2.072513 4.056192 6.046430
-2.130022 4.168746 6.461330
-1.793664 4.337101 1.479940
-1.828331 4.420926 2.150663
-1.799273 4.350662 3.096576
-1.807610 4.370821 3.871847
-1.831054 4.427509 4.521545
-1.849876 4.473022 5.163770
-1.819399 4.399328 6.219543
-1.867622 4.515932 6.638995
-1.557500 4.753946 0.607288
-1.528519 4.665486 1.606787
-1.528334 4.664923 2.531640
-1.572616 4.800083 3.063305
-1.557679 4.754492 3.930788
-1.553805 4.742667 4.697839
-1.578452 4.817897 5.336364
-1.546495 4.720355 6.391206
-1.556742 4.751632 7.115806
-1.200203 5.024452 0.940158
-1.214483 5.084233 1.697731
-1.209002 5.061288 2.668491
-1.206479 5.050727 3.548018
-1.213065 5.078298 4.254667
-1.209416 5.063022 5.115549
-1.229872 5.148656 5.747036
-1.231481 5.155393 6.339668
-0.843043 5.405503 1.274251
-0.833175 5.342231 2.297156
-0.837109 5.367456 3.069290
-0.849191 5.444929 3.694619
-0.842538 5.402269 4.646570
-0.845743 5.422818 5.429854
-0.857535 5.498425 5.954347
-0.861565 5.524267 6.655123
-0.423504 5.810142 0.610110
-0.428737 5.881929 1.429092
-0.426452 5.850578 2.323903
-0.428533 5.879128 3.080103
-0.425569 5.838467 4.100029
-0.426800 5.855348 4.850260
-0.427770 5.868657 5.584738
-0.426248 5.847781 6.469802
-0.437373 6.000413 6.802418
0.037263 6.205302 1.220764
0.037544 6.252170 1.996642
0.037184 6.192078 2.974191
0.038270 6.373011 3.416261
0.038413 6.396862 4.164945
0.038626 6.432307 4.860004
0.038125 6.348849 5.914978
0.038881 6.474791 6.381415
0.038231 6.366525 7.434603
0.577973 6.790911 0.784935
0.585411 6.878304 1.612439
0.580310 6.818378 2.603372
0.582737 6.846890 3.469126
0.583462 6.855412 4.244046
0.587779 6.906132 4.960861
0.597495 7.020290 5.414880
0.587658 6.904710 6.596082
0.596115 7.004077 7.244305
1.159771 6.970685 1.310784
1.168647 7.024035 2.057444
1.165675 7.006171 2.811967
1.178160 7.081212 3.402843
1.144925 6.881455 4.591745
1.161277 6.979735 5.069868
1.153193 6.931148 5.884317
1.168941 7.025800 6.349594
1.173790 7.054946 6.951670
1.631898 6.513022 1.277597
1.662554 6.635373 1.837791
1.644463 6.563172 2.646312
1.620714 6.468385 3.612503
1.655081 6.605547 4.092969
1.629521 6.503536 5.054280
1.644727 6.564227 5.580401
1.659825 6.624481 6.130488
1.662316 6.634422 6.782656
2.089682 6.190368 0.674163
2.087995 6.185371 1.412220
2.098431 6.216286 2.217290
2.044032 6.055137 3.317680
2.091991 6.197209 3.712793
2.062577 6.110074 4.687201
2.077851 6.155320 5.309066
2.076409 6.151050 6.107597
2.084874 6.176125 6.796272
2.467996 5.684303 1.396484
2.467899 5.684081 2.218608
2.521731 5.808065 2.796379
2.478854 5.709311 3.809695
2.514781 5.792059 4.294865
2.518634 5.800934 5.063814
2.487704 5.729695 5.977900
2.480749 5.713675 6.716260
2.887586 5.450433 1.776620
2.862038 5.402209 2.673554
2.900450 5.474714 3.263591
2.822632 5.327830 4.392993
2.847623 5.375002 5.062854
2.860140 5.398628 5.769043
2.865642 5.409012 6.333135
2.883290 5.442325 6.848996
3.337201 5.157890 0.552320
3.281496 5.071794 1.371051
3.245317 5.015877 2.330458
3.244752 5.015004 3.089120
3.222254 4.980231 4.044775
3.214443 4.968159 4.868671
3.226420 4.986670 5.579662
3.242328 5.011258 6.238729
3.240697 5.008737 6.958936
3.633319 4.720810 1.155079
3.643078 4.733489 1.939358
3.634733 4.722646 2.764468
3.626820 4.712365 3.634093
3.671957 4.771012 4.284420
3.640822 4.730557 5.147321
3.640908 4.730670 5.861391
3.642235 4.732394 6.539545
3.968340 4.408524 0.833260
3.906811 4.340171 1.815614
3.867902 4.296946 2.790324
3.919591 4.354368 3.523657
3.974896 4.415808 4.022371
3.917680 4.352245 4.956769
3.881031 4.311531 5.961462
3.921755 4.356772 6.552635
3.903119 4.336069 7.295454
3.783481 4.203161 7.454772
4.231356 3.999824 1.035337
4.238141 4.006238 1.830606
4.318216 4.081931 2.453339
4.240645 4.008605 3.576104
4.164389 3.936522 4.330626
4.228329 3.996962 4.846848
4.258562 4.025541 5.796528
4.310959 4.075071 6.267878
4.311190 4.075290 6.898856
4.598884 3.697425 0.942318
4.580696 3.682802 1.740721
4.611327 3.707429 2.505629
4.624057 3.717664 3.296522
4.523646 3.636935 4.413798
4.651158 3.739453 4.741742
4.657054 3.744193 5.482651
4.586072 3.687125 6.485267
4.615964 3.711157 7.011063
4.823974 3.268239 1.133817
4.931910 3.341365 1.640016
4.802157 3.253458 2.808455
4.961813 3.361625 3.224816
4.941012 3.347532 4.086759
4.867119 3.297470 5.034859
4.900190 3.319875 5.707816
4.952220 3.355125 6.509716
5.063106 3.430250 6.982436
5.219703 2.985398 1.156227
5.282265 3.021180 1.883907
5.287267 3.024041 2.662744
5.241384 2.997799 3.612284
5.219126 2.985068 4.499322
5.328366 3.047548 4.921862
5.375910 3.074741 5.614692
5.266411 3.012113 6.728383
5.401747 3.089518 7.057608
5.080355 2.905698 7.757967
5.480763 2.560406 1.194631
5.649953 2.639446 1.699330
5.616288 2.623719 2.668992
5.678076 2.652584 3.287515
5.557506 2.596258 4.401667
5.730397 2.677026 4.859350
5.668648 2.648179 5.730748
5.742243 2.682560 6.242922
5.773822 2.697313 6.918862
5.931566 2.212794 1.410678
5.917591 2.207581 2.259584
6.076568 2.266887 2.707687
6.101583 2.276220 3.532803
6.068485 2.263872 4.424023
5.978867 2.230440 5.399375
6.124081 2.284613 5.767526
6.136041 2.289074 6.472662
6.281319 1.775978 1.627110
6.488198 1.834471 2.135708
6.430358 1.818117 3.106864
6.479046 1.831883 3.772871
6.462668 1.827253 4.695040
6.583001 1.861275 5.184345
6.590024 1.863261 5.932756
6.573753 1.858661 6.650995
6.767373 1.353705 0.633385
6.889488 1.378132 1.594968
6.836537 1.367540 2.568665
6.844243 1.369081 3.414383
6.912951 1.382825 4.044207
6.961246 1.392486 4.685865
6.974520 1.395141 5.449415
7.086150 1.417471 5.991618
7.078724 1.415986 6.831378
7.145244 0.850451 1.335294
7.199409 0.856898 2.025417
7.248156 0.862700 2.696593
7.167545 0.853106 3.672843
7.227069 0.860191 4.332260
7.210108 0.858172 5.145082
7.245040 0.862330 5.806841
7.221793 0.859563 6.674935
7.332477 0.872737 7.045257
6.989906 0.264850 0.772344
6.866664 0.260181 1.725097
6.844424 0.259338 2.534489
6.686704 0.253362 3.561646
6.862218 0.260012 3.962970
6.694071 0.253641 5.001404
6.723928 0.254772 5.540803
6.803664 0.257793 6.041129
6.765378 0.256343 6.831804
6.298010 -0.315991 0.826127
6.379064 -0.320058 1.571964
6.270722 -0.314622 2.561712
6.370589 -0.319633 3.106605
6.324025 -0.317297 3.813127
6.277170 -0.314946 4.559599
6.224976 -0.312327 5.367863
6.286037 -0.315391 5.920001
6.146062 -0.308368 7.027358
6.016213 -0.737337 1.172324
5.832981 -0.714880 2.245539
5.916596 -0.725128 2.819919
5.749831 -0.704689 3.861151
5.884191 -0.721156 4.245780
5.723397 -0.701450 5.258360
5.828333 -0.714310 5.690653
5.802463 -0.711140 6.680351
5.519125 -1.173710 1.161548
5.484564 -1.166360 2.000503
5.533662 -1.176802 2.584485
5.432390 -1.155265 3.533067
5.401293 -1.148652 4.377464
5.482695 -1.165963 4.910874
5.367313 -1.141425 5.798912
5.336601 -1.134894 6.585707
5.152850 -1.529310 0.972121
5.070918 -1.504993 1.909786
5.013119 -1.487839 2.791934
5.003379 -1.484948 3.550284
5.014380 -1.488213 4.231681
5.128596 -1.522111 4.740803
5.008733 -1.486537 5.791545
5.035913 -1.494604 6.323793
5.002102 -1.484569 7.173561
4.735231 -1.820819 1.009279
4.769664 -1.834059 1.821387
4.771209 -1.834653 2.569681
4.706301 -1.809695 3.455369
4.724035 -1.816514 4.117418
4.692396 -1.804348 4.880560
4.757465 -1.829368 5.407476
4.691864 -1.804143 6.290926
4.700103 -1.807311 6.915491
4.432435 -2.131243 1.036674
4.392372 -2.111979 1.849241
4.486763 -2.157365 2.441602
4.411686 -2.121266 3.354713
4.339958 -2.086777 4.324254
4.367210 -2.099881 5.006482
4.362395 -2.097565 5.603305
4.305886 -2.070394 6.569817
4.374734 -2.103498 7.342101
4.189179 -2.455107 0.994465
4.081966 -2.392274 1.799085
4.161627 -2.438960 2.359579
4.139879 -2.426214 3.201464
4.102443 -2.404275 4.073539
4.091035 -2.397588 4.717496
4.106812 -2.406835 5.530873
4.184192 -2.452184 6.111006
4.154972 -2.435060 6.864152
3.981604 -2.747243 0.975209
3.972785 -2.741157 1.381089
3.856795 -2.661127 2.418560
3.848162 -2.655170 3.296191
3.815295 -2.632492 3.969948
3.843518 -2.651965 4.626848
3.814207 -2.631741 5.512331
3.857547 -2.661645 6.125480
3.877252 -2.675241 6.951065
3.570232 -2.942224 0.676904
3.522260 -2.902691 1.571875
3.642535 -3.001810 2.110652
3.600623 -2.967270 3.068577
3.573806 -2.945170 3.849205
3.591118 -2.959437 4.530571
3.649740 -3.007748 5.175779
3.594510 -2.962232 5.976486
3.530096 -2.909149 6.969289
3.258684 -3.166290 0.352236
3.244221 -3.152238 1.149643
3.279964 -3.186967 2.423448
3.376086 -3.280363 2.974869
3.365752 -3.270323 3.700708
3.264302 -3.171749 4.725192
3.286187 -3.193013 5.361154
3.302829 -3.209184 5.976052
3.299656 -3.206101 6.883093
2.988499 -3.405770 0.375785
2.889446 -3.292886 1.491467
3.018749 -3.440243 2.415609
3.123140 -3.559209 2.912473
3.099577 -3.532357 3.685095
3.003932 -3.423357 4.717347
2.994284 -3.412362 5.478802
3.061623 -3.489103 6.023400
3.015619 -3.436676 7.062773
2.716208 -3.654652 1.312351
2.795988 -3.761996 2.238414
2.758561 -3.711638 3.162420
2.705073 -3.639670 4.084323
2.700483 -3.633494 4.859653
2.735463 -3.680559 5.424468
2.736104 -3.681422 6.187802
2.751511 -3.702152 7.015163
2.546105 -4.034591 0.940727
2.493113 -3.950619 1.750620
2.546258 -4.034833 2.353922
2.538857 -4.023106 3.108971
2.470828 -3.915305 4.049810
2.472516 -3.917980 4.792184
2.490847 -3.947028 5.568157
2.467606 -3.910200 6.477246
2.507635 -3.973631 6.904701
2.300010 -4.425679 0.688556
2.194573 -4.222797 1.629011
2.227432 -4.286024 2.286775
2.190580 -4.215113 3.124552
2.128117 -4.094922 4.153110
2.194462 -4.222582 4.535773
2.140796 -4.119320 5.488865
2.174879 -4.184902 6.274035
2.200935 -4.235039 7.004184
1.928538 -4.560157 1.356371
1.909045 -4.514066 2.253824
1.899851 -4.492325 3.022807
1.901026 -4.495104 3.770383
1.904850 -4.504146 4.542579
1.899734 -4.492048 5.353513
1.895331 -4.481637 6.220067
1.888844 -4.466298 7.010557
1.592863 -4.844701 1.120832
1.583113 -4.815046 2.077545
1.597376 -4.858425 2.683046
1.575788 -4.792765 3.511568
1.585421 -4.822066 4.213395
1.570272 -4.775990 5.162846
1.585134 -4.821192 5.764666
1.598324 -4.861309 6.415017
1.336030 -5.663805 0.312347
1.182511 -5.012995 1.186017
1.209323 -5.126659 1.841764
1.191313 -5.050311 2.819829
1.195956 -5.069991 3.573279
1.204478 -5.106118 4.193389
1.186425 -5.029589 5.145104
1.189636 -5.043198 5.914235
1.213986 -5.146425 6.377885
1.221878 -5.179883 7.004670
0.855592 -5.586413 0.720159
0.836773 -5.463542 1.657587
0.836921 -5.464503 2.448747
0.822036 -5.367316 3.442343
0.832597 -5.436271 4.039472
0.828276 -5.408061 4.911004
0.824160 -5.381182 5.697666
0.847980 -5.536715 6.077456
0.832557 -5.436009 7.192870
0.487319 -6.063360 0.712843
0.468422 -5.828241 1.526405
0.463839 -5.771211 2.481355
0.471691 -5.868909 3.095064
0.471154 -5.862223 3.845913
0.464509 -5.779544 4.830149
0.466878 -5.809027 5.521247
0.468916 -5.834383 6.190292
0.472035 -5.873193 6.861081
-0.009856 -6.325412 0.894422
-0.009860 -6.328332 1.362147
-0.009864 -6.330649 2.230133
-0.009860 -6.327942 3.037983
-0.009891 -6.348236 3.776337
-0.009823 -6.304006 4.644957
-0.009941 -6.380034 5.263832
-0.009811 -6.296283 6.286209
-0.009945 -6.382859 6.808185
-0.560157 -6.816626 0.997719
-0.549973 -6.692695 1.753624
-0.559904 -6.813541 2.392596
-0.564595 -6.870629 3.012281
-0.555264 -6.757083 4.036683
-0.564927 -6.874669 4.584171
-0.564442 -6.868773 5.396131
-0.558916 -6.801519 6.291887
-0.567279 -6.903288 6.916155
-1.214318 -7.428220 0.699943
-1.181200 -7.225632 1.890515
-1.186545 -7.258330 2.697725
-1.219060 -7.457231 3.079004
-1.221021 -7.469223 3.868569
-1.215408 -7.434888 4.686117
-1.200499 -7.343686 5.708212
-1.229013 -7.518116 5.945466
-1.210925 -7.407468 6.842561
-1.741209 -6.829706 0.478706
-1.770171 -6.943310 1.494747
-1.812335 -7.108693 1.916427
-1.784414 -6.999173 2.906690
-1.809419 -7.097256 3.445511
-1.766866 -6.930344 4.497493
-1.791729 -7.027866 4.967409
-1.774044 -6.958500 5.828245
-1.789246 -7.018130 6.384587
-1.782652 -6.992264 7.075941
-2.176746 -6.497924 0.567308
-2.209529 -6.595788 1.408802
-2.218269 -6.621876 2.213571
-2.204648 -6.581217 3.087935
-2.169114 -6.475144 4.049605
-2.173779 -6.489068 4.714011
-2.155193 -6.433585 5.603793
-2.190088 -6.537752 6.023599
-2.176949 -6.498530 6.819519
-2.629382 -6.154209 0.953865
-2.644362 -6.189271 1.724610
-2.623080 -6.139459 2.602137
-2.608042 -6.104263 3.378593
-2.572048 -6.020015 4.324100
-2.620161 -6.132628 4.743589
-2.585835 -6.052285 5.717874
-2.627724 -6.150328 6.153274
-2.606524 -6.100710 7.004254
-3.004747 -5.628480 1.370934
-2.992286 -5.605138 2.351847
-3.051327 -5.715733 2.893924
-2.969783 -5.562987 3.872037
-3.032950 -5.681309 4.382632
-3.046713 -5.707091 5.036448
-3.044382 -5.702725 5.674073
-3.042990 -5.700116 6.343895
-3.029322 -5.674514 7.140796
-2.869314 -5.374788 7.827583
-3.389820 -5.344517 0.733017
-3.374581 -5.320490 1.629704
-3.341814 -5.268830 2.642893
-3.313166 -5.223662 3.526920
-3.330499 -5.250989 4.201793
-3.324989 -5.242303 5.017913
-3.323119 -5.239354 5.728221
-3.347080 -5.277132 6.269727
-3.377989 -5.325864 6.799358
-3.760628 -4.941995 1.318224
-3.696773 -4.858081 2.348308
-3.809192 -5.005815 2.767411
-3.791324 -4.982335 3.542903
-3.695612 -4.856555 4.674996
-3.719970 -4.888565 5.392948
-3.731837 -4.904160 5.989525
-3.751453 -4.929938 6.581563
-4.068128 -4.546303 1.364628
-4.062835 -4.540387 2.259388
-4.080428 -4.560048 3.012242
-4.183768 -4.675535 3.513392
-4.135975 -4.622124 4.238760
-4.081783 -4.561563 5.240091
-4.140210 -4.626857 5.788604
-4.068003 -4.546163 6.706519
-4.560841 -4.348380 0.679261
-4.390224 -4.185711 1.270141
-4.474230 -4.265805 1.914400
-4.514951 -4.304628 2.760571
-4.410651 -4.205187 3.920430
-4.397405 -4.192558 4.542689
-4.405564 -4.200337 5.329159
-4.448992 -4.241742 5.958856
-4.467547 -4.259433 6.491526
-5.039787 -4.093675 0.593513
-4.791654 -3.892124 1.174970
-4.821201 -3.916124 2.022289
-4.857935 -3.945962 2.833794
-4.770322 -3.874797 3.739799
-4.679988 -3.801421 4.723145
-4.735769 -3.846731 5.292034
-4.759275 -3.865824 5.928156
-4.795970 -3.895630 6.551371
-5.044723 -3.404691 1.772057
-5.062645 -3.416787 2.570239
-5.177856 -3.494542 3.152734
-5.178338 -3.494868 3.881479
-5.196128 -3.506874 4.664976
-5.250720 -3.543718 5.381485
-5.162743 -3.484343 6.328812
-5.136602 -3.466700 7.138937
-5.415680 -3.118273 0.929378
-5.468591 -3.148738 1.719078
-5.395723 -3.106782 2.727608
-5.334791 -3.071698 3.593558
-5.392352 -3.104840 4.255898
-5.417606 -3.119381 5.111861
-5.509204 -3.172122 5.533217
-5.521941 -3.179456 6.221805
-5.472230 -3.150834 7.265167
-5.767439 -2.737684 1.363587
-5.869835 -2.786289 2.065792
-5.888127 -2.794972 2.813461
-5.866179 -2.784554 3.453550
-5.860109 -2.781672 4.272766
-5.865522 -2.784242 4.977891
-5.773756 -2.740682 5.872094
-5.745423 -2.727233 6.718919
-6.049164 -2.276641 1.480946
-6.248003 -2.351475 2.046576
-6.292511 -2.368226 2.733284
-6.243779 -2.349886 3.666434
-6.181447 -2.326427 4.572002
-6.164814 -2.320167 5.352544
-6.265918 -2.358218 5.843010
-6.253850 -2.353676 6.624191
-6.739438 -1.913312 0.502028
-6.547017 -1.858684 1.476651
-6.488272 -1.842007 2.464254
-6.687295 -1.898509 2.835794
-6.593126 -1.871774 3.870438
-6.638537 -1.884667 4.576965
-6.700993 -1.902398 5.208997
-6.757511 -1.918443 5.818163
-6.663238 -1.891679 6.916155
-7.019086 -1.404907 0.637820
-7.012363 -1.403562 1.625571
-7.009393 -1.402967 2.495859
-7.050964 -1.411288 3.260254
-6.947661 -1.390611 4.273581
-7.084922 -1.418085 4.772512
-7.228031 -1.446729 5.272221
-7.104259 -1.421955 6.377475
-7.211195 -1.443359 6.822093
-7.178358 -0.837531 1.073086
-7.313449 -0.853292 1.602258
-7.261199 -0.847196 2.452833
-7.112780 -0.829879 3.499044
-7.211428 -0.841389 3.941442
-7.141312 -0.833208 4.857969
-7.193449 -0.839292 5.393387
-7.076517 -0.825649 6.269698
-7.131357 -0.832047 6.714463
-6.639138 -0.248064 1.408378
-6.697146 -0.250232 2.050731
-6.656856 -0.248726 2.918467
-6.624453 -0.247516 3.638547
-6.500601 -0.242888 4.616205
-6.575309 -0.245680 5.164796
-6.453956 -0.241145 5.979665
-6.530313 -0.243998 6.361312
-6.476179 -0.241976 7.236763
-6.021426 0.265337 1.182877
-6.019254 0.265241 2.002879
-6.051880 0.266679 2.674234
-6.107881 0.269147 3.261960
-6.022867 0.265400 4.200288
-6.087823 0.268263 4.697268
-6.026034 0.265540 5.546152
-5.985112 0.263737 6.404783
-5.964916 0.262847 7.108342
-5.552505 0.693877 1.578067
-5.616185 0.701834 2.176532
-5.519150 0.689708 3.146401
-5.595346 0.699230 3.839533
-5.573589 0.696511 4.609599
-5.522523 0.690130 5.294570
-5.571856 0.696295 5.887053
-5.594882 0.699172 6.511562
-5.109926 1.067111 0.998006
-5.230645 1.092320 1.688960
-5.299808 1.106764 2.281933
-5.208139 1.087620 3.257183
-5.209921 1.087993 4.009886
-5.118247 1.068848 4.984046
-5.163650 1.078330 5.576433
-5.179958 1.081736 6.209055
-5.219462 1.089985 6.806428
-4.912807 1.429189 1.197624
-4.931465 1.434616 1.996107
-4.839554 1.407879 2.965699
-4.907063 1.427518 3.612730
-4.792055 1.394061 4.697839
-4.886194 1.421447 5.141822
-4.859440 1.413664 5.880801
-4.782638 1.391321 6.839079
-4.495652 1.719631 1.021835
-4.645277 1.776864 1.590366
-4.508177 1.724422 2.710109
-4.516137 1.727467 3.430137
-4.551447 1.740973 4.049205
-4.436119 1.696859 5.121218
-4.464147 1.707580 5.852609
-4.498707 1.720800 6.530797
-4.540513 1.736791 7.056670
-4.243557 2.016361 1.414138
-4.233162 2.011422 2.180892
-4.295889 2.041227 2.865716
-4.227121 2.008551 3.796251
-4.189320 1.990590 4.569671
-4.163224 1.978190 5.432902
-4.235632 2.012595 5.961106
-4.244723 2.016915 6.733740
-4.006275 2.327989 0.879586
-4.026695 2.339855 1.666135
-3.919664 2.277661 2.812614
-3.995345 2.321638 3.485916
-3.958743 2.300369 4.311231
-4.000577 2.324678 4.807833
-3.884008 2.256941 5.920154
-3.974151 2.309322 6.399224
-3.654394 2.553849 1.617422
-3.644490 2.546927 2.460159
-3.695826 2.582804 3.177304
-3.647080 2.548737 4.095570
-3.621771 2.531050 4.935580
-3.696366 2.583181 5.414880
-3.664884 2.561180 6.219229
-3.676977 2.569631 6.916567
-3.465336 2.855233 0.885011
-3.459944 2.850789 1.453738
-3.486743 2.872870 2.187420
-3.401812 2.802892 3.348434
-3.391636 2.794508 4.165074
-3.410111 2.809730 4.935580
-3.445849 2.839176 5.540693
-3.454708 2.846475 6.203495
-3.390214 2.793336 7.051740
-3.149573 3.053423 1.366735
-3.154870 3.058558 2.215850
-3.146866 3.050799 3.028480
-3.098707 3.004109 3.958975
-3.158442 3.062021 4.494849
-3.168617 3.071885 5.166506
-3.151312 3.055108 5.990640
-3.076641 2.982717 7.062614
-2.895949 3.289451 1.206995
-2.890480 3.283239 2.081411
-2.937633 3.336800 2.763822
-2.916094 3.312334 3.722070
-2.862673 3.251654 4.668571
-2.897252 3.290932 5.245380
-2.924966 3.322411 5.880250
-2.940209 3.339726 6.611971
-2.804168 3.752621 0.727347
-2.694984 3.606508 1.247317
-2.644199 3.538546 2.284279
-2.666409 3.568268 2.928218
-2.606918 3.488656 3.928862
-2.571417 3.441147 4.835626
-2.594636 3.472220 5.459159
-2.652624 3.549821 6.179947
-2.682453 3.589739 6.846326
-2.496986 3.965719 0.777975
-2.309869 3.668540 1.527845
-2.296945 3.648014 2.455439
-2.346857 3.727283 3.103743
-2.367291 3.759737 3.780605
-2.329455 3.699645 4.846173
-2.380696 3.781027 5.382300
-2.361164 3.750006 6.179947
-2.358356 3.745546 7.027392
-2.142978 4.131057 0.840483
-2.059769 3.970654 1.644131
-2.018664 3.891416 2.536472
-2.056242 3.963856 3.214523
-2.049345 3.950560 4.160000
-2.045504 3.943155 4.872549
-2.068761 3.987988 5.612344
-2.091658 4.032128 6.242692
-2.106425 4.060595 6.883579
-1.828353 4.286123 0.883257
-1.830493 4.291139 1.368333
-1.835861 4.303724 2.138952
-1.828499 4.286464 3.019386
-1.813245 4.250704 3.872682
-1.826290 4.281285 4.665926
-1.812791 4.249640 5.551457
-1.849213 4.335024 6.047426
-1.848353 4.333006 6.865681
-1.515142 4.559088 0.660944
-1.519750 4.572955 1.396633
-1.486709 4.473533 2.535916
-1.501504 4.518051 3.287083
-1.519995 4.573690 3.981860
-1.530810 4.606234 4.635679
-1.527186 4.595327 5.376011
-1.521405 4.577935 6.266532
-1.531591 4.608583 6.987267
-1.151229 4.670169 0.703712
-1.179340 4.784207 1.683210
-1.182918 4.798721 2.518945
-1.186824 4.814568 3.271804
-1.199007 4.863988 3.915344
-1.206066 4.892623 4.574328
-1.204273 4.885350 5.514532
-1.216836 4.936314 6.198665
-1.205284 4.889452 7.084499
-0.797684 5.006033 0.909081
-0.819643 5.143841 1.678898
-0.823567 5.168466 2.486366
-0.826447 5.186541 3.226682
-0.828246 5.197830 4.021190
-0.832995 5.227638 4.815696
-0.836392 5.248957 5.539099
-0.825690 5.181793 6.500294
-0.841986 5.284061 6.913090
-0.406748 5.439920 1.304639
-0.405010 5.416679 2.130795
-0.411672 5.505773 2.815869
-0.416100 5.564996 3.472517
-0.418342 5.594979 4.228026
-0.413870 5.535171 5.263054
-0.420150 5.619162 5.757790
-0.421353 5.635254 6.473824
0.028365 5.913073 1.399186
0.028139 5.866032 2.323903
0.028254 5.889869 3.150385
0.028341 5.908063 3.972814
0.028431 5.926766 4.777239
0.029151 6.076999 5.146223
0.028533 5.948009 6.298426
0.028651 5.972775 7.018754
0.540345 6.304711 0.838199
0.533619 6.226226 1.892757
0.546755 6.379492 2.421853
0.549496 6.411474 3.222284
0.545982 6.370473 4.172288
0.554557 6.470526 4.774192
0.552951 6.451792 5.644782
0.553123 6.453797 6.374094
0.557588 6.505894 6.921590
1.119628 6.759620 1.286680
1.117663 6.747756 2.330780
1.147881 6.930194 2.800345
1.142829 6.899694 3.682284
1.129600 6.819824 4.742802
1.162423 7.017993 4.976889
1.142444 6.897371 6.050871
1.151679 6.953122 6.868948
1.704881 6.817664 0.714944
1.739006 6.954124 1.385193
1.710532 6.840262 2.356515
1.705672 6.820827 3.131128
1.725085 6.898456 3.666661
1.686597 6.744545 4.843464
1.732000 6.926110 5.112352
1.711421 6.843816 5.951962
1.723363 6.891569 6.552098
2.278460 6.555959 0.817517
2.186447 6.291203 1.696945
2.205238 6.345271 2.350909
2.198873 6.326958 3.132082
2.181843 6.277955 4.029946
2.230662 6.418426 4.378601
2.206183 6.347991 5.354207
2.191313 6.305204 6.189598
2.228831 6.413157 6.466502
2.591248 5.992686 1.252521
2.592079 5.994608 2.055212
2.583247 5.974182 2.890078
2.539143 5.872185 3.912206
2.590816 5.991688 4.367926
2.552326 5.902674 5.409931
2.573865 5.952486 5.906444
2.566541 5.935548 6.558796
2.908661 5.535181 1.397684
2.899937 5.518580 2.255662
2.888593 5.496993 3.054573
2.875763 5.472577 3.905834
2.921403 5.559429 4.505797
2.931007 5.577705 5.122738
2.930238 5.576243 5.687804
2.851645 5.426681 6.856062
3.581563 5.668609 0.674987
3.254453 5.150887 1.379476
3.232624 5.116337 2.285478
3.297413 5.218880 2.838552
3.293269 5.212322 3.633365
3.286355 5.201378 4.357197
3.252842 5.148336 5.321733
3.259458 5.158808 6.009763
3.259847 5.159424 6.699096
3.735007 4.980756 0.868443
3.616440 4.822642 1.288194
3.621394 4.829249 2.092259
3.605280 4.807761 2.951881
3.541088 4.722158 4.049924
3.599087 4.799502 4.598177
3.614652 4.820259 5.211576
3.552535 4.737424 6.222351
3.635862 4.848543 6.511359
4.366770 4.867185 0.715613
3.916319 4.365115 1.601745
3.956635 4.410050 2.204235
4.016642 4.476934 2.881687
4.034309 4.496626 3.729206
4.003825 4.462649 4.474914
4.017550 4.477946 5.165351
3.928252 4.378415 6.259046
3.962011 4.416042 6.816467
4.417897 4.189458 0.599512
4.203531 3.986177 1.631403
4.232745 4.013880 2.391329
4.195572 3.978629 3.327434
4.256028 4.035959 3.945629
4.221978 4.003670 4.846848
4.296144 4.074001 5.274239
4.271872 4.050984 6.168556
4.291276 4.069385 6.793786
4.471162 3.612938 1.015041
4.569714 3.692573 1.635628
4.550316 3.676899 2.528842
4.508395 3.643025 3.540880
4.602851 3.719350 3.950391
4.509309 3.643764 4.968540
4.502489 3.638252 5.847078
4.587663 3.707078 6.289629
4.630947 3.742053 6.913984
4.888421 3.339442 0.749565
4.907758 3.352651 1.557374
4.846287 3.310658 2.547150
4.835789 3.303487 3.405914
4.795632 3.276054 4.274633
4.779829 3.265259 5.060182
4.889522 3.340194 5.556032
4.908982 3.353488 6.230540
4.936162 3.372055 6.839384
5.107995 2.934476 1.991610
5.183749 2.977995 2.608691
5.122223 2.942649 3.598942
5.203038 2.989077 4.267309
5.173392 2.972045 5.017302
5.116372 2.939288 5.979931
5.192118 2.982803 6.569861
5.227644 3.003212 7.257386
5.460436 2.570470 1.167993
5.516348 2.596791 1.805723
5.498025 2.588165 2.692455
5.507408 2.592582 3.625140
5.541802 2.608773 4.293387
5.595778 2.634182 4.940324
5.554820 2.614901 5.905914
5.631359 2.650932 6.418246
5.802740 2.183194 1.284301
5.778663 2.174135 2.151887
5.910608 2.223777 2.715833
5.896273 2.218384 3.578160
5.937366 2.233845 4.289891
5.970817 2.246430 4.992126
5.923492 2.228625 5.824245
5.797634 2.181273 6.901502
6.136450 1.751714 1.475191
6.255175 1.785606 2.161557
6.314153 1.802441 2.827859
6.286841 1.794645 3.597306
6.127050 1.749031 4.809861
6.209880 1.772676 5.479097
6.250244 1.784198 6.159904
6.378785 1.820891 6.534423
6.676786 1.370731 0.937266
6.468902 1.328053 1.750838
6.616130 1.358278 2.278408
6.619046 1.358877 3.124473
6.716740 1.378933 3.741648
6.647645 1.364748 4.656267
6.587077 1.352314 5.622236
6.764852 1.388811 5.921277
6.680344 1.371461 6.920636
7.208872 0.858739 0.315160
6.903915 0.822412 1.154615
6.972085 0.830533 1.923489
7.068914 0.842067 2.498873
7.018282 0.836036 3.403157
7.069133 0.842093 4.134823
7.123002 0.848510 4.767426
7.130336 0.849384 5.550035
7.154782 0.852296 6.266659
7.155918 0.852431 7.104423
7.302491 0.290116 1.183907
7.356118 0.292246 1.921076
7.338239 0.291536 2.718974
7.176474 0.285109 3.871731
7.321217 0.290860 4.345205
7.252585 0.288133 5.218420
7.381859 0.293269 5.638701
7.392713 0.293700 6.320604
7.266189 0.288673 7.306817
6.803428 -0.286591 1.103765
6.831259 -0.287763 1.790057
6.849741 -0.288542 2.465571
6.639688 -0.279693 3.602162
6.789372 -0.285999 3.939740
6.771240 -0.285235 4.677980
6.745046 -0.284131 5.482811
6.731850 -0.283575 6.162930
6.740549 -0.283942 6.823867
6.477266 -0.790777 0.688776
6.279090 -0.766582 1.473897
6.313281 -0.770757 2.171281
6.226083 -0.760111 3.038844
6.197846 -0.756664 3.827140
6.156692 -0.751640 4.629205
6.163690 -0.752494 5.358937
6.114453 -0.746483 6.221948
6.113526 -0.746370 6.848996
5.765209 -1.178817 1.346091
5.753195 -1.176360 2.085080
5.681003 -1.161599 2.871591
5.646212 -1.154485 3.741226
5.718429 -1.169251 4.400811
5.765950 -1.178968 4.881908
5.619987 -1.149123 5.845241
5.610175 -1.147117 6.724313
5.693858 -1.164227 7.198238
5.490232 -1.585192 0.919480
5.326187 -1.537828 1.959649
5.259038 -1.518440 2.858479
5.294776 -1.528758 3.568507
5.306990 -1.532285 4.307346
5.259410 -1.518547 5.182230
5.336317 -1.540753 5.540222
5.204660 -1.502739 6.623564
5.249449 -1.515671 7.223520
4.986219 -1.904296 0.776230
5.045669 -1.927000 1.574631
4.952619 -1.891463 2.518337
4.980888 -1.902260 3.170640
4.914806 -1.877022 4.092003
4.873710 -1.861327 4.944456
4.926684 -1.881558 5.506714
4.842355 -1.849352 6.453865
4.864837 -1.857938 7.036258
5.211103 -2.459252 0.260653
4.575213 -2.159159 0.982314
4.604244 -2.172860 1.859868
4.516851 -2.131617 2.824078
4.521095 -2.133620 3.491746
4.489344 -2.118635 4.356739
4.548954 -2.146767 4.943492
4.562843 -2.153322 5.623980
4.513286 -2.129934 6.561321
4.582005 -2.162365 6.984275
4.244287 -2.441698 1.133359
4.356491 -2.506248 1.597239
4.206581 -2.420006 2.712730
4.307018 -2.477786 3.248604
4.163376 -2.395150 4.355355
4.182604 -2.406212 4.989906
4.175774 -2.402283 5.743711
4.159842 -2.393118 6.585228
4.185307 -2.407767 7.165391
3.847039 -2.637443 0.285877
4.004802 -2.745602 0.994465
4.020337 -2.756252 1.734158
3.969936 -2.721698 2.619331
3.884204 -2.662922 3.597331
3.957455 -2.713142 4.100196
3.847438 -2.637717 5.134193
3.954656 -2.711223 5.508151
3.871424 -2.654160 6.585944
3.713835 -3.027685 1.118810
3.669735 -2.991734 1.906668
3.700109 -3.016496 2.525698
3.640171 -2.967632 3.499715
3.587266 -2.924501 4.457594
3.601699 -2.936267 5.038628
3.572138 -2.912168 5.811078
3.548135 -2.892600 6.704127
3.472972 -3.350579 0.302586
3.328925 -3.211609 1.004201
3.278277 -3.162745 2.166665
3.389277 -3.269834 2.665988
3.325228 -3.208042 3.679497
3.303079 -3.186674 4.487625
3.277492 -3.161988 5.217954
3.285723 -3.169929 6.015056
3.346508 -3.228572 6.477092
3.003791 -3.388295 0.434637
3.012897 -3.398566 1.168779
3.074494 -3.468047 2.232757
3.133024 -3.534070 2.878849
3.028929 -3.416650 3.941516
3.035853 -3.424461 4.590737
2.975655 -3.356556 5.556875
3.063776 -3.455957 5.936906
2.977579 -3.358726 7.080449
3.084341 -4.117808 1.694961
2.720693 -3.632313 2.559409
2.754547 -3.677510 3.168062
2.718094 -3.628843 4.019978
2.750260 -3.671787 4.631102
2.774153 -3.703686 5.235853
2.686326 -3.586431 6.431252
2.729423 -3.643968 6.954161
2.534915 -3.996386 0.851643
2.409564 -3.798766 1.763422
2.432260 -3.834547 2.674317
2.505242 -3.949606 3.166842
2.486296 -3.919736 3.954304
2.488739 -3.923588 4.617820
2.458414 -3.875780 5.487731
2.416188 -3.809208 6.501565
2.449632 -3.861935 7.233862
2.201805 -4.182216 0.917739
2.172879 -4.127272 1.708393
2.216251 -4.209655 2.442369
2.163566 -4.109582 3.431150
2.140529 -4.065826 4.135931
2.128013 -4.042051 4.892982
2.100453 -3.989702 5.794163
2.112495 -4.012577 6.509185
2.171275 -4.124225 7.115058
1.900516 -4.442042 1.041062
1.929419 -4.509597 1.672130
1.862631 -4.353496 2.790602
1.862896 -4.354113 3.534938
1.888646 -4.414300 4.092418
1.838341 -4.296721 5.110752
1.842906 -4.307393 5.819929
1.848330 -4.320070 6.570331
1.881229 -4.396965 7.058170
1.554789 -4.746509 0.997804
1.507806 -4.603079 2.083689
1.504591 -4.593263 2.937826
1.502838 -4.587911 3.702464
1.518333 -4.635214 4.304022
1.525777 -4.657940 4.929985
1.496613 -4.568908 6.001440
1.518927 -4.637029 6.662261
1.211172 -4.848017 1.321300
1.244842 -4.982793 1.939025
1.204345 -4.820692 3.063575
1.233967 -4.939262 3.531390
1.214846 -4.862725 4.438662
1.217166 -4.872013 5.178280
1.208638 -4.837877 6.096878
1.224126 -4.899869 6.784619
0.877254 -5.558241 0.765454
0.815628 -5.167781 1.632918
0.831737 -5.269850 2.215642
0.809391 -5.128267 3.300842
0.831540 -5.268603 3.789857
0.820911 -5.201258 4.681303
0.818342 -5.184981 5.428334
0.811662 -5.142658 6.384832
0.818198 -5.184067 7.073981
0.475041 -5.608607 0.815079
0.463851 -5.476496 1.775008
0.463000 -5.466440 2.595999
0.463951 -5.477678 3.290402
0.470146 -5.550817 3.935535
0.474561 -5.602944 4.594490
0.470794 -5.558463 5.402887
0.474942 -5.607438 6.078119
0.472310 -5.576366 6.965501
-0.016653 -5.872718 0.994689
-0.016366 -5.771570 2.119287
-0.016787 -5.920015 2.672557
-0.016762 -5.911465 3.466494
-0.016798 -5.923966 4.191275
-0.016728 -5.899320 5.051410
-0.016742 -5.904361 5.821000
-0.016964 -5.982528 6.351971
-0.016864 -5.947292 7.182962
-0.543179 -6.579390 0.808194
-0.517147 -6.264074 1.443185
-0.516614 -6.257612 2.277921
-0.523366 -6.339403 2.909592
-0.517764 -6.271544 3.839878
-0.515463 -6.243672 4.740808
-0.526085 -6.372335 5.159256
-0.519514 -6.292744 6.160036
-0.521222 -6.313424 6.873893
-1.167510 -7.160599 0.273995
-1.089096 -6.679671 1.231560
-1.087408 -6.669320 2.106723
-1.124133 -6.894561 2.485630
-1.094526 -6.712975 3.681782
-1.109040 -6.801989 4.343188
-1.113947 -6.832088 4.982455
-1.105929 -6.782908 5.867811
-1.109161 -6.802734 6.704116
-1.122035 -6.881690 7.257697
-1.775569 -7.173781 0.987480
-1.784213 -7.208705 1.590827
-1.765527 -7.133208 2.543547
-1.800960 -7.276366 3.145405
-1.818388 -7.346782 3.749254
-1.802172 -7.281264 4.572052
-1.803108 -7.285046 5.342331
-1.785057 -7.212115 6.307942
-1.827341 -7.382956 6.482939
-2.257653 -6.780028 1.530425
-2.271810 -6.822542 2.247804
-2.305310 -6.923146 2.757439
-2.278614 -6.842976 3.566381
-2.273146 -6.826555 4.397663
-2.291343 -6.881202 4.967409
-2.279860 -6.846718 5.735635
-2.265883 -6.804744 6.583990
-2.285714 -6.864299 7.019009
-2.712826 -6.414818 1.029703
-2.709442 -6.406816 1.779060
-2.711407 -6.411463 2.590227
-2.697087 -6.377601 3.414810
-2.673762 -6.322446 4.280111
-2.710507 -6.409335 4.761997
-2.684517 -6.347879 5.603374
-2.675481 -6.326511 6.315865
-2.643163 -6.250091 7.349199
-3.050668 -5.857604 1.009694
-3.044614 -5.845979 1.883234
-3.084777 -5.923095 2.485512
-3.102836 -5.957771 3.150025
-3.053872 -5.863755 4.110018
-3.071174 -5.896977 4.726793
-3.058055 -5.871786 5.474261
-3.020057 -5.798827 6.427970
-3.078153 -5.910378 6.755759
-3.465425 -5.485619 0.754588
-3.470865 -5.494230 1.574565
-3.438238 -5.442583 2.521018
-3.437495 -5.441407 3.338598
-3.389133 -5.364852 4.221257
-3.444208 -5.452033 4.687201
-3.409238 -5.396677 5.534707
-3.415707 -5.406917 6.230117
-3.441843 -5.448289 6.861059
-3.737197 -5.017756 0.760382
-3.776184 -5.070101 1.481259
-3.685058 -4.947751 2.672958
-3.779407 -5.074429 3.216923
-3.780443 -5.075820 3.882079
