37.659452 10.107329 -1.480563
38.040429 10.272908 -1.015517
38.508997 10.476478 -0.455515
39.062033 10.716181 0.119309
39.400930 10.870011 1.529169
39.279197 10.822479 2.199495
39.072497 10.736900 2.595683
39.229100 10.806474 3.017167
39.466069 10.910995 3.539474
40.036758 11.159960 4.378199
36.706694 13.095554 -1.929631
36.728869 13.111595 -1.286439
37.090084 13.303434 -0.990868
37.450305 13.495383 -0.602747
37.895631 13.733296 -0.032532
38.301668 13.958644 1.722373
38.291802 13.955040 1.954073
38.085017 13.850273 2.526104
38.135848 13.881001 3.114820
38.376718 14.009926 3.458623
38.855692 14.266033 4.103709
35.650032 15.753370 -1.871658
35.750544 15.819339 -1.402168
36.015904 15.988009 -0.934907
36.362210 16.208387 -0.289042
36.871479 16.527926 0.022012
37.176608 16.729884 1.685130
37.082509 16.672856 1.910781
36.874578 16.548590 2.655273
37.018292 16.641114 3.073626
37.229018 16.776740 3.681139
37.685034 17.065484 4.327796
34.310439 18.682651 -2.022507
34.331075 18.702848 -1.378047
34.581467 18.892590 -0.909590
34.908276 19.141157 -0.176278
35.388256 19.501139 0.224999
35.675758 19.726178 1.716511
35.650607 19.711869 2.300812
35.473882 19.582744 2.607336
35.524204 19.623936 3.107955
35.729295 19.780377 3.628284
36.224524 20.154979 4.465225
32.840675 21.155316 -2.069392
32.860375 21.177506 -1.424307
33.019598 21.318312 -1.038117
33.252204 21.523298 -0.563760
33.707281 21.920768 -0.082724
34.134610 22.302997 1.495791
34.037446 22.223584 2.075842
33.863186 22.076707 2.558523
33.916054 22.125728 2.970858
34.028923 22.228134 3.569300
34.367780 22.525587 4.114378
31.195349 23.521325 -1.983543
31.206578 23.535937 -1.591817
31.287051 23.620698 -1.118246
31.505218 23.844287 -0.559935
31.858856 24.203821 0.007110
32.138198 24.487456 0.412262
32.609877 24.969924 1.510542
32.377640 24.741911 2.085066
32.156398 24.521855 2.300338
32.127656 24.497992 2.880848
32.315079 24.689643 3.310338
32.550478 24.931818 4.021151
29.211015 25.974591 -1.536314
29.216770 25.984235 -1.230331
29.481943 26.302121 -0.677509
29.741641 26.614466 -0.026603
29.998322 26.920118 0.288573
30.431920 27.441655 1.379329
30.216862 27.194200 2.040082
30.017767 26.960581 2.166371
29.992372 26.936027 2.744190
30.085274 27.051949 3.425517
30.387402 27.411644 3.788468
27.225755 28.032273 -1.811484
27.236269 28.052459 -1.248838
27.356938 28.220190 -1.029812
27.537651 28.474661 -0.381917
27.772590 28.800946 0.016922
27.987210 29.109581 1.412576
28.022639 29.165973 2.174117
27.998892 29.139374 2.756451
28.046758 29.207471 2.995861
28.186817 29.406699 3.693509
28.571613 29.939338 4.174099
25.209775 30.108534 -1.952714
25.111601 29.955499 -1.548868
25.118600 29.973171 -0.985753
25.332382 30.320887 -0.598014
25.490951 30.581028 -0.115351
25.784497 31.071327 1.541665
25.886302 31.236552 1.694753
25.759618 31.040671 2.355394
25.740245 31.015201 2.849190
25.827180 31.159623 3.271499
26.064746 31.547293 3.813394
22.851567 32.379748 -2.560215
22.680721 32.055881 -1.968647
22.595376 31.895525 -1.564727
22.598061 31.903678 -1.341698
22.739600 32.185773 -0.786333
22.922605 32.550747 -0.050384
23.176232 33.063755 1.515029
23.264369 33.236851 1.666272
23.157009 33.035970 2.238028
23.133967 33.000029 2.904751
23.208688 33.150635 3.325582
23.363838 33.460001 3.945319
20.219280 33.428433 -2.014582
20.224413 33.446515 -1.621550
20.269030 33.562349 -0.892239
20.387329 33.847038 -0.416301
20.503778 34.126139 -0.021771
20.681787 34.566119 1.447940
20.710186 34.640316 1.942485
20.655333 34.520505 2.514256
20.675451 34.576658 3.097976
20.741771 34.737267 3.430308
20.912520 35.147285 4.059118
17.449642 34.954255 -2.011940
17.454961 34.982495 -1.366481
17.487673 35.084677 -1.146743
17.583044 35.385908 -0.332122
17.975120 36.596456 1.557529
17.835045 36.189266 2.209025
17.797975 36.082481 2.432599
17.845368 36.235742 3.024691
17.886919 36.373274 3.709701
18.060805 36.903076 4.176603
14.813284 36.054440 -1.799515
14.815497 36.076885 -1.239633
14.889675 36.380477 -0.769982
14.962968 36.676567 -0.464300
15.122291 37.344155 1.177084
15.187451 37.615236 1.768868
15.108215 37.310678 2.071832
15.096512 37.278754 2.648967
15.111628 37.348333 3.059132
15.169797 37.592201 3.663757
15.304467 38.133888 4.129675
11.875769 37.115086 -2.009337
11.876706 37.143777 -1.365543
11.926733 37.451682 -0.982301
11.976082 37.755821 -0.592894
12.164183 38.927450 1.234665
12.159343 38.913727 1.643748
12.067651 38.394772 2.201866
12.047371 38.283591 2.425211
12.069158 38.436045 3.102064
12.112969 38.705877 3.442886
12.185657 39.152698 3.984380
9.126977 38.004149 -1.645996
9.126034 38.019137 -1.255117
9.152865 38.330660 -0.785667
9.179548 38.635627 -0.394692
9.224240 39.214674 1.332110
9.231546 39.306166 1.564544
9.214158 39.171243 2.312137
9.208266 39.140557 2.801671
9.212403 39.210094 3.211764
6.316089 38.746999 -2.157156
6.311113 38.674581 -1.590011
6.308133 38.693866 -1.028113
6.310734 38.900898 -0.724369
6.316046 39.307556 -0.161130
6.315325 39.687369 1.305721
6.316196 39.868419 1.803890
6.308677 39.728099 2.550998
6.307748 39.800301 2.960987
6.308115 39.960499 3.468633
6.312462 40.313232 4.000207
3.173326 39.046741 -1.836073
3.162002 39.171779 -1.191601
3.154364 39.277808 -0.969883
3.132012 39.588092 -0.321163
3.111227 39.888608 0.164430
3.091814 40.047818 1.810621
3.090579 40.027561 2.213727
3.089405 39.997455 2.703465
3.076924 40.173919 3.034257
3.052437 40.523646 3.648713
3.016519 41.071694 4.205556
0.344361 39.174408 -1.826470
0.325810 39.292709 -1.352041
0.308006 39.405251 -0.874946
0.264098 39.710989 -0.311426
0.220776 40.007923 0.347459
0.190883 40.169956 1.733510
0.191110 40.145696 2.223573
0.192130 40.115464 2.713303
0.154170 40.382612 3.139123
0.103650 40.743969 3.579441
0.041884 41.181264 4.215660
-2.702963 39.174171 -1.987234
-2.709106 39.191634 -1.592158
-2.735137 39.302957 -1.200038
-2.763566 39.415573 -0.463735
-2.828754 39.711379 -0.066878
-2.851246 39.808263 0.248096
-2.872693 39.861637 1.888843
-2.911091 40.025588 2.476121
-2.887907 39.907257 2.786073
-2.943260 40.148227 3.473992
-3.062209 40.695597 3.936689
-5.765960 38.943288 -1.959770
-5.773371 38.959961 -1.563333
-5.780845 38.975022 -1.081468
-5.813046 39.077623 -0.772031
-5.903872 39.371709 -0.118717
-5.990508 39.658779 0.197353
-6.017218 39.716000 1.760347
-6.012239 39.686766 2.338657
-5.948384 39.458181 2.901962
-6.054795 39.809785 3.336766
-8.965749 38.425118 -2.148310
-8.942808 38.356162 -1.576650
-8.950147 38.368525 -1.180721
-8.993143 38.471780 -0.701224
-9.106737 38.756302 -0.134201
-9.145126 38.847502 0.353047
-9.175224 38.900832 1.819899
-9.168905 38.876295 2.308122
-9.126085 38.758850 2.702821
-9.293614 39.182196 3.316332
-9.491061 39.681104 4.041627
-11.937549 38.100970 -2.588305
-11.694313 37.580184 -2.155420
-11.711010 37.606338 -1.506066
-11.717327 37.615342 -1.197373
-11.769935 37.717494 -0.548913
-11.902979 37.991007 0.017276
-12.032506 38.259406 0.418488
-12.066665 38.312166 1.799751
-11.974938 38.112556 2.190572
-11.918116 37.983118 2.842195
-12.120435 38.405012 3.280911
-14.487141 36.712751 -1.944149
-14.500093 36.729735 -1.463571
-14.559384 36.828582 -0.985327
-14.614741 36.921506 -0.590426
-14.719055 37.097690 0.065189
-14.691489 37.018199 2.579578
-14.726263 37.073577 3.072000
-14.954517 37.470179 3.602047
-15.273432 38.025413 4.252798
-17.381051 35.439923 -1.841381
-17.394597 35.454755 -1.361416
-17.457616 35.544503 -1.054965
-17.524824 35.635790 -0.317134
-17.695415 35.884319 -0.006422
-17.552153 35.645825 2.498538
-17.847832 36.070495 3.603349
-18.270679 36.688678 4.173748
-19.924330 34.070831 -1.918792
-19.869922 33.999738 -1.691837
-19.889056 34.016816 -0.958224
-20.018468 34.177693 -0.654175
-20.211094 34.415212 -0.002305
-20.504999 34.752975 3.521853
-20.678621 34.970297 3.777258
-22.654945 32.339985 -1.532669
-22.663810 32.346766 -1.224528
-22.742478 32.426927 -0.747265
-22.885365 32.575961 -0.268173
-23.092460 32.793824 0.216346
-23.285740 32.973502 3.339573
-23.268483 32.952201 3.654592
-23.843220 33.562786 4.325398
-24.927353 30.608026 -1.804008
-24.950496 30.623418 -1.065586
-25.103758 30.763092 -0.758283
-25.185262 30.833310 -0.101886
-25.405789 31.033186 0.473770
-26.202502 31.739784 4.436498
-27.087794 28.704388 -1.947486
-27.106271 28.715435 -1.463571
-27.198101 28.785215 -0.982649
-27.364518 28.914019 -0.414258
-27.602578 29.100116 0.160383
-27.446149 28.973142 0.389154
-27.729354 29.175503 3.533228
-28.296198 29.622714 4.372037
-29.353657 26.382748 -1.948487
-29.283942 26.333469 -1.629585
-29.385274 26.397594 -1.062580
-29.644329 26.568579 -0.581206
-29.814931 26.680582 -0.181672
-29.732440 26.620206 0.479591
-30.108281 26.850429 3.629344
-31.268470 24.228296 -2.144479
-31.200318 24.186459 -1.741270
-31.218046 24.193249 -1.257917
-31.317350 24.246771 -0.776397
-31.586436 24.396322 -0.121094
-31.760671 24.493301 0.282484
-31.992942 24.604493 3.420481
-32.900022 21.823210 -1.676526
-32.917451 21.828322 -1.194144
-33.111469 21.917399 -0.629370
-33.205046 21.960671 -0.403151
-33.478785 22.087261 0.257386
-33.807574 22.234094 1.829899
-33.049197 21.866066 2.587091
-34.551368 22.573514 4.304097
-34.576560 19.039348 -1.856063
-34.596346 19.043782 -1.375772
-34.608489 19.045856 -0.980764
-34.807270 19.117384 -0.330900
-35.089909 19.222489 0.066655
-35.088449 19.219346 0.466880
-35.116053 19.216691 2.505511
-35.522460 19.365510 3.434757
-36.108224 19.583317 4.261756
-35.877834 16.465541 -1.773307
-35.896930 16.468229 -1.292640
-35.910374 16.469224 -0.811776
-36.107615 16.526347 -0.504479
-36.399287 16.609544 0.151912
-36.397646 16.607073 0.465866
-36.424954 16.602393 2.505849
-36.393714 16.589968 2.993107
-36.929393 16.746962 3.532756
-37.466296 16.904796 3.997550
-36.984450 13.796590 -1.812017
-37.001061 13.797823 -1.417168
-37.018084 13.798089 -0.851186
-37.320031 13.861397 -0.287359
-37.614007 13.922889 0.285198
-37.778713 13.950758 1.670369
-37.862708 13.967357 1.990953
-37.636691 13.913861 2.556549
-37.792321 13.944637 3.147037
-38.156558 14.023047 3.497093
-38.687139 14.136446 4.139697
-38.058949 10.798447 -2.057529
-37.982681 10.784945 -1.572390
-37.994180 10.784651 -1.263259
-38.108000 10.796951 -0.699381
-38.411877 10.835516 -0.133243
-38.708919 10.874144 0.267502
-38.875924 10.888778 1.655031
-38.740208 10.865460 2.401975
-38.714770 10.859493 2.804051
-38.960129 10.889220 3.492585
-39.425143 10.951299 3.856320
-38.578030 7.956120 -1.444468
-38.692975 7.960579 -0.967740
-39.000436 7.977859 -0.577167
-39.303976 7.992224 0.253655
-39.475497 7.995330 1.551496
-39.549147 7.996512 2.133953
-39.520466 7.991709 2.624848
-39.697877 8.001043 2.955445
-39.858008 8.008190 3.465113
-40.282832 8.030429 4.275310
-39.080136 4.810730 -1.806011
-39.099591 4.807494 -1.325589
-39.314854 4.800396 -0.763673
-39.622531 4.790631 -0.023566
-39.920852 4.783061 0.379707
-40.087728 4.772305 1.685420
-39.954549 4.770603 2.346849
-40.034571 4.767273 2.670201
-40.176720 4.760174 3.440574
-40.646057 4.749893 3.805432
-41.282801 4.734932 4.468225
-39.412881 1.938338 -2.086934
-39.328691 1.944044 -1.770728
-39.355023 1.937190 -1.033504
-39.562610 1.916013 -0.640446
-39.865828 1.886157 -0.243931
-40.163133 1.855216 0.419828
-40.933767 1.778779 1.519368
-40.725338 1.796277 1.745822
-40.193617 1.840506 2.391087
-40.359903 1.822382 2.897250
-40.512267 1.804959 3.495712
-40.862723 1.769987 4.030746
-39.438725 -1.287748 -2.101612
-39.362647 -1.277512 -1.614271
-39.383505 -1.285137 -0.961555
-39.585244 -1.321563 -0.738894
-39.887231 -1.378065 -0.083298
-40.428978 -1.484901 1.986287
-40.297761 -1.465629 2.562781
-40.380624 -1.481493 2.801565
-40.623106 -1.527896 3.496750
-39.239208 -4.170203 -2.093272
-39.060005 -4.127330 -1.773451
-39.174801 -4.159031 -1.297616
-39.382493 -4.214526 -0.735545
-39.678935 -4.291737 -0.254393
-40.216392 -4.439660 1.893553
-40.098581 -4.412658 2.293984
-40.170470 -4.433217 2.705522
-40.328157 -4.475862 3.214361
-40.664618 -4.563956 3.834511
-38.644997 -7.008900 -1.817939
-38.660013 -7.016374 -1.423783
-38.866340 -7.088730 -0.778377
-39.157164 -7.188532 -0.212632
-39.801268 -7.411004 1.266077
-39.972591 -7.470874 1.768735
-39.763476 -7.404227 2.166249
-39.728883 -7.396479 2.747222
-39.889252 -7.452207 3.168369
-40.139957 -7.537897 3.602027
-40.728251 -7.737833 4.439968
-37.956351 -10.069894 -1.944748
-37.982379 -10.085694 -1.210204
-38.175316 -10.169693 -0.819792
-38.455965 -10.290172 -0.512543
-38.993922 -10.528043 1.134544
-39.253473 -10.640913 1.639740
-39.047153 -10.557009 2.125881
-39.013806 -10.546743 2.707231
-39.156313 -10.610809 3.304274
-39.390221 -10.712973 3.827581
-39.901485 -10.931878 4.299792
-37.127467 -12.813947 -1.794035
-37.236790 -12.874184 -1.148414
-37.424736 -12.974028 -0.586197
-37.783513 -13.160025 -0.191483
-38.204654 -13.385827 1.374277
-38.371036 -13.473054 1.700628
-38.072666 -13.325034 2.354712
-38.137568 -13.360983 2.765679
-38.287455 -13.440420 3.186217
-38.595894 -13.602219 3.805432
-35.958315 -15.791047 -1.873379
-35.971603 -15.802049 -1.481240
-36.153300 -15.917768 -1.009150
-36.415813 -16.084103 -0.447245
-36.501679 -16.140639 0.036504
-37.133898 -16.545669 2.014980
-36.944036 -16.431050 2.409095
-36.982209 -16.460062 3.170506
-37.199296 -16.597999 3.689374
-37.579777 -16.837178 4.235520
-34.859247 -18.484130 -2.158650
-34.800949 -18.446768 -1.504402
-34.806686 -18.452586 -1.281631
-34.979481 -18.582599 -0.635758
-35.305733 -18.821912 -0.242907
-35.769762 -19.169786 1.321352
-35.914434 -19.278350 1.823404
-35.726258 -19.146271 2.395153
-35.703820 -19.133032 2.799918
-35.758783 -19.175929 3.212302
-33.332208 -20.949217 -1.939138
-33.346432 -20.964992 -1.461450
-33.435010 -21.044834 -0.815116
-33.667669 -21.244221 -0.424693
-33.896506 -21.441802 0.145460
-34.245526 -21.748665 1.712939
-34.305706 -21.802678 2.122603
-34.124619 -21.654374 2.690482
-34.258770 -21.770171 3.020755
-34.442118 -21.930361 3.716027
-34.707265 -22.158313 4.252592
-31.637272 -23.271295 -1.842838
-31.724392 -23.361980 -1.193377
-31.873010 -23.510599 -0.805528
-32.162171 -23.798873 -0.155960
-33.144185 -24.771152 1.253704
-33.051265 -24.685990 1.929781
-32.538737 -24.187148 2.213082
-32.519862 -24.172097 2.616589
-32.558964 -24.215290 3.203035
-32.805362 -24.461465 3.819626
-33.179613 -24.833706 4.558167
-29.695836 -25.856939 -1.799354
-29.709241 -25.878417 -1.144751
-29.846129 -26.041390 -0.578160
-30.109172 -26.347357 -0.270987
-30.172877 -26.425258 0.216007
-31.001932 -27.392493 1.498397
-30.929430 -27.311062 1.728722
-30.449900 -26.763526 2.280636
-30.418596 -26.733606 2.948937
-30.471463 -26.796717 3.186217
-30.756290 -27.131557 3.902502
-27.791006 -28.013453 -2.096275
-27.740921 -27.950522 -1.693502
-27.749483 -27.966842 -1.210695
-27.873599 -28.136824 -0.817247
-28.174680 -28.547020 -0.075682
-28.412993 -28.868134 0.157678
-29.108086 -29.811885 1.547263
-28.856287 -29.479146 1.950024
-28.419459 -28.899544 2.415037
-28.401611 -28.879805 2.824928
-28.500562 -29.016449 3.250479
-25.348289 -30.011273 -1.627025
-25.405082 -30.104100 -1.405176
-25.518403 -30.292626 -0.670918
-25.731822 -30.637470 -0.188439
-25.943354 -30.977441 0.128974
-26.126901 -31.288306 1.803751
-26.114069 -31.272554 2.213969
-26.042416 -31.164187 2.705483
-26.077767 -31.225124 3.121792
-26.255608 -31.515978 3.832408
-26.585258 -32.048749 4.588193
-23.056560 -31.801353 -1.712028
-23.060781 -31.813313 -1.402194
-23.158131 -32.002043 -1.012490
-23.394182 -32.456964 -0.277077
-23.672095 -32.988875 0.302604
-23.786668 -33.224439 1.804006
-23.775060 -33.207823 2.214203
-23.711648 -33.094502 2.705930
-23.742427 -33.157951 3.122205
-23.805147 -33.285237 3.814779
-24.067923 -33.786043 4.197495
-20.663977 -34.175460 -2.433331
-20.393155 -33.550883 -2.081161
-20.400432 -33.576433 -1.517107
-20.482590 -33.773478 -1.128698
-20.642135 -34.157142 -0.308049
-20.877903 -34.710361 0.005915
-21.052631 -35.142457 1.684341
-21.040563 -35.122026 2.184279
-20.952713 -34.922421 2.494445
-20.939768 -34.898548 2.902539
-20.989869 -35.026979 3.680448
-21.168395 -35.449268 4.139589
-18.055282 -35.389891 -2.576170
-17.897488 -34.941846 -2.150187
-17.869065 -34.867069 -1.752294
-17.971685 -35.176925 -1.028519
-18.103087 -35.563764 -0.639417
-18.265533 -36.042051 -0.155346
-18.354057 -36.348554 2.592963
-18.339897 -36.316801 3.089099
-18.394803 -36.481648 3.425444
-18.529548 -36.885974 4.238791
-15.444012 -36.708458 -2.635273
-15.295251 -36.163401 -2.033701
-15.272471 -36.089063 -1.552913
-15.351189 -36.399953 -0.914641
-15.453435 -36.795442 -0.439655
-15.580786 -37.281428 -0.129716
-15.650234 -37.602683 2.433812
-15.636807 -37.565897 3.016479
-15.674847 -37.720894 3.527739
-15.787773 -38.158179 4.072858
-12.280154 -37.105253 -1.650620
-12.333813 -37.420701 -1.099454
-12.404548 -37.822054 -0.799299
-12.508409 -38.421571 -0.057953
-12.524804 -38.520019 0.171382
-12.544540 -38.682558 1.745001
-12.568444 -38.840902 2.515749
-12.561181 -38.814583 2.923804
-12.570875 -38.882305 3.339721
-9.520102 -37.899772 -1.818420
-9.530025 -38.015910 -1.430349
-9.570207 -38.432679 -0.791130
-9.620182 -38.937845 -0.225595
-9.670372 -39.435778 0.178626
-9.682915 -39.674112 2.262915
-9.675537 -39.637995 2.849257
-9.679003 -39.699816 3.354931
-9.706782 -39.977457 3.614157
-9.759705 -40.515464 4.265992
-6.422164 -38.441460 -1.899327
-6.420656 -38.455502 -1.592934
-6.427102 -38.876850 -0.958890
-6.437143 -39.384602 -0.571257
-6.444919 -39.888680 0.176474
-6.437554 -40.202847 2.664603
-6.437466 -40.280378 2.992131
-6.436804 -40.424532 3.683900
-6.442834 -40.783389 4.134348
-3.588546 -38.707877 -1.924592
-3.579784 -38.828486 -1.455188
-3.549901 -39.348472 -0.736962
-3.517279 -39.953930 -0.260190
-3.483858 -40.552145 0.407619
-3.461309 -40.797909 2.140984
-3.464176 -40.657219 2.809908
-3.458070 -40.719385 3.314830
-3.442257 -40.965687 3.929385
-3.402273 -41.718659 4.425287
-0.446428 -38.784238 -1.661300
-0.401532 -39.101321 -1.111683
-0.330982 -39.609923 -0.470328
-0.250264 -40.207456 -0.072863
-0.221990 -40.404337 0.333667
-0.153778 -40.823495 2.515749
-0.167599 -40.703344 2.831616
-0.130954 -40.954603 3.442818
-0.081880 -41.304041 3.982353
2.369693 -38.694035 -2.084685
2.373341 -38.705081 -1.861879
2.422685 -38.925633 -1.225789
2.490097 -39.233753 -0.584224
2.613658 -39.824539 -0.277677
2.697791 -40.215754 0.300163
2.779640 -40.568346 1.797972
2.817383 -40.733722 2.395561
2.813805 -40.701385 2.895505
2.828146 -40.753172 3.491800
5.246657 -38.402380 -2.218989
5.230300 -38.332670 -1.658240
5.266477 -38.447379 -1.105881
5.350499 -38.739194 -0.976498
5.689556 -39.903448 0.150178
5.852862 -40.439272 1.825436
5.875351 -40.505090 2.418031
5.845343 -40.394860 2.644892
5.863112 -40.442151 3.327276
5.936090 -40.686492 3.853556
6.139530 -41.383059 4.620775
8.374591 -37.770626 -1.656932
8.377359 -37.775652 -1.521573
8.423368 -37.886872 -0.886134
9.234542 -39.986128 2.236467
9.157812 -39.775693 2.633844
9.148250 -39.741821 3.130139
9.244316 -39.989339 3.563725
9.468484 -40.569877 4.402801
11.037870 -36.962278 -1.951199
11.005628 -36.886882 -1.561030
11.061134 -36.996703 -0.844878
12.106242 -39.214918 2.190637
12.014651 -39.010955 2.588956
11.998071 -38.965374 3.262593
12.114029 -39.211357 3.608863
12.382746 -39.782136 4.359084
13.622844 -35.983406 -1.956454
13.587349 -35.913293 -1.484220
13.598854 -35.927239 -0.933843
13.650703 -36.018349 -0.717640
14.844023 -38.137313 2.495584
14.833107 -38.112448 2.905354
14.858977 -38.150720 3.589006
15.071940 -38.526953 4.316594
16.412131 -34.702478 -1.723620
16.365424 -34.628642 -1.419435
16.375936 -34.639424 -0.953999
17.856681 -36.839899 2.234499
17.790143 -36.735049 2.637296
17.824985 -36.781168 3.229780
17.965104 -36.985988 3.843119
18.374912 -37.597255 4.518085
18.934141 -33.505802 -1.751612
18.821440 -33.356685 -1.438851
18.779679 -33.293368 -0.507101
20.533082 -35.539217 2.127791
20.450509 -35.425609 2.797401
20.369308 -35.315566 3.286389
20.541369 -35.535970 3.542890
20.875555 -35.962574 4.190695
21.607798 -31.837583 -1.919717
21.489427 -31.703475 -1.442087
21.437780 -31.641133 -0.806457
21.443828 -31.644326 -0.422486
21.447647 -31.644337 0.043567
23.221814 -33.567064 2.628319
23.200365 -33.539076 3.126344
23.376236 -33.727271 3.650526
23.730897 -34.108810 4.481938
23.783556 -30.117035 -1.976246
23.731503 -30.063029 -1.419435
23.595210 -29.931179 -1.110195
23.608782 -29.938111 -0.396193
23.611576 -29.938249 -0.094366
25.596037 -31.798352 2.572382
25.563895 -31.762247 3.247417
25.751786 -31.936094 3.772714
26.144821 -32.303458 4.426028
26.220080 -28.140276 -2.203489
26.091639 -28.031914 -1.557927
26.023803 -27.974951 -1.251676
25.960747 -27.919290 -0.617153
25.966400 -27.920225 -0.150738
25.967689 -27.918286 0.233239
28.078611 -29.596123 2.926565
28.122326 -29.626686 3.522210
28.398467 -29.844728 4.060931
28.192947 -26.174797 -2.063080
28.045786 -26.070069 -1.666635
27.984589 -26.023051 -1.029569
27.907616 -25.968167 -0.807818
27.999059 -26.026803 -0.177029
28.082660 -26.081815 0.208459
30.167210 -27.507321 2.489503
30.151045 -27.493761 2.813015
30.186290 -27.512468 3.586479
30.483670 -27.714906 4.037577
30.035720 -24.025796 -2.199914
29.886071 -23.934435 -1.720337
29.822348 -23.892501 -1.083485
29.746847 -23.844818 -0.614576
29.838095 -23.895795 -0.231612
32.116879 -25.217837 2.340986
32.085969 -25.195541 2.928981
32.219517 -25.269841 3.533585
32.531612 -25.450218 3.983751
31.876422 -21.550863 -1.915165
31.803431 -21.512847 -1.524449
31.724276 -21.472411 -1.218459
31.736645 -21.475270 -0.750685
34.030044 -22.566397 2.372073
33.991463 -22.543156 3.047684
34.135796 -22.609683 3.563375
34.445467 -22.755621 4.192686
33.283574 -19.119953 -1.795622
33.293146 -19.122339 -1.577652
33.309750 -19.125899 -1.110406
35.793429 -20.091735 2.079524
35.587550 -20.007364 2.478452
35.551904 -19.989402 3.063900
35.800216 -20.085217 3.497745
36.280540 -20.270043 4.416181
34.898734 -16.406778 -2.180636
34.823279 -16.381240 -1.789983
34.848152 -16.384836 -1.155024
35.051243 -16.444002 -0.690094
37.112018 -17.056093 2.168943
37.073667 -17.040110 2.843044
37.140521 -17.057923 3.259515
36.001464 -13.814044 -2.219738
35.928663 -13.794554 -1.746409
36.045057 -13.818153 -1.282065
36.253414 -13.862668 -0.817252
36.652062 -13.949922 -0.264451
38.177982 -14.284246 1.796854
38.353827 -14.321654 2.215104
38.233490 -14.291787 2.617961
38.297386 -14.303201 3.121890
37.017876 -10.876650 -1.795049
37.130020 -10.891003 -1.497376
37.346105 -10.918813 -0.948669
37.752329 -10.974014 -0.396127
38.447578 -11.070812 0.169166
39.204545 -11.170326 1.747891
39.486660 -11.208966 2.081955
39.255984 -11.172200 2.656631
39.234445 -11.167146 2.975913
39.476676 -11.197809 3.674828
40.011511 -11.270963 4.324384
37.602931 -8.153669 -1.936948
37.713168 -8.160171 -1.724298
38.038574 -8.178858 -1.013449
39.050340 -8.244114 0.015243
39.248786 -8.256238 0.328611
39.609992 -8.272809 1.806969
39.973444 -8.294306 2.497791
39.933858 -8.287974 3.081840
40.107512 -8.298213 3.417179
40.352526 -8.311800 4.032348
38.238792 -5.090155 -1.932945
38.465859 -5.084011 -1.302311
38.777142 -5.078502 -0.920304
39.386602 -5.068875 -0.364475
39.888299 -5.060781 0.121292
40.449481 -5.044913 1.793062
40.638345 -5.041504 2.035680
40.493353 -5.038415 2.794375
40.470051 -5.036715 3.115650
40.727704 -5.030900 3.639764
41.367239 -5.020325 4.301256
38.699662 -2.287802 -2.071580
38.714920 -2.284676 -1.764873
38.827325 -2.273502 -1.461893
39.248078 -2.233662 -0.656004
39.849981 -2.181805 -0.350568
40.448832 -2.128549 0.227565
40.906959 -2.080809 1.825031
40.791645 -2.088457 2.144066
40.662758 -2.096174 2.637739
40.726614 -2.087802 3.143938
38.659942 0.865701 -2.042292
38.792181 0.892598 -1.238368
39.192949 0.960495 -1.027119
39.696544 1.047599 -0.469563
40.290952 1.149352 0.015532
40.854205 1.252136 1.514993
40.921882 1.267556 2.196748
40.706316 1.233634 2.507536
40.659187 1.229925 3.181322
40.903868 1.274339 3.794007
41.550500 1.384760 4.277246
38.617341 3.423135 -2.042422
38.739019 3.455097 -1.489504
39.146763 3.554645 -0.855710
39.641141 3.674054 -0.295101
40.128129 3.791279 0.192788
40.673264 3.928965 1.781192
40.755200 3.950207 2.108078
40.526535 3.900151 2.683201
40.497734 3.895931 3.091852
40.748210 3.957910 3.614637
41.370410 4.107909 4.274432
38.228637 6.507314 -1.846149
38.347133 6.549370 -1.209418
38.738683 6.677949 -0.743731
39.219492 6.834678 -0.355017
39.695763 6.991121 0.218353
40.234666 7.172956 1.627013
40.212067 7.168861 2.124717
39.999080 7.103041 2.521326
40.054505 7.124566 3.111468
40.306640 7.208208 3.544670
40.897943 7.403235 4.382419
37.839950 9.348706 -1.826198
37.954784 9.399197 -1.184063
38.242889 9.518445 -0.714374
38.711145 9.710385 -0.238532
39.267245 9.937264 0.162475
39.604505 10.083001 1.656053
39.484774 10.038490 2.236026
39.357380 9.990868 2.812654
39.414141 10.017026 3.314466
36.965614 12.392879 -1.596229
37.160164 12.494117 -1.041368
37.524507 12.679305 -0.654510
37.975039 12.908907 -0.086535
38.151917 13.000255 0.315161
38.285060 13.078131 1.967125
38.358634 13.117172 2.288865
38.324083 13.103775 2.868780
38.460174 13.175998 3.465113
35.944862 15.070943 -1.851893
36.052852 15.140509 -1.125895
36.316224 15.299842 -0.824311
36.750444 15.562387 -0.347869
37.007847 15.719469 0.140333
37.226872 15.861838 1.793964
37.289863 15.902931 2.290579
37.256392 15.887026 2.870150
37.320675 15.927676 3.194111
34.690210 17.973343 -1.970995
34.627002 17.932513 -1.406411
34.884067 18.120317 -0.768320
35.295161 18.416608 -0.293082
35.700740 18.709710 0.281756
36.078958 18.988844 1.600984
35.977608 18.920308 2.092346
35.876201 18.851060 2.493198
35.847289 18.834127 2.986613
36.056820 18.987194 3.505333
36.553646 19.347862 4.428593
33.298530 20.437323 -1.964720
33.315385 20.455669 -1.403490
33.478839 20.594627 -0.931466
33.791906 20.857413 -0.456804
34.177479 21.180276 0.027785
34.538348 21.489885 1.429872
34.509440 21.471923 2.190333
34.340222 21.334305 2.498004
34.383985 21.375119 3.084903
34.504224 21.478617 3.595085
34.925895 21.831900 4.149803
-16.074738 25.547234 2.271074
-16.059954 25.550276 2.812398
-16.260725 25.508953 3.339079
-16.592612 25.440642 3.908714
-16.767553 25.404632 6.937128
-17.006397 25.355472 7.420018
-17.328041 25.289270 7.862082
-17.556596 25.242228 8.351388
-18.182238 25.113456 8.539753
-18.025877 24.174110 2.704133
-18.247852 24.109162 3.464810
-18.519437 24.029699 3.941242
-18.715316 23.972387 4.092725
-18.767499 23.957116 6.685790
-18.963330 23.899818 7.306320
-19.149244 23.845421 7.697237
-19.418299 23.766699 8.046735
-20.027895 23.588337 8.696739
-20.192675 22.518951 2.364990
-20.149504 22.535539 3.049834
-20.366214 22.452267 3.433241
-20.761427 22.300404 3.953875
-20.857519 22.263480 4.535289
-20.700092 22.323970 6.744888
-20.931800 22.234934 7.456127
-21.067393 22.182831 7.751029
-21.410981 22.050805 8.286758
-22.047195 21.806337 8.566749
-21.783900 20.861786 2.360464
-21.997110 20.758715 3.121763
-22.155909 20.681947 3.413463
-22.381669 20.572809 4.034471
-22.630235 20.452645 4.515264
-22.823448 20.359240 6.160194
-22.612143 20.461389 7.012626
-22.746656 20.396362 7.308966
-22.880930 20.331450 7.837825
-23.333743 20.112549 8.428883
-23.462168 18.982519 2.065965
-23.304153 19.075586 2.712290
-23.576477 18.915192 3.418309
-23.921631 18.711903 3.699159
-24.358023 18.454876 4.172014
-24.083633 18.616483 6.722767
-24.258353 18.513576 7.342017
-24.424365 18.415798 7.731631
-24.742820 18.228234 8.036780
-25.251681 17.928524 8.590811
-25.078918 16.775367 2.783890
-25.292384 16.621799 3.020231
-25.429883 16.522882 3.689526
-25.830294 16.234824 6.424945
-25.486883 16.481873 7.131540
-25.754604 16.289274 7.564374
-26.238364 15.941257 8.103457
-26.462290 15.780165 8.454093
-26.156291 14.852860 2.355604
-26.401522 14.644156 3.060626
-26.685218 14.402715 3.482890
-27.006858 14.128983 4.003294
-27.283368 13.893659 4.436598
-27.028893 14.110227 6.985341
-27.178089 13.983253 7.374351
-27.290781 13.887346 7.902703
-27.571310 13.648602 8.209321
-27.511617 12.406104 2.251823
-27.481143 12.436791 2.937311
-27.624671 12.292253 3.463737
-27.907609 12.007325 3.747187
-28.189359 11.723594 4.035877
-28.132154 11.781199 6.594861
-28.117666 11.795788 7.213871
-28.350301 11.561516 7.653612
-28.675094 11.234439 8.149905
-28.933944 10.973769 8.463311
-28.374660 10.183127 2.103707
-28.256951 10.322904 2.750749
-28.499447 10.034944 3.170228
-28.703866 9.792199 3.502687
-29.032052 9.402484 3.974642
-29.244614 9.150069 4.553631
-28.996362 9.444862 7.014082
-29.065175 9.363147 7.449196
-29.305604 9.077640 7.985264
-29.601323 8.726479 8.252790
-28.964343 8.050537 2.092363
-29.022731 7.968543 2.812743
-29.240614 7.662574 3.232426
-29.505983 7.289923 3.606345
-29.800791 6.875930 4.080959
-29.879538 6.765347 4.522429
-29.711381 7.001482 7.168140
-29.824370 6.842813 7.559083
-30.013838 6.576747 8.002827
-30.278916 6.204503 8.504515
-29.522529 5.468470 2.476194
-29.598938 5.337275 2.905959
-29.814879 4.966503 3.415091
-30.016380 4.620524 3.695549
-30.271183 4.183025 4.167996
-30.409049 3.946308 4.652459
-30.224275 4.263562 6.718697
-30.212657 4.283509 7.336188
-30.286449 4.156806 7.631779
-30.518165 3.758949 8.124672
-30.748402 3.363630 8.393091
-29.865075 3.011203 2.251836
-29.882565 2.974428 2.501940
-30.056704 2.608296 3.153135
-30.229700 2.244567 3.432162
-30.425386 1.833130 3.809416
-30.582385 1.503035 4.243206
-30.464547 1.750787 6.892947
-30.510782 1.653575 7.327956
-30.613381 1.437857 7.813224
-30.810495 1.023418 8.310851
-29.944941 0.715714 2.513837
-30.048437 0.441942 2.979246
-30.230113 -0.038636 3.435833
-30.410087 -0.514711 3.901600
-30.550592 -0.886380 4.189186
-30.647375 -1.142395 4.673784
-30.517120 -0.797845 6.739476
-30.508787 -0.775803 7.356591
-30.592891 -0.998280 7.839291
-30.739027 -1.384845 8.239281
-29.886014 -1.706937 2.424795
-29.912535 -1.799621 2.763187
-30.085120 -2.402781 3.398265
-30.180319 -2.735483 3.585934
-30.343837 -3.306951 4.005982
-30.467757 -3.740032 4.392023
-30.364760 -3.380085 7.088075
-30.381025 -3.436928 7.429546
-30.471150 -3.751903 7.871567
-30.609374 -4.234972 8.466490
-29.646803 -4.166292 2.440912
-29.682023 -4.343268 3.102708
-29.788085 -4.876189 3.415378
-29.914991 -5.513854 3.922238
-29.992643 -5.904030 4.211112
-30.046138 -6.172823 4.696955
-29.965016 -5.765222 6.672783
-29.978193 -5.831435 7.246551
-30.016039 -6.021597 7.637484
-30.079602 -6.340981 8.081454
-29.186432 -6.476269 2.242541
-29.191315 -6.519040 2.867708
-29.260002 -7.120620 3.660014
-29.343103 -7.848424 4.112916
-29.407711 -8.414277 4.301080
-29.453946 -8.819217 6.092959
-29.390814 -8.266302 6.758072
-29.392973 -8.285222 7.237429
-29.430477 -8.613686 7.909128
-29.482354 -9.068033 8.406661
-28.557543 -8.968534 2.230292
-28.544822 -8.561669 2.892953
-28.545924 -8.596953 3.514084
-28.561821 -9.105400 3.964256
-28.614872 -10.802330 7.263891
-27.647131 -11.186116 2.821291
-27.645031 -11.221370 3.441976
-27.619876 -11.643685 3.943174
-27.582847 -12.265327 4.208757
-27.535538 -13.059584 4.386143
-27.520317 -13.315088 6.749685
-27.524446 -13.245749 7.276475
-27.504841 -13.574894 7.718426
-27.477473 -14.034352 8.217097
-26.641532 -13.435062 1.962663
-26.670324 -13.231932 2.749541
-26.657403 -13.323084 3.458225
-26.430823 -14.921626 4.405659
-26.331351 -15.623408 4.641777
-26.360885 -15.415025 7.009240
-26.332895 -15.612499 7.633085
-26.274444 -16.024874 8.035116
-25.450781 -15.553582 2.095987
-25.484270 -15.406114 2.969737
-25.538801 -15.165997 3.517295
-25.490346 -15.379355 4.256409
-25.127801 -16.975760 4.676809
-24.975114 -17.648095 4.677457
-24.977028 -17.639659 6.560242
-25.011696 -17.487000 7.133151
-24.937922 -17.811853 7.805879
-24.876025 -18.084402 8.157192
-24.104177 -17.500246 2.452681
-24.168642 -17.296717 3.233323
-24.185399 -17.243811 3.901011
-24.153339 -17.345030 4.461358
-23.332505 -19.936534 6.035345
-23.458934 -19.537375 6.747862
-23.439128 -19.599905 7.319921
-23.367240 -19.826865 7.803308
-23.188102 -20.392431 8.351761
-22.591588 -19.422295 2.665145
-22.715709 -19.118871 3.267743
-22.716387 -19.117212 4.022441
-22.664284 -19.244581 4.442384
-22.391166 -19.912235 4.878580
-21.927433 -21.045859 4.804982
-21.629913 -21.773163 6.255454
-21.771396 -21.427296 7.060693
-21.697345 -21.608319 7.451801
-21.556143 -21.953494 7.990351
-21.365510 -22.419508 8.355486
-20.951664 -21.152866 2.382399
-21.022976 -21.012613 3.250211
-21.034644 -20.989664 3.775918
-20.986175 -21.084988 4.335655
-20.309116 -22.416584 4.708417
-19.809739 -23.398726 6.095069
-19.981153 -23.061598 6.668048
-19.908554 -23.204379 7.427352
-19.821747 -23.375105 7.817631
-19.593315 -23.824370 8.176215
-18.942816 -22.975453 2.961775
-18.999932 -22.884559 3.543005
-18.162560 -24.217127 4.618975
-17.647776 -25.036340 4.704858
-17.702119 -24.949856 6.630856
-17.811438 -24.775889 7.108377
-17.634462 -25.057522 7.779076
-17.510071 -25.255475 8.033827
-17.032712 -24.398439 2.666552
-17.043198 -24.384450 3.197953
-16.246519 -25.447139 4.427842
-15.686117 -26.194659 4.651901
-15.423731 -26.544654 6.302598
-15.676425 -26.207584 7.015077
-15.584495 -26.330209 7.545168
-15.415467 -26.555675 7.895150
-15.004970 -27.103236 8.407884
-14.696183 -25.901848 2.790730
-14.122508 -26.537585 4.183767
-13.706191 -26.998941 4.454715
-13.232039 -27.524390 4.687649
-13.006914 -27.773868 6.146535
-13.193145 -27.567489 7.137749
-13.123299 -27.644891 7.571534
-12.935611 -27.852883 7.918739
-12.507989 -28.326768 8.333039
-12.377704 -27.149974 2.333684
-12.306433 -27.216918 3.045416
-12.199239 -27.317606 3.471546
-11.930797 -27.569756 3.885302
-11.539499 -27.937307 4.203251
-10.984370 -28.458746 4.524365
-10.663210 -28.760413 6.170440
-10.934426 -28.505656 6.976414
-10.856583 -28.578774 7.411631
-10.650790 -28.772077 7.759631
-10.217254 -29.179302 8.311358
-9.736337 -28.470994 3.159668
-9.621658 -28.563676 3.594219
-8.636583 -29.359803 6.911432
-7.590314 -28.920465 2.630343
-7.392431 -29.052689 3.008103
-7.105850 -29.244180 3.569234
-6.683405 -29.526455 4.031280
-6.353274 -29.747046 4.316852
-6.024574 -29.966682 4.607623
-5.800086 -30.116683 5.094118
-6.119395 -29.903320 7.156840
-5.955451 -30.012866 7.779585
-5.610500 -30.243360 8.181219
-5.270998 -29.394137 2.267881
-5.085382 -29.497045 2.785668
-4.756461 -29.679403 3.200037
-4.431149 -29.859761 3.619604
-4.081280 -30.053734 3.901628
-3.593229 -30.324317 4.468511
-3.282227 -30.496740 6.167130
-3.685081 -30.273390 7.019540
-3.632213 -30.302701 7.361693
-3.265006 -30.506285 7.991520
-2.745155 -30.794499 8.312477
-2.673226 -29.789889 2.676831
-2.509145 -29.863720 2.962432
-2.117661 -30.039873 3.468841
-1.624126 -30.261945 3.788666
-1.132362 -30.483221 4.117522
-0.801554 -30.632072 4.553264
-0.715683 -30.670710 5.768515
-1.092600 -30.501110 6.486511
-1.024241 -30.531869 7.293632
-0.847816 -30.611253 7.684778
-0.510410 -30.763073 8.223745
-0.156165 -29.932762 2.417439
-0.144771 -29.936803 2.809489
0.421992 -30.137806 3.209233
0.720284 -30.243595 3.538918
1.067178 -30.366621 3.964700
1.491969 -30.517273 4.346138
1.268181 -30.437904 6.849411
1.414096 -30.489652 7.376635
1.723513 -30.599387 7.817263
2.326686 -30.813303 8.230069
2.424689 -29.870257 2.029149
2.331682 -29.845718 2.620081
2.721947 -29.948685 3.266873
3.110300 -30.051149 3.543148
3.549533 -30.167036 3.917019
3.985748 -30.282128 4.297950
4.300206 -30.365094 4.877125
3.891097 -30.257152 6.848879
3.995616 -30.284728 7.283776
4.182763 -30.334105 7.674877
4.671307 -30.463003 8.265951
5.257412 -29.550329 2.241970
5.299444 -29.557423 2.870521
5.585348 -29.605675 3.340573
5.981660 -29.672560 3.619918
6.535642 -29.766056 4.183060
6.977425 -29.840616 4.566850
7.018985 -29.847630 5.055145
6.545484 -29.767715 6.925344
6.696503 -29.793202 7.451384
7.152309 -29.870128 8.173857
7.648439 -29.953861 8.303524
7.528990 -29.006817 2.582630
7.876426 -29.036404 3.140542
8.332711 -29.075262 3.508836
8.785968 -29.113862 3.884226
9.096365 -29.140295 4.222810
9.369521 -29.163557 4.707793
8.956220 -29.128358 6.682284
9.023646 -29.134100 7.255351
9.352185 -29.162078 7.695413
9.810986 -29.201150 8.192154
10.159253 -28.290000 2.261867
10.171946 -28.290032 3.033675
10.348950 -28.290495 3.321751
10.913890 -28.291972 3.875710
11.258113 -28.292872 4.068677
11.848053 -28.294414 4.497712
12.031113 -28.294893 5.034623
11.263435 -28.292884 6.570077
11.332430 -28.293063 7.142600
11.619337 -28.293813 7.719189
11.899140 -28.294545 8.068094
12.491929 -28.296095 8.387864
12.485131 -27.348280 2.282725
12.610569 -27.338164 2.858124
12.984084 -27.308043 3.277501
13.127500 -27.296478 3.711782
13.632170 -27.255781 4.181606
14.218862 -27.208469 4.611834
14.487308 -27.186822 5.101132
13.493636 -27.266950 6.634703
13.697213 -27.250533 7.253896
13.935978 -27.231278 7.737120
14.304505 -27.201560 8.042686
14.715908 -26.229884 2.340739
14.561335 -26.255197 2.842309
15.180210 -26.153847 3.482346
15.491098 -26.102934 3.816343
15.884914 -26.038441 4.104052
16.381363 -25.957141 4.585313
15.626670 -26.080730 6.751696
15.781244 -26.055416 7.278478
16.106717 -26.002115 7.718091
16.561136 -25.927697 8.214129
17.681361 -24.617202 2.455512
17.388534 -24.693022 3.300051
18.273524 -24.463869 7.444818
18.678119 -24.359108 8.073987
19.023027 -23.300510 2.544993
19.086342 -23.278441 3.030296
19.491082 -23.137370 3.542500
19.757455 -23.044526 4.019455
20.214653 -22.885171 4.257817
20.390838 -22.823762 4.792036
21.010010 -22.607951 4.946152
19.828885 -23.019627 6.856169
20.015694 -22.954515 7.243991
20.327294 -22.845907 7.682971
20.889988 -22.649782 8.230343
20.867915 -21.670420 2.755353
20.927702 -21.643948 3.241193
21.346400 -21.458572 3.612029
21.860596 -21.230914 4.175792
22.095689 -21.126827 4.424327
22.505146 -20.945542 4.815462
21.568503 -21.360234 6.498852
21.801140 -21.257234 7.210968
21.937329 -21.196937 7.508267
22.402091 -20.991166 8.095352
22.513055 -19.919136 2.641426
22.668225 -19.834576 3.306484
22.821233 -19.751195 3.594288
23.313378 -19.483002 4.150479
23.537530 -19.360851 4.393774
23.974962 -19.122474 4.872345
23.184808 -19.553063 6.361205
23.247397 -19.518955 6.929779
23.538998 -19.360048 7.362759
23.826738 -19.203245 7.800459
24.269312 -18.962066 8.157316
24.064365 -18.018904 2.280250
23.981053 -18.073526 2.871932
24.315627 -17.854167 3.523738
24.604986 -17.664452 3.712500
24.956440 -17.434026 4.233304
25.258735 -17.235831 4.667216
24.725865 -17.585197 6.640777
24.932458 -17.449747 7.120315
25.172955 -17.292068 7.695972
25.595965 -17.014727 8.052284
25.584039 -15.787582 2.095898
25.551725 -15.813190 2.777967
25.712209 -15.686011 3.299384
25.892222 -15.543355 3.679543
26.221342 -15.282537 4.195583
26.463096 -15.090954 4.532245
26.252550 -15.257803 6.545028
26.343781 -15.185505 7.207570
26.495184 -15.065522 7.593084
26.785152 -14.835730 8.124274
26.719265 -13.686057 2.270164
26.749395 -13.657784 2.897333
26.959982 -13.460184 3.366151
27.269028 -13.170198 3.879028
27.369518 -13.075906 4.313414
27.860934 -12.614797 4.689164
27.475466 -12.976490 6.226429
27.394303 -13.052647 6.659155
27.608167 -12.851972 7.230562
27.749541 -12.719316 7.619019
28.118320 -12.373282 8.205205
27.807314 -11.390136 2.592661
27.831606 -11.363279 3.218420
28.006437 -11.169991 3.453616
28.361914 -10.776985 4.150894
28.568795 -10.548262 4.486503
29.102176 -9.958571 4.676903
28.297358 -10.848353 6.451834
28.435983 -10.695092 7.066572
28.626804 -10.484125 7.407840
28.786087 -10.308025 7.889932
29.153627 -9.901683 8.341440
28.573232 -9.154446 2.193363
28.719249 -8.963300 2.949150
28.860879 -8.777897 3.329142
28.948238 -8.663538 3.762399
29.149712 -8.399795 4.328540
29.579496 -7.837180 4.561168
29.129529 -8.426212 6.333128
29.115094 -8.445109 6.717643
29.320758 -8.175880 7.379983
29.519659 -7.915506 7.816827
29.770716 -7.586857 8.215533
29.231822 -6.777597 2.581160
29.328902 -6.626281 3.247771
29.500506 -6.358810 3.578248
29.711214 -6.030390 4.238910
29.925525 -5.696354 4.528613
30.166979 -5.320011 4.917425
29.687630 -6.067146 6.643940
29.847002 -5.818738 7.216979
29.952634 -5.654095 7.607625
30.104938 -5.416707 7.956510
29.742159 -4.053698 2.627663
29.849796 -3.846432 3.383729
29.970170 -3.614639 3.622457
30.114892 -3.335965 3.955521
30.307361 -2.965346 4.477794
30.167500 -3.234657 6.635012
30.218738 -3.135994 7.068017
30.310452 -2.959389 7.686823
30.481304 -2.630398 7.990184
30.108371 -1.281181 2.615230
30.155740 -1.168159 3.193755
30.221124 -1.012155 3.863244
30.287721 -0.853256 4.156577
30.097958 1.167124 2.172041
30.093548 1.153555 2.711580
30.164905 1.373111 3.469955
30.192101 1.456787 3.811731
30.278225 1.721777 4.287131
30.389612 2.064495 4.716550
30.262017 1.671916 6.680603
30.323550 1.861241 7.065849
30.454488 2.264114 7.687945
30.596738 2.701795 8.180864
29.918437 3.702418 2.290365
29.908149 3.658917 2.973132
29.947594 3.825721 3.639578
29.987312 3.993674 3.929838
30.071032 4.347696 4.355824
30.153674 4.697163 4.786141
30.001882 4.055294 6.503550
30.099823 4.469455 6.887832
30.134280 4.615161 7.181864
30.189862 4.850200 7.895052
30.264261 5.164807 8.105668
29.496726 6.062610 2.512605
29.502340 6.099847 3.141366
29.545008 6.382870 3.613557
29.599756 6.746019 4.038571
29.622811 6.898944 4.709511
29.494335 6.046772 6.675228
29.564590 6.512781 7.146738
29.667661 7.196456 7.631414
29.716205 7.518453 8.072636
28.902928 8.525446 2.420230
28.903536 8.534462 3.192526
28.926413 8.873479 3.756021
28.947402 9.184517 4.089088
28.944814 9.146179 4.623721
28.992367 9.850856 4.859838
28.956254 9.315742 7.487805
28.993422 9.866536 7.930942
29.030302 10.413058 8.385113
28.009298 11.121208 2.243792
28.006324 11.247491 2.821666
28.003531 11.366065 3.399002
28.002193 11.422879 3.884003
27.991115 11.893334 4.495055
27.996619 11.659554 4.893496
27.998734 11.569683 6.183552
27.996827 11.650639 6.983485
27.983795 12.204091 7.189285
27.977056 12.490279 7.767696
27.971549 12.724108 8.255383
26.988443 13.460546 2.722639
27.002463 13.329038 3.078889
26.966210 13.669076 3.642528
26.927285 14.034176 4.068155
26.903028 14.261674 7.658882
26.849418 14.764523 8.011306
26.800798 15.220569 8.277452
25.723753 15.864674 2.824405
25.738429 15.788604 3.272212
25.684409 16.068598 3.747340
25.604878 16.480822 4.268491
25.671844 16.133721 4.860025
25.813215 15.400962 6.617347
25.600001 16.506086 7.716226
25.504492 17.001124 8.067126
24.372430 17.817108 2.677993
24.363037 17.850780 3.307904
24.295207 18.093954 3.925345
24.211696 18.393344 4.260387
24.222490 18.354645 4.795583
24.031542 19.039194 8.110116
22.820228 19.757956 2.653384
22.797239 19.819998 3.141651
22.738226 19.979265 3.812298
22.622573 20.291394 4.383288
22.606364 20.335137 4.870445
22.344123 21.042879 8.291488
20.887473 21.859361 2.499301
20.920705 21.789686 3.327900
20.881804 21.871244 3.672226
20.700329 22.251721 4.192398
20.656726 22.343138 4.773256
20.813179 22.015116 6.832822
20.824527 21.991323 7.218510
20.469346 22.735992 7.524667
20.328195 23.031927 7.969994
20.169993 23.363610 8.515215
19.240834 23.268128 2.689409
19.223106 23.299060 3.320758
19.065719 23.573685 3.653899
18.872727 23.910436 4.319305
18.892756 23.875486 4.856640
17.136287 24.822772 2.553615
17.033782 24.969509 3.224559
16.856912 25.222700 3.936920
16.777663 25.336146 4.374614
16.850733 25.231545 4.959762
17.104450 24.868342 6.441319
17.141020 24.815990 6.963762
16.318557 25.993359 8.281545
15.024504 26.151270 2.350852
14.963352 26.224943 3.072756
14.799943 26.421811 3.690241
14.744936 26.488080 4.033175
14.624072 26.633692 4.560862
14.395690 26.908838 4.992603
15.021352 26.155061 6.755408
14.777801 26.448482 7.274896
14.425371 26.873076 7.481694
14.130574 27.228236 7.740498
13.982016 27.407213 8.461179
12.732804 27.394783 2.385983
12.725816 27.401919 3.162011
12.645728 27.483717 3.739899
12.389402 27.745519 4.166738
12.282343 27.854864 4.838868
12.697890 27.430437 6.893883
12.277359 27.859952 7.189203
11.983331 28.160261 7.583621
11.944320 28.200105 7.926174
11.687375 28.462539 8.466357
10.480761 28.292571 2.402845
10.473393 28.298932 3.177362
10.363337 28.393972 3.611054
10.044514 28.669296 4.128806
10.007706 28.701082 4.615079
9.565716 29.082768 5.044584
10.547923 28.234567 6.854550
9.955358 28.746285 7.283591
9.608311 29.045982 7.305613
9.563805 29.084415 8.108876
9.286442 29.323936 8.415324
8.158922 29.033482 2.342310
8.105627 29.072365 3.206944
8.033213 29.125197 3.548150
7.762599 29.322636 4.114514
7.470355 29.535856 4.543140
7.152904 29.767466 4.834543
7.974526 29.168012 6.740295
7.560483 29.470096 7.079009
7.185945 29.743357 7.332707
7.174934 29.751390 8.042917
5.722614 29.611618 2.348717
5.761971 29.587629 3.030710
5.590264 29.692287 3.553866
5.350394 29.838492 4.027780
5.086217 29.999513 4.362489
4.616044 30.286092 4.933204
5.343739 29.842546 6.512967
5.056341 30.017720 6.944380
4.772678 30.190618 7.380563
4.762189 30.197011 7.858490
4.333475 30.458320 8.446754
2.955367 30.025877 2.400707
2.996931 30.005510 3.083710
2.690110 30.155852 3.648613
2.564101 30.217597 4.083551
2.191249 30.400294 4.605634
1.634485 30.673110 4.895841
2.839816 30.082493 6.620856
2.618087 30.191140 7.095726
2.118492 30.435943 7.532664
1.946716 30.520113 7.922849
0.473602 30.169923 2.412821
0.567605 30.133090 3.007246
0.276134 30.247295 3.716976
0.064269 30.330308 4.103351
-0.225159 30.443713 4.442241
-0.901891 30.708874 4.921290
0.144377 30.298918 6.418770
-0.088844 30.390299 6.898809
-0.360237 30.496638 7.474779
-0.539992 30.567070 7.867263
-1.008959 30.750822 8.459329
-1.894416 30.068394 2.205775
-1.827211 30.048284 2.656595
-2.132555 30.139652 3.365050
-2.488079 30.246034 3.791466
-2.622237 30.286178 4.230001
-3.103116 30.430070 4.708556
-2.669909 30.300440 6.824805
-2.860411 30.357443 7.214962
-3.049236 30.413945 7.838021
-3.359162 30.506683 8.280809
-3.883745 30.663653 8.507498
-4.284472 29.793258 2.263357
-4.297016 29.795908 3.037033
-4.578628 29.855428 3.509220
-4.939390 29.931677 3.934038
-5.211037 29.989090 4.413593
-5.065769 29.958385 6.863033
-5.350539 30.018572 7.436937
-5.583403 30.067788 7.921020
-5.987935 30.153288 8.322576
-6.769723 29.348671 2.728616
-6.888585 29.363750 3.304218
-7.147204 29.396558 3.542500
-7.447081 29.434600 4.253287
-7.387250 29.427008 6.418109
-7.593055 29.453116 7.034828
-7.878960 29.489386 7.608812
-8.112618 29.519028 8.092748
-8.476804 29.565228 8.400168
-9.316434 28.614780 2.420060
-9.411128 28.618168 3.139235
-9.751632 28.630352 3.702653
-10.031106 28.640351 4.178281
-10.433547 28.654750 5.717250
-10.247168 28.648080 6.431573
-10.269779 28.648889 6.909577
-10.469403 28.656031 7.527566
-10.614436 28.661221 7.822673
-11.116507 28.679185 8.410149
-11.780364 27.739145 2.060333
-11.852038 27.735764 2.926274
-11.968994 27.730247 3.502436
-12.282609 27.715456 3.833974
-12.456353 27.707259 6.618674
-12.796661 27.691208 7.284473
-12.945812 27.684173 7.811712
-13.224340 27.671036 8.159746
-14.089194 26.710607 2.526579
-13.985473 26.723685 3.117524
-14.129722 26.705496 3.549936
-14.686904 26.635240 4.108291
-15.088990 26.584539 5.654166
-14.632287 26.642125 6.278480
-14.798562 26.621158 7.035445
-14.992487 26.596706 7.423665
-15.273021 26.561333 8.001394
-15.592002 26.521112 8.446015
-16.325856 25.397999 2.687625
-16.580970 25.343121 3.304964
-16.721081 25.312981 3.739937
-16.909133 25.272529 4.267986
-16.895462 25.275468 6.527198
-17.142410 25.222347 7.238611
-17.331690 25.181630 7.627758
-17.605617 25.122706 7.975330
-18.052112 25.026660 8.473935
-18.368528 23.971250 1.969728
-18.249577 24.007237 2.709827
-18.418224 23.956213 3.379344
-18.772674 23.848976 3.804805
-18.803343 23.839697 4.057330
-19.160015 23.731787 5.745636
-18.943821 23.797194 6.601387
-19.050280 23.764985 7.035808
-19.370782 23.668019 7.706383
-19.639203 23.586810 8.056309
-19.991647 23.480180 8.367285
-20.373235 22.236164 2.719080
-20.587703 22.149172 3.480556
-20.829389 22.051141 3.722649
-21.089280 21.945726 4.202847
-21.089707 21.945550 6.704639
-21.317604 21.853111 7.186368
-21.414640 21.813752 7.621178
-21.799690 21.657570 8.252431
-22.264003 21.469238 8.617563
-22.230966 20.436027 2.329931
-22.343315 20.379288 2.910614
-22.502841 20.298725 3.203674
-22.778521 20.159501 3.918979
-23.074143 20.010207 4.495145
-22.772843 20.162366 6.814305
-22.991918 20.051729 7.296852
-23.246794 19.923012 7.875940
-23.575507 19.757006 8.416434
-23.817504 18.540274 1.895527
-23.761517 18.574658 2.727623
