2.311087 -0.014319 2.157887
2.308251 -0.014373 2.379115
2.251437 -0.015284 2.709877
2.181698 -0.016410 3.304919
2.253111 -0.015293 3.621284
2.303109 -0.014516 3.990319
2.194378 -0.016255 4.481882
2.234444 -0.015627 4.641750
2.230847 -0.015705 5.170012
2.389916 -0.013195 5.309981
2.255489 -0.015334 5.649704
2.153018 -0.016987 6.502393
2.300377 -0.014676 6.996189
2.466250 -0.012047 6.818860
2.388582 -0.013284 7.047678
2.372825 -0.013547 7.417694
2.345798 -0.013991 7.841507
2.261420 -0.015336 8.126471
2.231255 -0.015832 8.604507
2.238109 -0.015738 8.970902
2.277150 -0.015130 9.225658
2.274712 -0.015169 9.235554
2.155306 -0.017077 9.742367
2.012587 -0.019360 10.418312
2.090801 -0.018108 10.036948
1.780832 -0.023030 10.563289
1.520756 -0.027154 10.873646
2.373312 0.184468 1.401525
2.156579 0.162935 2.010757
2.183606 0.165602 2.390473
2.266646 0.173841 2.446844
2.047745 0.152090 3.110704
2.116398 0.158891 3.429663
2.123955 0.159633 3.648944
2.314377 0.178520 3.950576
2.113862 0.158602 4.402725
2.242998 0.171400 4.862765
2.314369 0.178459 5.481978
2.446097 0.191535 5.419781
2.189433 0.166036 6.089973
2.157334 0.162835 6.472998
2.435112 0.190388 6.888072
2.395300 0.186432 7.006139
2.397016 0.186590 7.320029
2.238797 0.170853 8.182457
2.284159 0.175362 8.025787
2.164232 0.163428 8.833666
2.174672 0.164450 9.198688
2.203147 0.167264 9.506995
2.253639 0.172283 9.294953
2.124070 0.159402 9.856128
2.110104 0.158013 9.920195
1.907564 0.137893 10.409427
1.744588 0.121705 10.735813
1.993150 0.507224 1.161222
2.090690 0.534603 1.807394
2.141864 0.548977 1.919864
2.084675 0.532887 2.464789
2.084532 0.532838 2.686035
1.947218 0.494245 2.973525
2.099292 0.536959 3.336023
1.973888 0.501694 4.095331
2.576321 0.670924 4.913241
2.467324 0.640278 5.450339
2.449828 0.635349 5.769287
2.385745 0.617337 5.942873
2.188410 0.561870 6.501640
2.170592 0.556874 6.257229
1.888847 0.477691 6.788796
1.958727 0.497321 6.886481
2.057430 0.525027 7.544050
2.146379 0.550017 7.583698
2.139093 0.547955 7.952886
2.074577 0.529819 8.182930
2.090194 0.534194 8.495551
2.054585 0.524168 9.028294
2.119159 0.542305 9.172130
2.040119 0.520084 9.513150
1.953803 0.495816 9.910874
1.862738 0.470211 10.365787
1.766595 0.443199 10.355280
2.017614 0.696640 2.064164
2.068626 0.715621 2.175532
1.986840 0.685166 2.563040
1.834348 0.628390 3.117651
1.717505 0.584884 3.616826
1.850874 0.634503 4.029350
2.541779 0.891594 5.096604
2.541482 0.891473 5.360015
2.543742 0.892303 5.622575
2.353996 0.821675 5.866899
2.128512 0.737741 6.224705
2.088024 0.722667 6.343889
1.674651 0.568794 7.011966
1.743842 0.594541 7.108076
2.047827 0.707663 7.406295
2.048887 0.708029 8.090624
1.951360 0.671701 8.846582
2.004052 0.691320 8.633556
2.024413 0.698885 8.944773
1.962395 0.675775 9.642533
1.880266 0.645192 10.040707
1.797949 0.614559 9.973022
1.649809 0.559414 10.241986
1.422438 0.474785 10.438330
1.084729 0.349087 10.735692
1.775159 0.779849 0.962945
2.056734 0.912446 1.225279
2.071318 0.919298 1.608101
1.826999 0.804204 2.329911
1.902723 0.839864 2.385821
1.784125 0.783980 3.097380
1.788790 0.786168 3.318162
1.830470 0.805781 3.691765
1.885339 0.831617 3.799320
2.342355 1.046779 5.409067
2.462328 1.103283 5.347956
2.321842 1.037104 5.738202
2.223914 0.990973 6.021286
2.039990 0.904330 6.580907
2.004546 0.887646 6.392007
1.759170 0.772066 6.869474
1.550619 0.673846 6.928856
1.583741 0.689436 7.139138
1.871005 0.824694 7.801364
1.810148 0.796008 8.395838
1.894807 0.835877 8.432657
1.925241 0.850199 8.690938
1.832217 0.806372 9.090078
1.892950 0.834968 9.235445
1.763086 0.773782 9.855830
1.761534 0.773051 9.863683
1.617700 0.705300 10.130871
1.397650 0.601659 10.325060
1.442007 0.773054 0.686336
1.673132 0.906325 1.438964
1.920244 1.048836 1.751661
1.787347 0.972173 2.039232
1.860963 1.014620 2.308697
1.620621 0.875965 3.088225
1.717623 0.931912 3.086267
2.094613 1.149269 4.788864
2.311970 1.274613 5.226019
2.274929 1.253232 5.599566
2.290528 1.262232 5.554129
2.088135 1.145471 6.163604
2.067773 1.133725 6.227477
1.731350 0.939679 6.420611
1.366749 0.729363 7.040155
1.286092 0.682830 7.333287
1.501625 0.807132 7.544297
1.758309 0.955160 7.948474
1.773942 0.964146 8.623930
1.721127 0.933674 8.855881
1.778380 0.966689 9.001169
1.716835 0.931179 9.288824
1.731532 0.939639 9.655327
1.729736 0.938603 9.664473
1.481657 0.795480 10.550356
1.388697 0.902691 0.651055
1.663331 1.093422 1.074844
1.741802 1.147894 1.730095
1.570381 1.028802 2.342506
1.574938 1.031947 2.776728
1.645030 1.080628 2.829756
2.156854 1.436016 5.082536
2.096788 1.394300 4.998090
2.059531 1.368405 5.372161
2.079422 1.382211 5.581568
1.855255 1.226478 6.303779
1.820143 1.202085 6.422881
1.520376 0.993856 6.867473
1.440061 0.938074 6.844592
1.437653 0.936401 6.853388
1.266462 0.817483 7.170404
1.334229 0.864532 7.578630
1.657113 1.088775 8.010696
1.633527 1.072333 9.284902
1.668484 1.096601 9.539546
1.586809 1.039873 9.525714
1.356835 0.880102 10.356767
1.355410 0.879111 10.365598
1.114437 0.711717 10.849457
0.823798 0.509864 10.557415
1.481203 1.158919 0.862941
1.638609 1.289039 1.732263
1.610915 1.266124 2.012090
1.541458 1.208668 2.402835
1.350554 1.050768 3.130338
2.005648 1.592393 4.896114
2.002253 1.589585 4.906538
1.603736 1.259989 5.936319
1.809277 1.429964 5.796445
1.560808 1.224468 6.381427
1.454874 1.136865 6.470602
1.349150 1.049434 6.560884
0.963188 0.730209 7.809102
1.120908 0.860613 8.186229
1.345546 1.046349 8.639800
1.340795 1.042399 9.067894
1.457232 1.138672 9.292734
1.540866 1.207832 9.269216
1.317202 1.022836 10.106674
1.205036 0.930073 10.322179
1.110955 0.852269 10.425867
0.789950 0.586820 10.475297
1.403337 1.297226 1.845153
1.441643 1.334568 1.957802
1.233227 1.131322 2.749292
1.339103 1.234542 2.902073
1.303960 1.200260 3.234607
1.861703 1.743988 4.415259
1.823132 1.706362 4.790591
1.456150 1.348489 6.084578
1.435333 1.328172 6.461342
1.393977 1.287857 6.324807
1.212802 1.111191 6.750075
1.102516 1.003672 6.581328
0.966440 0.870969 7.159996
0.840992 0.748665 7.050866
0.643734 0.556310 7.609298
1.030304 0.933195 7.901179
1.261228 1.158304 8.609884
1.307727 1.203633 8.756318
1.238360 1.135956 9.576403
1.107069 1.007901 10.450971
0.893723 0.799894 10.411854
0.945100 1.032123 0.698410
1.062309 1.169802 1.404522
1.247354 1.387201 1.931220
1.282422 1.428399 2.043252
1.224740 1.360599 2.434375
1.170867 1.297274 2.825456
1.086351 1.197937 3.329319
1.108148 1.223539 3.494151
1.635370 1.842963 4.614357
1.572122 1.768632 4.842860
1.302126 1.451339 5.608715
1.125693 1.243983 6.347500
1.149357 1.271795 6.244501
1.070536 1.179158 6.592811
0.660897 0.697790 7.242976
0.568802 0.589548 7.717781
0.890525 0.967526 8.549138
1.120751 1.238031 8.772116
1.073192 1.182131 9.062893
1.125840 1.243988 9.151551
1.016850 1.115849 10.386227
0.931002 1.014967 10.546572
0.738860 0.789202 10.499812
0.863439 1.098153 0.702863
1.191908 1.548659 1.553577
1.100541 1.423298 2.057975
0.998440 1.283208 2.619934
1.064794 1.374227 2.617953
1.054601 1.360213 3.109446
0.965764 1.238317 3.669696
1.477266 1.939882 4.673751
1.393441 1.824876 5.011160
1.242379 1.617656 5.109452
1.200890 1.560734 5.284720
0.995456 1.278935 5.351472
0.922834 1.179278 5.961605
0.981540 1.259765 6.579996
0.924106 1.180983 6.556043
0.766477 0.964731 7.046685
0.599230 0.735301 7.283728
0.506311 0.607855 7.116920
0.504878 0.605843 7.824341
0.748833 0.940452 8.199425
0.863928 1.098300 8.628916
1.042332 1.343016 8.656743
1.014747 1.305139 9.253350
1.047413 1.349934 9.453809
1.023507 1.317130 9.631250
0.918553 1.173107 10.488678
0.885881 1.128307 10.250568
0.775555 1.199724 0.850650
0.932698 1.462854 1.329360
0.957615 1.504557 1.659544
0.939103 1.473535 1.941233
0.907361 1.420350 2.278763
0.923771 1.447804 2.660377
0.901540 1.410533 3.208478
0.798331 1.237674 3.402690
1.177355 1.872307 4.953501
1.163477 1.849080 4.759093
0.904472 1.415250 5.757175
0.891727 1.393900 5.823715
0.775311 1.198891 6.457400
0.685208 1.047979 6.663982
0.536226 0.798436 7.240712
0.478579 0.701838 7.976259
0.691661 1.058658 8.350322
0.789227 1.222046 8.412756
0.804827 1.248120 9.097968
0.860461 1.341293 9.075265
0.822112 1.277012 9.844386
0.767234 1.185067 10.366222
0.726952 1.117616 10.247529
0.552351 0.825199 10.427813
0.437915 0.779291 7.463949
0.576302 1.062194 8.561332
0.686650 1.287869 8.395209
0.681682 1.277633 9.251620
0.753505 1.424532 9.002596
0.741838 1.400626 9.545611
0.735135 1.386913 9.613045
0.661228 1.235703 10.419189
0.626934 1.165582 10.296860
0.477179 0.859320 10.481404
0.604164 1.413290 0.861602
0.595486 1.390883 1.742514
0.647503 1.524637 1.685215
0.634761 1.491844 1.966708
0.634680 1.491590 2.405962
0.564927 1.312170 3.026214
0.580635 1.352520 3.404688
0.750617 1.789488 4.313574
0.805879 1.931509 4.979296
0.762751 1.820614 5.005842
0.647278 1.523647 5.538848
0.604336 1.413229 5.568796
0.542075 1.253090 6.032923
0.567602 1.318715 6.132798
0.544545 1.259411 6.312860
0.452669 1.023128 6.748500
0.348670 0.755695 6.985807
0.267213 0.546209 7.374997
0.364071 0.795237 7.528645
0.512597 1.177094 7.908965
0.546663 1.264642 8.314919
0.526847 1.213625 8.920309
0.541009 1.250011 9.181659
0.565697 1.313474 9.327859
0.554306 1.284122 9.928336
0.597848 1.396087 9.844607
0.483950 1.103169 10.384490
0.375654 1.092032 0.521882
0.411722 1.214037 0.908584
0.507696 1.538768 1.330521
0.496083 1.499400 1.831131
0.461807 1.383342 2.284442
0.478888 1.441103 2.611420
0.487112 1.468911 2.779286
0.427481 1.267018 3.458360
0.488844 1.474644 3.706862
0.547115 1.671736 4.482515
0.604161 1.864747 4.777316
0.589838 1.816257 4.899204
0.543880 1.660673 5.301867
0.497645 1.504190 5.445125
0.448208 1.336825 5.909763
0.450551 1.344716 6.181943
0.383456 1.117606 6.560169
0.376977 1.095670 6.628213
0.274304 0.748147 7.098470
0.220887 0.567339 7.372474
0.301506 0.840150 7.468260
0.398858 1.169520 8.078832
0.401026 1.176752 8.827794
0.447275 1.333243 8.999901
0.427157 1.265122 9.294520
0.435640 1.293784 9.611712
0.448633 1.337720 9.870469
0.431295 1.279005 10.164980
0.406270 1.194326 10.097280
0.300700 1.201717 0.374490
0.286253 1.131924 0.499418
0.322112 1.304963 1.210779
0.355472 1.465962 1.751158
0.312645 1.259060 2.160051
0.300753 1.201566 2.501206
0.319198 1.290591 2.770768
0.343774 1.409234 2.980204
0.308161 1.237224 3.117260
0.436782 1.858082 4.641573
0.440573 1.876349 4.856221
0.425927 1.805585 5.032486
0.411527 1.736010 5.209243
0.356463 1.470005 5.633265
0.305566 1.224076 6.326178
0.313064 1.260306 6.220401
0.246061 0.936657 6.567224
0.191831 0.674668 7.069322
0.203298 0.730013 7.224737
0.237919 0.897187 7.350333
0.281619 1.108169 7.676393
0.320113 1.293915 8.481268
0.315519 1.271635 8.972119
0.340520 1.392386 8.890907
0.332146 1.351833 9.492519
0.323968 1.312304 9.672357
0.311142 1.250308 9.966878
0.305984 1.225370 10.090119
0.276459 1.082745 10.309091
0.194748 0.688030 10.844305
0.185295 1.188798 0.436800
0.165587 1.014016 0.956590
0.183619 1.173579 1.502104
0.212765 1.431746 1.652535
0.185966 1.194085 2.336902
0.199150 1.310805 2.550317
0.197153 1.292942 3.047518
0.197764 1.298279 3.271578
0.270457 1.941955 4.267376
0.255974 1.813355 5.091350
0.251051 1.769614 5.474556
0.228107 1.566247 5.730670
0.219573 1.490673 5.648782
0.198169 1.300861 6.171477
0.173802 1.084871 6.493275
0.143469 0.816075 6.671867
0.134631 0.737695 6.915406
0.126043 0.661522 7.159654
0.145638 0.834837 7.983533
0.190558 1.232657 8.414563
0.202810 1.341213 8.393375
0.217441 1.470737 8.682359
0.210655 1.410529 8.919812
0.203244 1.344625 9.635342
0.194959 1.271272 9.507615
0.185585 1.187917 10.396601
0.184177 1.175413 10.462559
0.163186 0.989474 10.376050
0.107091 0.492322 10.897901
0.086738 0.980478 0.621408
0.088998 1.041421 1.344587
0.101713 1.388394 1.543593
0.097120 1.262494 2.000827
0.099216 1.319382 2.331029
0.098164 1.290338 2.615096
0.097221 1.264289 2.898594
0.098733 1.305172 3.280960
0.118867 1.853369 4.764582
0.121240 1.918048 4.869528
0.117769 1.823034 5.102517
0.113828 1.714830 5.653748
0.111061 1.639371 5.571038
0.097903 1.279653 5.965494
0.089148 1.040196 6.344194
0.084122 0.902869 6.437221
0.077696 0.727191 6.648156
0.074319 0.634310 7.273445
0.090459 1.074739 7.543721
0.097851 1.275762 8.295292
0.099061 1.308522 8.559412
0.102512 1.402714 8.594192
0.099780 1.327356 9.312374
0.103752 1.435842 9.287621
0.100818 1.355362 9.638909
0.093612 1.158124 10.085836
0.093120 1.144044 10.689385
0.086622 0.966777 10.547459
0.070246 0.519370 10.778672
-0.005999 1.030499 0.336111
-0.007234 1.053433 1.117913
-0.022931 1.338131 1.432078
-0.012657 1.152341 2.003971
-0.007745 1.063598 2.404238
-0.015807 1.209815 2.559698
-0.011857 1.138669 3.172895
-0.012219 1.145376 3.397096
-0.037806 1.609405 3.825307
-0.046696 1.771140 4.709679
-0.050279 1.836142 4.813593
-0.042739 1.699916 5.422122
-0.019632 1.281757 6.268016
-0.011287 1.130396 6.096390
0.003765 0.857728 6.271641
0.013607 0.679731 6.806758
0.011617 0.715963 7.022478
-0.001457 0.953316 7.614637
-0.020589 1.300206 7.851742
-0.020615 1.301219 8.600964
-0.021001 1.308481 8.978374
-0.023921 1.361534 9.182997
-0.029906 1.469995 9.159003
-0.023239 1.349535 9.681278
-0.011747 1.141611 10.186288
-0.004360 1.007855 10.349837
-0.001272 0.952104 10.649090
0.012493 0.702826 10.915598
-0.096694 1.053019 0.288951
-0.067349 0.844355 0.870142
-0.111022 1.155215 1.130027
-0.117112 1.198767 1.902274
-0.104451 1.108782 2.303095
-0.120162 1.220582 2.300812
-0.101764 1.089866 3.031294
-0.107760 1.132635 3.413957
-0.129460 1.287232 4.046413
-0.199471 1.785468 4.143779
-0.188058 1.704378 4.587109
-0.184328 1.678003 5.180191
-0.174480 1.607975 5.359860
-0.100948 1.084864 5.913934
-0.056438 0.768293 6.529976
-0.061445 0.803892 6.422898
-0.058112 0.780284 6.813711
-0.077220 0.916416 7.378439
-0.111319 1.159234 7.962835
-0.133673 1.318465 8.510286
-0.153154 1.457055 8.374556
-0.153701 1.461050 8.750495
-0.133893 1.320256 9.329785
-0.126295 1.266254 9.567997
-0.101983 1.093343 9.900948
-0.108752 1.141581 10.160887
-0.097677 1.062887 10.573739
-0.099684 0.693654 0.514812
-0.152611 0.935769 0.893418
-0.205533 1.177902 1.487295
-0.210332 1.199921 1.875593
-0.203375 1.168155 2.159260
-0.180423 1.063312 2.831694
-0.192983 1.120775 2.940832
-0.207781 1.188510 3.264182
-0.245927 1.363066 3.838461
-0.295954 1.591981 4.556253
-0.319963 1.701778 4.547096
-0.294136 1.583717 4.837447
-0.189737 1.106507 6.118434
-0.140106 0.879541 6.176489
-0.118199 0.779410 6.476191
-0.080761 0.608236 6.687537
-0.093070 0.664614 7.167205
-0.161536 0.977850 7.842580
-0.219121 1.241227 7.991062
-0.236205 1.319443 8.453152
-0.225210 1.269267 9.058152
-0.236741 1.322041 9.261498
-0.243072 1.351049 9.577835
-0.229319 1.288211 9.871902
-0.213309 1.214970 9.744847
-0.169117 1.012960 10.251358
-0.150246 0.926744 10.723150
-0.191703 0.774711 0.545243
-0.322877 1.189676 1.631291
-0.303093 1.127157 1.974991
-0.250376 0.960519 2.549414
-0.261404 0.995442 2.935677
-0.282037 1.060734 3.261775
-0.272570 1.030807 3.330047
-0.326667 1.201955 3.907030
-0.390596 1.404227 4.684509
-0.317937 1.174528 5.287245
-0.239264 0.925820 5.989937
-0.250635 0.961768 5.884739
-0.177881 0.731738 6.269194
-0.169901 0.706553 6.662312
-0.169190 0.704347 6.995983
-0.240581 0.930191 7.589282
-0.340173 1.245181 7.884819
-0.382561 1.379261 8.121283
-0.378238 1.365645 8.553918
-0.393385 1.413570 8.757600
-0.338747 1.240879 9.506944
-0.342138 1.251599 9.457544
-0.270997 1.026700 10.076486
-0.286286 1.075082 10.334520
-0.269485 1.021990 10.630788
-0.178670 0.568463 0.498272
-0.284910 0.827049 0.819475
-0.344977 0.973290 1.368284
-0.318457 0.908853 2.382411
-0.339763 0.960715 2.495181
-0.342926 0.968460 2.939515
-0.348801 0.982802 3.381247
-0.322910 0.919833 3.777982
-0.378544 1.055271 4.194784
-0.311402 0.891994 5.439925
-0.313022 0.895967 5.715495
-0.479357 1.301117 9.080051
-0.428140 1.176529 9.660418
-0.446976 1.222347 9.440114
-0.357076 1.003624 10.059801
-0.323659 0.922290 9.990734
-0.305262 0.877542 10.231417
-0.239045 0.579006 0.239075
-0.401690 0.897229 2.117518
-0.374808 0.844691 2.461913
-0.400635 0.895206 2.573836
-0.356223 0.808412 3.249460
-0.448948 0.989746 3.285199
-0.393738 0.881823 3.798799
-0.482711 1.055841 4.101710
-0.551165 1.189744 4.515605
-0.485153 1.060682 4.869726
-0.421318 0.935880 5.225767
-0.382941 0.860873 5.734293
-0.300230 0.699144 5.943354
-0.279813 0.659229 6.070491
-0.231283 0.564377 6.698775
-0.257405 0.615503 7.180020
-0.390286 0.875396 7.597205
-0.519907 1.128887 7.692349
-0.518254 1.125720 8.444571
-0.561027 1.209368 8.480376
-0.583392 1.253122 8.687039
-0.544148 1.176444 9.463355
-0.555097 1.197846 9.359032
-0.451877 0.996040 9.921667
-0.451019 0.994363 9.930676
-0.389360 0.873799 10.093022
-0.298222 0.695615 10.606900
-0.317281 0.607405 0.337910
-0.366628 0.686933 0.787066
-0.385325 0.717109 1.569733
-0.553773 0.988485 1.822755
-0.520376 0.934710 2.167373
-0.489305 0.884682 2.511671
-0.479445 0.868836 3.014074
-0.482013 0.872989 3.240903
-0.452354 0.825256 3.855177
-0.533289 0.955647 4.003804
-0.525127 0.942539 4.554088
-0.558888 0.996952 4.928372
-0.450380 0.822195 5.459406
-0.509485 0.917407 5.445619
-0.357188 0.672105 5.942670
-0.355522 0.669422 5.951565
-0.258279 0.512810 6.487827
-0.286823 0.558828 6.969559
-0.448628 0.819509 7.330391
-0.594955 1.055265 7.799684
-0.677573 1.188370 7.978263
-0.613574 1.085334 8.813686
-0.575088 1.023357 9.109442
-0.588688 1.045258 9.003288
-0.609777 1.079250 9.264911
-0.587658 1.043632 9.445804
-0.501373 0.904654 9.720924
-0.420383 0.774242 10.483200
-0.356338 0.671078 10.590478
-0.204624 0.354786 0.218417
-0.286502 0.463073 0.385305
-0.390005 0.600006 1.326955
-0.545417 0.805561 1.916275
-0.491030 0.733665 2.319185
-0.457065 0.688772 2.663790
-0.425739 0.647368 3.007988
-0.467918 0.703167 3.334652
-0.496856 0.741460 3.717073
-0.604608 0.883957 3.807641
-0.521130 0.773619 4.647727
-0.603366 0.882398 5.115894
-0.628360 0.915444 5.010475
-0.466738 0.701760 5.715415
-0.446752 0.675317 5.516130
-0.317722 0.504726 6.111311
-0.312383 0.497688 6.447417
-0.344121 0.539668 6.606398
-0.526077 0.780311 6.972992
-0.716033 1.031553 7.648914
-0.664240 0.963104 8.317477
-0.788423 1.127325 8.322494
-0.817338 1.165575 8.529228
-0.695390 1.004336 8.914272
-0.635624 0.925328 9.326555
-0.587312 0.861463 9.682557
-0.593937 0.870251 10.117307
-0.592731 0.868658 10.127232
-0.466248 0.701398 10.155983
-0.217559 0.319358 0.260027
-0.221161 0.323408 0.663829
-0.461638 0.592267 1.474767
-0.713606 0.873945 1.831977
-0.631375 0.782039 2.073661
-0.613654 0.762259 2.578360
-0.614579 0.763306 2.806262
-0.580797 0.725564 3.149433
-0.628124 0.778486 3.475195
-0.661019 0.815279 3.856350
-0.631348 0.782163 4.735068
-0.690884 0.848733 5.051001
-0.643082 0.795309 5.235026
-0.581582 0.726577 5.477532
-0.402781 0.526735 5.920632
-0.372654 0.493065 6.048921
-0.482463 0.615820 6.184150
-0.336955 0.453206 6.839485
-0.552053 0.693666 7.146233
-0.821611 0.995008 7.533043
-0.773068 0.940781 8.143368
-0.838064 1.013458 8.548691
-0.823615 0.997336 9.040270
-0.729645 0.892303 9.198394
-0.719112 0.880532 9.265379
-0.697198 0.856072 9.872579
-0.655407 0.809346 9.687973
-0.574523 0.718965 10.276523
-0.485589 0.619563 10.441852
-0.185128 0.248570 0.398984
-0.817789 0.857263 1.507939
-0.726590 0.769553 1.968462
-0.661639 0.707090 2.371548
-0.641880 0.688096 2.656229
-0.573482 0.622333 3.331015
-0.598350 0.646265 3.497574
-0.580616 0.629235 4.052113
-0.657412 0.703128 4.313347
-0.802531 0.842751 4.610608
-0.717432 0.760915 5.175434
-0.698809 0.743003 5.242252
-0.466528 0.519560 5.529714
-0.417745 0.472639 5.714653
-0.361197 0.418284 6.553075
-0.331241 0.389473 6.680045
-0.576298 0.625236 6.928963
-0.766181 0.807953 7.778733
-0.926824 0.962492 7.729148
-0.877692 0.915259 8.337345
-0.939628 0.974867 8.797364
-0.847349 0.886099 8.896343
-0.785600 0.826714 9.250090
-0.825536 0.865144 9.454105
-0.655315 0.701421 10.076722
-0.605008 0.653044 10.433942
-0.540903 0.591371 10.366231
-0.429945 0.484642 10.649538
-0.213975 0.235810 0.383448
-0.332709 0.330627 0.940434
-0.600248 0.544233 1.361505
-0.710510 0.632300 2.181335
-0.821726 0.721085 2.120732
-0.666073 0.596853 2.753719
-0.668583 0.598869 2.980926
-0.569404 0.519716 3.498568
-0.739797 0.655759 3.746770
-0.743100 0.658421 4.241412
-0.846003 0.740582 4.444439
-0.715243 0.636225 5.127477
-0.729786 0.647833 5.079726
-0.549284 0.503748 5.403184
-0.364037 0.355892 6.058967
-0.524808 0.484242 6.076430
-0.471666 0.441842 6.587386
-0.558295 0.511016 6.893506
-0.714753 0.635958 7.603091
-0.947579 0.821850 8.012549
-0.995502 0.860117 8.164109
-1.031966 0.889238 8.371972
-0.925297 0.804106 8.897015
-0.837189 0.733790 9.367058
-0.922182 0.801642 9.340640
-0.823816 0.723118 9.441799
-0.734180 0.651584 9.970376
-0.636120 0.573332 10.617439
-0.029893 0.081167 0.412477
-0.883969 0.653536 1.670700
-0.805591 0.601035 2.073661
-0.779481 0.583552 2.360688
-0.634683 0.486541 2.720239
-0.667192 0.508343 3.107446
-0.597055 0.461376 3.783412
-0.641818 0.491389 4.164928
-0.671168 0.511077 4.601898
-0.706984 0.535097 5.033572
-0.819369 0.610402 4.962869
-0.704465 0.533422 5.319264
-0.497782 0.394944 5.701820
-0.435908 0.353506 6.213720
-0.574058 0.446086 6.345654
-0.427608 0.347960 6.557212
-0.939232 0.690845 7.600220
-0.960427 0.705077 8.238461
-1.078115 0.783933 8.101822
-0.948259 0.696945 8.683393
-1.014750 0.741504 8.774061
-0.978218 0.717053 9.379645
-0.891993 0.659296 9.848267
-0.750031 0.564184 10.183608
-0.787590 0.589341 9.960425
-0.575455 0.447228 10.764824
-0.116304 0.122703 0.247127
-0.121730 0.125735 0.651728
-0.569281 0.374400 1.392332
-0.847496 0.528981 1.864942
-0.768100 0.484891 2.267450
-0.718394 0.457293 2.611718
-0.545718 0.361383 3.030339
-0.550827 0.364231 3.257664
-0.525062 0.349943 3.817658
-0.740174 0.469454 4.004636
-0.854062 0.532733 4.208865
-0.824417 0.516291 4.815790
-0.842078 0.526111 5.036079
-0.721653 0.459227 5.393990
-0.468071 0.318374 5.895918
-0.493488 0.332504 6.115212
-0.501249 0.336842 6.717354
-0.531956 0.353897 6.609835
-0.586268 0.384105 7.412654
-1.002417 0.615299 7.565863
-1.009958 0.619519 8.262697
-1.078407 0.657549 8.355916
-1.133819 0.688339 8.505821
-1.054182 0.644114 8.858927
-1.099830 0.669482 9.064412
-0.970595 0.597716 9.705419
-0.809163 0.508051 10.098908
-0.797314 0.501471 10.166618
-0.689902 0.441805 10.273355
-0.657721 0.351212 0.230996
-0.257133 0.171219 0.400840
-0.745870 0.390857 1.089019
-0.975695 0.494152 1.681510
-0.863245 0.443643 2.142402
-0.783658 0.407899 2.545617
-0.702378 0.371385 2.731171
-0.509751 0.284859 3.427994
-0.554618 0.305036 3.813075
-0.733260 0.385320 4.117594
-0.743156 0.389788 4.612811
-0.886815 0.454346 4.756765
-0.862934 0.443629 5.093980
-0.717762 0.378416 5.511578
-0.473653 0.268747 5.957049
-0.463589 0.264239 6.295099
-0.669762 0.356879 6.252087
-0.489693 0.275992 6.847756
-0.664442 0.354530 7.240021
-0.870453 0.447127 7.886453
-1.072592 0.537970 8.207500
-1.101711 0.551065 8.472573
-1.067839 0.535869 9.023254
-1.206181 0.598023 8.827696
-1.139621 0.568127 9.123002
-1.040597 0.523652 9.591487
-0.828040 0.428168 10.215781
-0.868861 0.446501 9.993448
-0.694363 0.368112 10.448687
-0.394124 0.233208 10.580217
-0.270164 0.149071 0.609245
-0.638644 0.278965 1.362605
-0.910691 0.374864 1.892751
-0.880134 0.364106 2.178617
-0.852400 0.354344 2.463953
-0.768646 0.324834 2.647413
-0.618273 0.271862 3.224480
-0.773290 0.326510 3.590277
-0.798685 0.335478 4.028484
-0.830610 0.346747 4.463813
-0.912677 0.375683 4.780278
-1.040939 0.420894 4.978972
-0.869125 0.360361 5.450344
-0.596788 0.264403 5.949936
-0.497579 0.229451 6.252790
-0.583899 0.259874 6.294230
-0.543548 0.245659 6.420795
-0.433895 0.207042 7.108240
-0.848416 0.353142 7.380706
-1.019156 0.413350 8.194924
-1.198734 0.476640 8.256835
-1.159554 0.462855 8.806745
-1.130344 0.452566 8.930410
-1.180275 0.470171 9.135082
-1.078185 0.434211 9.603167
-0.925405 0.380379 9.879486
-0.775355 0.327508 10.158711
-0.628076 0.275614 10.440814
-0.390709 0.191971 10.708513
-1.308605 0.393100 7.627449
-1.125654 0.345546 8.289634
-1.273918 0.384129 8.890173
-1.581019 0.463996 8.858953
-0.510557 0.185671 10.668731
-0.760143 0.183341 0.369659
-0.517550 0.141280 0.399791
-0.642747 0.163003 0.790460
-0.912940 0.209880 1.550335
-0.877536 0.203762 2.058554
-0.790508 0.188688 2.462623
-0.929867 0.212848 2.400974
-0.839835 0.197273 3.294880
-1.373028 0.289731 3.554287
-1.603166 0.329651 4.010772
-1.248729 0.268210 4.338502
-1.012668 0.227294 4.654445
-1.031433 0.230556 4.874401
-1.218551 0.263024 5.489010
-1.047903 0.233454 5.958323
-0.715251 0.175768 5.715592
-0.489524 0.136656 6.370576
-0.618922 0.159089 6.294460
-0.482977 0.135548 7.040512
-0.580166 0.152413 7.402525
-0.955040 0.217415 7.526378
-1.089079 0.240680 8.138424
-1.371456 0.289643 8.227622
-1.234354 0.265892 8.751009
-1.147960 0.250927 9.104502
-1.175243 0.255670 9.423822
-1.038330 0.231956 10.066340
-0.987315 0.223102 9.824125
-0.829941 0.195826 10.103245
-0.592359 0.154663 10.854196
-0.279706 0.100457 10.931938
-0.985704 0.137974 1.438765
-0.918270 0.132048 2.005268
-0.972556 0.136841 2.119327
-0.857154 0.126679 2.580815
-1.651209 0.196776 3.951684
-1.614588 0.193558 4.284879
-1.518458 0.185078 4.256133
-1.157080 0.153225 4.867705
-1.094140 0.147701 5.584235
-0.984503 0.138041 5.884061
-0.835174 0.124862 5.710868
-0.747557 0.117143 5.955215
-0.543831 0.099196 6.552615
-0.521553 0.097246 6.947760
-0.518018 0.096935 6.959033
-0.764929 0.118750 7.875616
-1.241050 0.160755 8.022846
-1.270573 0.163369 8.289702
-1.302762 0.166219 8.555391
-1.280939 0.164313 9.048540
-1.223705 0.159274 9.288655
-1.168661 0.154428 9.529286
-0.969863 0.136910 9.980781
-0.779386 0.120125 10.434334
-0.690977 0.112324 10.365362
-0.300636 0.077911 10.850977
-0.652220 0.053107 0.806485
-1.079948 0.054635 1.276944
-0.979399 0.054304 1.900440
-0.888674 0.054000 2.303977
-0.973094 0.054300 2.358878
-1.810533 0.057306 3.623180
-1.713289 0.056990 4.333055
-1.589203 0.056564 4.625603
-1.302943 0.055570 5.063894
-1.346896 0.055731 5.225299
-1.262274 0.055452 5.728918
-1.028866 0.054630 5.784207
-0.847969 0.053999 5.991608
-0.668662 0.053374 6.201499
-0.470234 0.052697 6.798910
-0.448420 0.052622 6.867402
-0.736122 0.053655 7.289310
-1.123369 0.055054 8.104674
-1.281963 0.055621 8.281875
-1.329797 0.055798 8.488633
-1.195883 0.055345 9.013383
-1.209182 0.055407 9.390183
-1.093308 0.055018 9.917163
-1.005655 0.054706 9.848074
-0.778779 0.053929 10.476943
-0.667914 0.053540 10.526602
-0.360323 0.052454 10.541207
-0.832802 -0.023886 0.482428
-0.754430 -0.016826 0.831072
-1.001712 -0.039037 1.425203
-1.082677 -0.046298 1.918871
-1.137761 -0.051246 2.030495
-1.046564 -0.043039 2.212026
-1.899411 -0.119657 3.904223
-1.480267 -0.081932 4.887352
-1.505062 -0.084142 5.366995
-1.572932 -0.090241 5.468116
-1.130761 -0.050459 6.092342
-0.731678 -0.014578 6.025729
-0.608153 -0.003457 6.385924
-0.622203 -0.004709 6.660941
-0.584065 -0.001262 7.111088
-0.753767 -0.016516 7.237283
-1.028822 -0.041230 7.709281
-1.215657 -0.058012 8.145610
-1.216723 -0.058093 8.524564
-1.194969 -0.056118 9.016972
-1.303627 -0.065889 8.992001
-1.193386 -0.055958 9.459040
-1.018284 -0.040201 9.791823
-0.933584 -0.032569 10.205811
-0.736453 -0.014845 10.175770
-0.494207 0.006945 10.381528
-0.640444 -0.054393 0.413901
-1.270328 -0.158472 1.541311
-1.029328 -0.118615 2.012231
-0.941302 -0.104048 2.415013
-1.119124 -0.133430 2.730380
-1.919616 -0.265714 3.827427
-1.761684 -0.239583 4.438183
-1.526099 -0.200627 4.748592
-1.220720 -0.150136 4.979989
-1.182417 -0.143779 5.636727
-1.342489 -0.170234 5.774346
-1.019123 -0.116779 5.796624
-0.779757 -0.077195 6.180504
-0.584353 -0.044883 6.452008
-0.636006 -0.053415 6.611897
-0.426565 -0.018780 6.945647
-0.677135 -0.060179 7.483539
-1.096134 -0.129415 8.180514
-1.163766 -0.140575 8.701355
-1.172561 -0.142014 9.079358
-1.307814 -0.164378 8.940182
-1.134097 -0.135631 9.694853
-1.060164 -0.123396 10.049656
-1.021488 -0.117014 9.749369
-0.863177 -0.090833 10.027811
-0.816187 -0.153885 0.283599
-1.168315 -0.242817 1.706623
-1.191840 -0.248755 1.876938
-1.216353 -0.254944 2.046716
-0.967977 -0.192145 2.791788
-1.970623 -0.445496 3.647632
-1.699156 -0.376867 4.272386
-1.555578 -0.340568 4.620300
-1.390089 -0.298740 4.771416
-1.305507 -0.277334 5.538746
-1.269611 -0.268247 5.926151
-1.195350 -0.249484 5.844253
-0.928979 -0.182160 6.016883
-0.640363 -0.109199 6.577309
-0.526385 -0.080394 6.614695
-0.560143 -0.088916 6.831904
-0.711046 -0.127032 7.341367
-0.932340 -0.182931 7.987167
-1.209736 -0.253030 8.077936
-1.303234 -0.276642 8.483723
-1.228684 -0.257790 8.779433
-1.135594 -0.234231 9.615972
-1.061779 -0.215562 9.971225
-1.003504 -0.200823 10.269648
-0.940001 -0.184783 10.086230
-0.629975 -0.106409 10.700161
-0.216413 -0.001890 10.819179
-0.672579 -0.183743 0.521212
-1.166051 -0.358032 1.655941
-1.104421 -0.336245 1.999927
-1.046945 -0.315926 2.343619
-1.184166 -0.364397 2.500534
-1.702176 -0.547334 4.163293
-1.847573 -0.598694 4.309868
-1.554683 -0.495201 4.786681
-1.306417 -0.407488 4.902779
-1.267877 -0.393845 5.557271
-1.440502 -0.454827 5.638585
-1.179959 -0.362775 5.807729
-0.843329 -0.243832 6.213264
-0.602132 -0.158602 6.659565
-0.562859 -0.144722 6.788040
-0.437898 -0.100558 7.211545
-0.623133 -0.165983 7.602568
-0.873856 -0.254537 8.131068
-1.085256 -0.329209 8.451411
-1.236543 -0.382649 8.627782
-1.283814 -0.399340 8.834835
-1.163732 -0.356895 9.360814
-1.149469 -0.351854 9.426513
-1.029830 -0.309563 10.010434
-0.984463 -0.293526 10.249777
-0.632670 -0.169228 10.610151
-0.323230 -0.059902 10.743403
-0.904095 -0.350759 0.443243
-1.408231 -0.577362 1.302146
-1.236299 -0.500053 1.654163
-1.070512 -0.425497 2.226409
-1.176768 -0.473256 2.440989
-1.788875 -0.748376 3.824811
-1.943186 -0.817733 4.180415
-1.828417 -0.766125 4.468516
-1.505610 -0.620990 4.793963
-1.354400 -0.553018 4.671406
-1.523005 -0.628790 5.282421
-1.505653 -0.620975 5.608980
-1.197104 -0.482250 5.945597
-0.966267 -0.378470 6.058916
-0.840348 -0.321858 6.149940
-0.467663 -0.154289 6.738535
-0.551976 -0.192191 6.777709
-0.481451 -0.160475 7.021632
-0.519556 -0.177567 7.939652
-0.899022 -0.348143 8.313633
-1.101543 -0.439191 8.258882
-1.063905 -0.422247 8.810094
-1.124378 -0.449427 8.957537
-1.135975 -0.454624 9.333469
-1.163922 -0.467175 9.650569
-1.084370 -0.431394 10.060679
-0.882747 -0.340749 10.144875
-0.561045 -0.196114 10.388032
-1.006198 -0.499380 0.375095
-1.144595 -0.576039 0.704434
-1.173076 -0.591783 1.477841
-1.166821 -0.588307 1.705296
-1.059893 -0.529048 2.161504
-1.112232 -0.558030 2.489560
-1.048668 -0.522788 3.102116
-1.851599 -0.967567 4.223528
-1.760927 -0.917312 4.716789
-1.514742 -0.780917 4.873155
-1.410368 -0.723092 4.900851
-1.374867 -0.703396 5.549534
-1.516648 -0.781937 5.686080
-1.212215 -0.613276 5.760075
-1.136219 -0.571163 5.997924
-0.927102 -0.455294 6.376694
-0.639569 -0.295984 6.729704
-0.537082 -0.239203 6.766920
-0.437122 -0.183809 7.129675
-0.638844 -0.295552 7.402597
-0.924177 -0.453598 8.074248
-1.008700 -0.500406 8.481999
-1.061499 -0.529632 9.058035
-1.193780 -0.602906 9.285594
-1.265398 -0.642579 9.374563
-1.174392 -0.592140 9.840185
-1.065896 -0.532028 9.943271
-0.897852 -0.438911 10.394131
-0.619259 -0.284566 10.464372
-1.016484 -0.618501 0.460131
-1.102138 -0.675757 0.684089
-1.003971 -0.610086 1.526796
-1.145306 -0.704563 1.848682
-1.091588 -0.668643 1.973761
-1.162626 -0.716125 2.246704
-1.074096 -0.656904 2.917390
-1.864288 -1.185147 4.199600
-1.916178 -1.219835 4.305598
-1.600350 -1.008650 4.942872
-1.577789 -0.993564 5.009305
-1.366821 -0.852498 5.376639
-1.238148 -0.766451 5.784149
-1.234862 -0.764254 5.794812
-1.111656 -0.681862 6.204760
-1.013345 -0.616132 6.239693
-0.659293 -0.379407 6.559163
-0.498184 -0.271681 6.830985
-0.403787 -0.208552 7.194473
-0.444924 -0.236030 7.733051
-0.668466 -0.385460 8.260351
-0.961973 -0.581681 8.488972
-1.012190 -0.615228 9.065441
-1.034737 -0.630288 9.385250
-1.228090 -0.759564 9.268952
-1.079616 -0.660260 10.077812
-1.087760 -0.665707 10.030161
-0.847524 -0.505071 10.461729
-0.701002 -0.407117 10.317964
-1.688262 -1.279333 4.659565
-1.682511 -1.274753 4.676886
-1.534615 -1.156964 4.869528
-1.210265 -0.898639 5.366995
-1.173382 -0.869261 5.489480
-1.217441 -0.904327 5.909285
-1.119031 -0.825939 6.259397
-0.845844 -0.608364 6.662791
-0.560970 -0.381493 6.811333
-0.500552 -0.333366 7.055091
-0.428005 -0.275577 7.358454
-0.610181 -0.420642 7.628775
-0.818892 -0.586826 8.153977
-1.018824 -0.746034 8.357035
-1.041842 -0.764330 9.045634
-1.192132 -0.884013 9.101962
-1.193356 -0.884967 9.531395
-1.161954 -0.859950 9.710810
-1.036153 -0.759754 9.984093
-0.797037 -0.682687 0.505309
-1.154784 -1.020410 1.477088
-0.997622 -0.872000 1.886620
-1.101280 -0.969861 2.046483
-1.146134 -1.012182 2.590151
-1.081406 -0.951058 2.771654
-1.814621 -1.643266 4.155063
-1.670694 -1.507350 4.605127
-1.616166 -1.455857 4.781553
-1.445607 -1.294804 5.087538
-1.277709 -1.136262 5.397921
-1.248733 -1.108884 5.782726
-1.351731 -1.206121 5.975815
-1.206340 -1.068833 6.234299
-0.923893 -0.802126 6.749994
-0.700188 -0.590912 6.725102
-0.504340 -0.405988 6.908386
-0.371029 -0.280088 7.508217
-0.508123 -0.409524 7.576002
-0.677886 -0.569775 8.221371
-0.848080 -0.730431 8.911746
-1.008376 -0.881781 8.854468
-1.087157 -0.956143 9.252953
-1.117964 -0.985215 9.511871
-0.972958 -0.848281 9.955477
-0.866213 -0.747484 10.173924
-0.752811 -0.640398 10.452458
-0.473816 -0.376985 10.328837
-0.707625 -0.713037 0.381736
-1.052373 -1.097415 1.515406
-0.948596 -0.981658 2.027027
-1.025334 -1.067221 2.241815
-0.990955 -1.028851 2.795664
-1.047797 -1.092235 2.849278
-1.707389 -1.827695 4.281151
-1.685519 -1.803288 4.604108
-1.529128 -1.628856 5.162038
-1.409524 -1.495453 5.613814
-1.427093 -1.515033 5.825010
-1.269658 -1.339466 5.884074
-1.056139 -1.101326 6.479354
-0.888741 -0.914646 6.594837
-0.760144 -0.771245 6.540126
-0.542192 -0.528175 6.893278
-0.415194 -0.386537 7.165743
-0.403433 -0.373378 7.937353
-0.691459 -0.694550 8.254353
-0.937275 -0.968662 8.425266
-0.921327 -0.950849 8.916514
-1.003237 -1.042171 9.258064
-1.048975 -1.093167 9.403666
-0.947995 -0.980519 10.095635
-0.828674 -0.847436 10.486347
-0.733703 -0.741548 10.169422
-0.763353 -0.939230 0.424241
-0.675614 -0.821517 0.278127
-0.907836 -1.132995 1.859235
-0.957516 -1.199649 1.916097
-0.956493 -1.198247 2.358097
-0.926909 -1.158516 2.911151
-0.827177 -1.024680 3.263762
-1.501859 -1.929851 4.406878
-1.525339 -1.961344 4.566545
-1.507760 -1.937737 4.889410
-1.479312 -1.899542 5.266306
-1.424339 -1.825769 5.496153
-1.357984 -1.736718 5.782040
-1.108825 -1.402378 6.335976
-1.005916 -1.264307 6.223259
-0.853253 -1.059447 6.655567
-0.692262 -0.843427 6.832922
-0.508385 -0.596714 6.809154
-0.350877 -0.385347 7.317946
-0.371822 -0.413411 7.914599
-0.715343 -0.874314 8.086905
-0.946241 -1.184087 8.571708
-0.975908 -1.223880 8.777619
-0.941435 -1.177582 9.435585
-1.006029 -1.264252 9.412188
-0.900355 -1.122444 9.741035
-0.797176 -0.983984 10.073560
-0.591676 -0.854088 0.321213
-0.911731 -1.367986 1.287278
-0.827108 -1.232039 2.014520
-0.886712 -1.327755 2.014186
-0.827236 -1.232195 2.681490
-0.828310 -1.233904 2.906048
-1.191627 -1.817228 4.531328
-1.347460 -2.067471 4.605389
-1.284192 -1.965830 5.147363
-1.342799 -2.059946 5.140593
-1.236278 -1.888850 5.644752
-1.234203 -1.885517 5.654872
-1.154699 -1.757814 6.052051
-1.060172 -1.606000 6.250603
-0.825712 -1.229436 6.926747
-0.723908 -1.065978 6.555705
-0.493636 -0.696137 7.253438
-0.362869 -0.486132 7.379814
-0.421351 -0.580048 7.359184
-0.526458 -0.748810 7.744694
-0.687081 -1.006694 8.521874
-0.851823 -1.271222 8.915739
-0.858106 -1.281283 9.288480
-0.867193 -1.295849 9.659719
-0.828070 -1.233032 9.533170
-0.749970 -1.107561 10.225660
-0.697188 -1.022800 10.215046
-0.511074 -0.723906 10.455731
-0.822521 -1.463078 1.224470
-0.789042 -1.399016 1.780088
-0.827929 -1.473349 2.051178
-0.813397 -1.445538 2.331412
-0.685726 -1.201355 3.121913
-0.676466 -1.183625 3.401487
-1.224806 -2.232015 4.426539
-1.199842 -2.184250 4.802321
-1.136360 -2.062816 5.396779
-1.124605 -2.040335 5.460506
-1.102918 -1.998856 5.579335
-0.976422 -1.756923 6.307906
-0.885676 -1.583388 6.562994
-0.796099 -1.412087 6.821335
-0.724429 -1.275062 6.653457
-0.582527 -1.003707 6.942963
-0.397775 -0.650422 7.209685
-0.363627 -0.585108 7.452891
-0.464098 -0.777191 7.779846
-0.622892 -1.080732 8.811223
-0.783596 -1.388026 8.667302
-0.825988 -1.469045 9.120722
-0.775671 -1.372795 9.581645
-0.768826 -1.359701 9.647330
-0.688415 -1.205920 9.976208
-0.620447 -1.075942 10.193992
-0.700108 -1.567905 1.361894
-0.718764 -1.613211 1.692017
-0.705163 -1.580127 1.973752
-0.606572 -1.340448 2.707680
-0.683570 -1.527571 2.749292
-0.657729 -1.464709 3.354049
-1.000015 -2.296446 4.520477
-1.006370 -2.311870 4.733679
-1.004694 -2.307769 5.000647
-0.886269 -2.019882 5.779020
-0.909093 -2.075366 5.623442
-0.851709 -1.935865 6.020216
-0.796697 -1.802128 6.419305
-0.716066 -1.606171 6.418919
-0.555767 -1.216532 7.045446
-0.468100 -1.003469 7.109822
-0.489464 -1.055374 7.265185
-0.575348 -1.264033 7.905633
-0.720477 -1.616727 8.026700
-0.685898 -1.532618 8.736873
-0.663184 -1.477393 8.971026
-0.673134 -1.501542 9.285540
-0.682689 -1.524773 9.181067
-0.627591 -1.390805 9.811594
-0.502979 -1.087899 10.416340
-0.572145 -1.634005 1.545450
-0.597069 -1.712495 1.603427
-0.586060 -1.677759 2.100300
-0.516995 -1.460151 2.776409
-0.542630 -1.540882 2.830857
-0.546560 -1.553204 3.266660
-0.556497 -1.584478 3.432454
-0.766814 -2.246697 4.824856
-0.747238 -2.184953 5.512480
-0.786298 -2.308015 5.191018
-0.700437 -2.037502 5.914208
-0.712205 -2.074578 5.811388
-0.667703 -1.934368 6.207102
-0.591686 -1.694936 6.314926
-0.526705 -1.490237 6.628173
-0.503879 -1.418279 7.177499
-0.573620 -1.637894 7.444912
-0.546173 -1.551365 8.101258
-0.579452 -1.656179 8.080262
-0.588797 -1.685579 8.339954
-0.589953 -1.689170 8.710696
-0.571851 -1.632129 8.943413
-0.550264 -1.564104 9.233070
-0.537560 -1.524069 9.410422
-0.480471 -1.344217 9.793504
-0.425098 -1.169770 10.181003
-0.474609 -1.857826 1.621387
-0.466711 -1.823085 1.687546
-0.452227 -1.759331 2.024668
-0.438703 -1.699803 2.361502
-0.401685 -1.536919 2.923816
-0.404939 -1.551152 3.359350
-0.438278 -1.697731 3.510409
-0.484068 -1.899001 4.022379
-0.586253 -2.348143 5.235281
-0.532664 -2.112382 5.850683
-0.527188 -2.088289 5.916154
-0.496389 -1.952837 6.002366
-0.447754 -1.738911 6.313830
-0.446195 -1.731997 6.637735
-0.438617 -1.698545 7.384504
-0.432564 -1.671849 7.817676
-0.453153 -1.762382 7.856350
-0.430964 -1.664747 8.203752
-0.421398 -1.622585 8.747224
-0.455384 -1.772072 8.558190
-0.413809 -1.589116 9.299874
-0.412050 -1.581293 9.784253
-0.422704 -1.628183 9.568916
-0.402980 -1.541376 9.974571
-0.346219 -1.291730 10.226999
-0.221847 -0.744758 10.496087
-0.336634 -2.014832 1.600035
-0.319298 -1.892392 1.618333
-0.289602 -1.682499 2.236068
-0.285390 -1.652675 2.516978
-0.286515 -1.660496 2.953884
-0.299768 -1.754023 3.219468
-0.309713 -1.824166 3.539110
-0.309616 -1.823349 4.024205
-0.361649 -2.190572 4.933015
-0.371224 -2.258093 5.294487
-0.365425 -2.217036 5.671885
-0.361899 -2.192114 5.737180
-0.318849 -1.887929 6.277657
-0.323050 -1.917457 6.800129
-0.302662 -1.773253 7.578406
-0.319643 -1.893099 7.870072
-0.319227 -1.890158 7.880108
-0.301704 -1.766173 8.701047
-0.308818 -1.816361 8.904398
-0.294898 -1.717939 9.307403
-0.290517 -1.686962 9.440172
-0.272715 -1.561081 10.014792
-0.246649 -1.377018 9.927000
-0.219662 -1.186302 10.375070
-0.161207 -0.773462 10.426360
-0.141103 -1.815969 2.015249
-0.145241 -1.899238 2.071623
-0.143670 -1.867389 2.351248
-0.139859 -1.790177 2.954882
-0.144553 -1.884488 3.219778
0.013794 -1.931208 1.807193
0.011550 -1.864842 2.366988
0.008526 -1.774741 2.545277
0.012471 -1.892809 2.756631
0.016755 -2.021230 3.177159
0.008324 -1.770336 3.956100
0.012621 -1.898903 4.159342
0.014466 -1.954761 4.790169
0.012825 -1.906184 5.173050
0.016678 -2.021558 5.424178
0.015087 -1.974189 5.545549
0.021048 -2.152972 6.206184
0.024560 -2.258187 6.504654
0.019958 -2.121225 6.901437
0.019349 -2.103467 7.275262
0.013460 -1.928260 7.841714
0.017124 -2.037660 7.824598
0.014888 -1.971561 8.416956
0.016518 -2.020466 8.618279
0.015452 -1.988792 8.737660
0.010815 -1.851445 9.727012
0.008311 -1.777054 10.071621
0.004585 -1.665826 10.115707
0.176474 -1.937690 1.993533
0.172630 -1.905063 2.273278
0.172425 -1.903395 2.496595
0.160607 -1.803031 3.155011
0.159678 -1.795292 3.642902
0.189437 -2.048542 3.568151
0.195270 -2.098309 3.937878
0.174002 -1.917606 4.860802
0.179019 -1.960354 5.019124
0.179569 -1.965216 5.547726
0.164303 -1.835399 5.891732
0.176244 -1.937128 6.193038
0.215149 -2.268328 6.447840
0.190427 -2.058127 7.064821
0.199056 -2.131603 7.160111
0.200844 -2.146804 7.113406
0.197139 -2.115410 7.540154
0.177390 -1.947515 8.104766
0.179173 -1.962797 8.419351
0.191935 -2.071404 8.399046
0.190724 -2.061241 8.822287
0.183822 -2.002580 9.053331
0.163592 -1.830648 9.788061
0.160512 -1.804469 9.908941
0.163142 -1.826819 9.805572
0.121257 -1.470603 10.564568
0.098124 -1.273711 10.536630
0.338430 -1.933597 1.537457
0.347487 -1.978574 2.088344
0.341208 -1.947522 2.366904
0.359956 -2.040501 2.845408
0.367754 -2.079208 3.220316
0.353532 -2.008822 3.605923
0.348685 -1.984917 4.143348
0.392488 -2.201976 4.384837
0.367504 -2.078359 5.200742
0.319528 -1.840794 5.823272
0.355848 -2.020747 5.903319
0.409235 -2.285326 6.327692
0.392812 -2.204069 6.866089
0.399933 -2.239390 7.072958
0.395695 -2.218404 7.137745
0.380908 -2.145190 7.368276
0.382073 -2.151023 7.684253
0.362059 -2.052009 8.386689
0.362802 -2.055761 8.755506
0.350932 -1.997000 8.987481
0.375224 -2.117335 8.911039
0.380134 -2.141718 9.221797
0.322688 -1.857278 10.043568
0.327056 -1.878897 9.940057
0.271842 -1.605419 10.301149
0.504755 -1.924743 1.488259
0.552071 -2.088064 1.594168
0.525305 -1.995740 1.984096
0.516130 -1.964113 2.262742
0.524812 -1.994131 2.641520
0.512463 -1.951583 3.184548
0.503234 -1.919808 3.725051
0.531497 -2.017391 3.984678
0.507033 -1.933052 4.686113
0.576753 -2.173673 4.608142
0.518753 -1.973600 5.375954
0.461517 -1.776093 5.628806
0.524479 -1.993392 5.597756
0.586937 -2.209035 6.134968
0.621586 -2.328656 6.376929
0.563384 -2.127907 7.298117
0.562611 -2.125239 7.306749
0.568907 -2.147004 7.566447
0.526460 -2.000574 8.073368
0.522097 -1.985576 8.497963
0.539947 -2.047204 8.643731
0.570315 -2.152012 8.623044
0.538397 -2.041971 9.485863
0.523624 -1.991019 9.716502
0.523080 -1.989142 9.725182
0.519081 -1.975346 9.789435
0.481185 -1.844575 9.943986
0.673955 -1.898284 1.443459
0.734884 -2.057083 1.549235
0.658056 -1.856903 1.947349
0.656577 -1.853074 2.170596
0.679363 -1.912516 2.706216
0.664041 -1.872642 3.248920
0.708214 -1.987784 3.455427
0.743685 -2.080254 3.715682
0.753283 -2.105314 4.139233
0.740985 -2.073300 4.465049
0.698131 -1.961705 5.271376
0.616404 -1.748747 5.578916
0.697354 -1.959709 5.549173
0.777280 -2.168065 6.087673
0.821613 -2.283626 6.330722
0.819111 -2.277140 6.647535
0.732172 -2.050648 7.372379
0.765222 -2.136784 7.412221
0.726326 -2.035493 8.113313
0.725341 -2.032925 8.122823
0.736317 -2.061558 8.380847
0.732431 -2.051477 8.803426
0.766193 -2.139468 8.838268
0.735099 -2.058472 9.178823
0.705652 -1.981765 9.520515
0.691160 -1.944016 9.696541
0.604467 -1.718157 10.355061
0.521672 -1.502400 10.495473
0.831349 -1.844252 1.427811
0.904884 -1.997024 1.534555
0.811570 -1.803209 1.933415
0.798276 -1.775634 2.426368
0.864638 -1.913549 3.015295
0.859906 -1.903763 3.500489
0.837441 -1.857145 4.094028
0.838949 -1.860394 5.375520
0.825745 -1.832946 5.182023
0.847512 -1.878203 5.599492
0.901187 -1.989782 6.414244
0.972843 -2.138654 6.546619
0.954718 -2.101040 6.974269
0.953215 -2.097917 6.984583
0.961353 -2.114848 7.246267
0.926637 -2.042779 7.835833
0.911272 -2.010903 8.314380
0.899810 -1.987134 8.791764
0.886290 -1.959059 8.911471
0.909038 -2.006333 9.111050
0.893035 -1.973141 9.696117
0.908697 -2.005662 9.539356
0.875193 -1.936092 9.880365
0.786525 -1.751935 10.369714
0.720428 -1.614600 10.115068
0.562545 -1.286636 10.404943
0.959844 -1.730251 1.508715
1.030812 -1.850787 1.670092
0.967764 -1.743748 2.116181
0.940559 -1.697605 2.885533
1.050604 -1.884527 3.355473
0.960038 -1.730788 4.225133
1.105495 -1.977840 4.568743
0.999383 -1.797692 5.335144
0.961692 -1.733676 5.251412
1.035399 -1.858885 5.703064
1.154587 -2.061316 5.929043
1.186175 -2.114991 6.336282
1.163423 -2.076384 6.762069
1.099308 -1.967555 7.462161
1.089086 -1.950200 7.526139
1.110180 -1.986039 7.729914
1.067437 -1.913498 8.373723
1.138721 -2.034548 8.244437
1.132137 -2.023399 8.664785
1.116046 -1.996081 8.783631
1.080161 -1.935193 9.478310
1.059564 -1.900227 9.652910
1.009208 -1.814742 10.105016
0.970592 -1.749153 9.981971
0.823633 -1.499609 10.398720
0.667726 -1.234838 10.407169
1.191695 -1.737461 1.691528
1.187770 -1.732040 1.915373
1.117500 -1.634739 2.361027
1.169183 -1.706343 2.628720
1.214648 -1.769366 3.379471
1.212205 -1.766014 3.861695
1.257824 -1.829222 4.175230
1.250090 -1.818544 4.706864
1.287836 -1.870834 4.811100
1.098664 -1.608847 5.337874
1.123491 -1.643283 6.068258
1.346216 -1.951769 5.906964
1.382177 -2.001604 6.315540
1.389152 -2.011283 6.578262
1.332968 -1.933503 7.168786
1.334877 -1.936168 7.484159
1.263584 -1.837446 7.879574
1.261423 -1.834477 8.248825
1.297874 -1.884975 8.396335
1.308653 -1.899925 8.707965
1.265859 -1.840699 9.403722
1.256765 -1.828106 9.469038
1.248094 -1.816101 9.532020
1.175048 -1.714962 10.093524
1.127983 -1.649799 10.490503
1.089007 -1.595801 10.311694
0.838872 -1.249347 10.411056
1.331229 -1.659627 1.864057
1.271687 -1.588951 2.254271
1.273536 -1.591173 2.689274
1.262648 -1.578274 3.177377
1.241027 -1.552633 3.718523
1.290144 -1.610975 4.034337
1.326030 -1.653607 4.403158
1.425856 -1.772149 4.548515
1.290312 -1.611251 5.316484
1.242388 -1.554341 5.233133
1.261794 -1.577413 5.705026
1.433746 -1.781613 6.131743
1.475864 -1.831649 6.538897
1.485235 -1.842792 6.800644
1.496327 -1.855978 7.061387
1.486426 -1.844244 7.430769
1.462166 -1.815445 7.549821
1.384620 -1.723413 8.303811
1.415292 -1.759844 8.505421
1.446977 -1.797479 8.706031
1.443481 -1.793353 9.125458
1.450906 -1.802167 9.079691
1.379195 -1.717072 9.993674
1.377907 -1.715544 10.002952
1.240789 -1.552763 10.547066
1.190340 -1.492853 10.425796
0.992416 -1.257839 10.434054
1.437001 -1.490863 1.548821
1.347580 -1.402584 2.429855
1.491344 -1.544591 2.473871
1.457715 -1.511402 3.015295
1.367585 -1.422403 3.511925
1.384831 -1.439461 3.938356
1.424181 -1.478350 4.306379
1.569055 -1.621453 4.340036
1.431584 -1.485703 5.051716
1.318267 -1.373795 5.450425
1.387499 -1.442196 5.754159
1.578165 -1.630552 6.179715
1.657079 -1.708498 6.167889
1.529098 -1.582128 6.980367
1.607650 -1.659719 6.965675
1.634079 -1.685835 7.170717
1.528908 -1.581995 7.980287
1.538703 -1.591688 8.292811
1.551212 -1.604061 8.604076
1.607696 -1.659858 8.693784
1.664387 -1.715861 8.783048
1.586617 -1.639089 9.639932
1.621928 -1.673956 9.428487
1.565982 -1.618713 9.767341
1.555836 -1.608695 9.831100
1.417807 -1.472379 10.261891
1.744985 -1.527697 1.719483
1.513219 -1.333661 2.957004
1.500201 -1.322886 5.478963
1.838039 -1.605831 5.725250
1.965535 -1.712641 6.420697
1.946397 -1.696632 6.789990
1.945327 -1.695751 7.103879
2.015855 -1.754819 7.144089
1.952634 -1.701903 7.726253
1.985684 -1.729591 7.927043
1.971658 -1.717866 8.343942
1.873890 -1.636076 10.094009
1.843580 -1.610678 9.807818
1.526973 -1.345552 10.305322
1.316995 -1.169718 10.667304
1.164983 -1.042411 10.639630
1.949859 -1.433868 1.330451
1.578098 -1.172364 1.955188
1.718630 -1.271233 2.058107
1.788789 -1.320602 2.325539
1.742252 -1.287879 2.656209
1.706548 -1.262787 3.196502
1.638338 -1.214832 3.845338
1.662398 -1.231778 4.269276
1.742580 -1.288224 5.061872
1.684482 -1.247361 5.236916
1.691886 -1.252594 5.762385
1.927547 -1.418399 6.132547
2.029238 -1.489951 6.374258
1.858042 -1.369558 7.292020
1.962710 -1.443189 7.222058
1.902461 -1.400814 7.450062
1.801672 -1.329945 8.203138
1.930495 -1.420563 8.019972
1.819867 -1.342777 8.880020
1.874012 -1.380875 9.023854
1.918781 -1.412360 8.813035
1.809742 -1.335697 9.780478
1.859876 -1.370953 9.513960
1.816643 -1.340550 9.743010
1.675742 -1.241441 10.062306
