-0.917732 0.569504 -0.762558
-0.869933 0.871430 0.018687
-1.030737 0.046284 0.537805
-0.853355 1.571479 -1.242347
-0.949048 0.605337 -1.101558
-0.972425 0.415891 -0.662959
-0.944300 0.784309 0.028566
-1.032050 -0.073572 0.401278
-0.992067 1.132609 -1.093060
-0.998478 1.104897 -0.544144
-1.008063 0.957934 0.182042
-1.017476 0.223367 0.366051
-1.028117 -0.928445 0.285948
-1.109753 1.352979 -1.178972
-1.044749 0.516026 -1.218033
-1.041767 0.405312 -0.721936
-1.069436 0.602776 0.387814
-0.990270 -0.440304 0.503975
-1.238713 1.347097 -1.310488
-1.094824 0.468406 -1.112292
-1.072719 0.295545 -0.525711
-1.141083 0.659584 0.164836
-0.975544 -0.353430 0.423975
-1.231176 0.724123 -1.117871
-1.186391 0.537252 -0.682342
-1.083949 0.135127 -0.270053
-0.945547 -0.403666 0.183489
-0.742316 -1.178841 0.480599
-1.392945 0.904141 -1.198193
-1.070901 0.004500 -0.904183
-0.975275 -0.267429 -0.670895
-0.989931 -0.254910 0.181377
-0.720571 -1.008911 0.474062
-1.507291 0.867459 -1.160950
-1.222960 0.252079 -1.081808
-1.129708 0.032982 -0.405601
-1.127057 0.012606 0.146245
-0.758059 -0.789389 0.375874
-2.065099 1.584339 -1.136283
-1.514191 0.620657 -0.985625
-1.137732 -0.036030 -0.964436
-0.965999 -0.342584 -0.643666
-0.911592 -0.457265 0.240102
-1.562688 0.489265 -1.158221
-1.092424 -0.188068 -1.045538
-0.904494 -0.467107 -0.572904
-0.910233 -0.472606 0.129859
-0.489968 -1.079828 0.327971
-1.588159 0.320247 -1.127963
-1.003037 -0.369374 -1.074825
-0.789863 -0.628430 -0.602826
-0.809796 -0.619638 0.247267
-0.388857 -1.119473 0.501043
-1.446292 0.019398 -1.152867
-0.944258 -0.484043 -0.679689
-0.638693 -0.790148 -0.411823
-0.483227 -0.954483 0.271669
-1.466235 -0.073569 -1.194134
-0.961644 -0.503090 -0.962116
-0.806236 -0.638565 -0.672590
-0.651237 -0.781580 0.156096
-0.088668 -1.259591 0.355868
-1.303342 -0.320783 -0.943266
-0.745422 -0.707690 -0.855005
-0.301285 -1.022941 -0.250908
-0.291340 -1.037381 0.306023
-1.375929 -0.375499 -0.768479
-0.802500 -0.704955 -0.530845
-0.427780 -0.921723 -0.260627
-0.072452 -1.129438 0.164064
-1.378493 -0.476175 -0.831467
-0.662981 -0.808465 -0.414396
-0.254648 -0.996657 -0.293761
0.041271 -1.137861 0.186208
-1.394419 -0.564542 -1.432381
-1.227939 -0.630731 -0.849511
-0.683640 -0.828020 -0.555743
-0.021804 -1.069461 -0.067802
0.224224 -1.161666 0.320330
-1.334280 -0.686136 -1.425048
-1.116936 -0.752086 -0.604383
-0.559120 -0.900450 -0.308560
0.016276 -1.051770 -0.152363
0.270430 -1.122290 0.235608
-0.747049 -0.887845 -1.378771
-0.252287 -0.975694 -1.024281
-0.309219 -0.972996 -0.411080
-0.067563 -1.019969 0.120883
0.803976 -1.170355 0.360438
-1.287890 -0.917625 -0.715793
-0.322599 -0.988673 -0.565688
0.398940 -1.044336 -0.225284
0.433760 -1.051402 0.182214
-0.567384 -1.009079 -1.371342
0.017214 -1.003430 -1.073730
-0.056131 -1.013092 -0.309816
0.252037 -1.015355 0.316104
1.073983 -1.004420 0.466633
-1.309333 -1.148032 -0.652124
-0.006353 -1.011620 -0.885415
0.554045 -0.959190 -0.430274
0.572141 -0.963591 0.127053
-0.191951 -1.054282 -1.441651
0.014646 -1.018074 -1.151593
0.088737 -1.012968 -0.354923
0.331124 -0.972676 0.177730
1.200226 -0.809223 0.418842
-0.885818 -1.298911 -0.526209
0.281470 -0.969475 -0.545445
0.759777 -0.838816 -0.180285
0.995616 -0.778559 0.358789
0.135471 -1.019931 -1.414270
0.531382 -0.871151 -0.995745
0.464754 -0.906206 -0.230425
0.654510 -0.836028 0.064459
1.500862 -0.508394 0.159563
-0.316984 -1.275577 -1.056824
0.497271 -0.874742 -0.993315
0.727553 -0.767834 -0.457380
1.008643 -0.637048 0.173586
-0.007272 -1.168426 -1.401051
0.483603 -0.881628 -0.954429
0.508207 -0.874201 -0.397783
0.848082 -0.679023 0.172598
1.752982 -0.141388 0.308676
-0.087507 -1.305261 -1.388581
0.254484 -1.059668 -0.979165
0.737274 -0.707038 -0.828556
0.994993 -0.526401 -0.199885
1.261116 -0.337567 0.282822
0.165540 -1.189847 -1.139487
0.665800 -0.753508 -0.900281
0.810580 -0.632781 -0.457745
1.061708 -0.419098 0.022325
1.682029 0.124103 0.174898
1.482495 0.104975 -1.426465
2.247001 0.882380 0.003735
0.470063 -1.017908 -1.087381
0.978959 -0.387972 -0.811726
1.007725 -0.359371 -0.403869
1.308840 0.007018 0.114544
2.033129 0.911694 0.052606
0.385164 -1.236614 -1.360450
0.744562 -0.696620 -0.975870
1.021753 -0.281452 -0.614921
1.127310 -0.129597 -0.170845
1.320480 0.158054 0.162842
0.441464 -1.292129 -1.336375
0.720316 -0.780274 -1.044591
0.998610 -0.269675 -0.743481
1.199246 0.093572 -0.320092
1.350844 0.360629 0.313826
0.479417 -1.419497 -1.421206
0.712172 -0.884435 -1.132027
1.002606 -0.215991 -0.799009
1.112663 0.029915 -0.412141
1.337170 0.540733 0.053013
0.782433 -0.832023 -1.151859
0.991834 -0.201956 -0.911352
1.076116 0.035901 -0.375648
1.259309 0.583391 -0.061532
0.791997 -1.019524 -1.178636
0.911255 -0.516875 -0.975883
1.028236 -0.031732 -0.616550
1.211792 0.735519 -0.174705
0.875383 -0.946104 -1.346732
0.961445 -0.367737 -1.051202
1.057589 0.273061 -0.653599
1.122184 0.702729 -0.375602
0.944302 -1.069903 -1.286941
0.974749 -0.553146 -1.085963
1.026581 0.320930 -0.716248
1.049452 0.671833 -0.383500
1.042505 -1.248286 -1.309125
1.029916 -0.747752 -0.963951
0.999759 0.223176 -0.807659
0.987495 0.720819 -0.441863
1.148632 -1.160306 -1.149876
1.093217 -0.664464 -0.804742
0.993114 0.170051 -0.831719
0.927656 0.746270 -0.524936
1.135953 -0.501894 -1.239327
0.977955 0.226231 -1.060813
0.898287 0.618339 -0.491160
0.772156 1.200599 -0.329567
1.208712 -0.504554 -1.219782
1.012466 0.128935 -0.984800
0.797986 0.824352 -0.645703
0.653094 1.299426 -0.274813
1.412974 -0.800445 -1.304951
1.185803 -0.229946 -0.630588
0.833101 0.622771 -0.711005
0.591935 1.219287 -0.306753
1.269652 -0.272173 -1.195169
0.975738 0.304651 -0.809299
0.731036 0.778609 -0.746643
0.399951 1.426339 -0.396038
1.555660 -0.583998 -1.199930
1.236526 -0.076825 -1.058545
0.682663 0.803541 -0.805582
0.529941 1.049878 -0.564248
1.397918 -0.166766 -1.249471
0.992126 0.359845 -1.014341
0.547609 0.938192 -0.675334
0.193815 1.399333 -0.360047
1.375800 -0.007023 -1.013102
0.871403 0.540097 -0.834656
0.578208 0.860860 -0.564622
0.130193 1.348431 -0.308218
1.225146 0.244298 -1.083218
0.674659 0.745540 -0.903151
0.430309 0.974025 -0.425568
1.539790 0.088662 -1.331007
0.896176 0.580106 -1.069135
0.369198 0.982890 -0.826179
0.041625 1.237066 -0.403933
1.020107 0.542276 -1.190086
0.459406 0.898283 -0.950190
0.195100 1.072899 -0.322066
1.603513 0.299051 -1.487019
0.956037 0.635806 -1.169560
0.294205 0.978234 -0.987818
-0.057811 1.166337 -0.415823
1.161871 0.609581 -1.224704
0.276286 0.972802 -0.921423
0.044675 1.073299 -0.385780
1.500224 0.593639 -1.456409
0.879198 0.784148 -1.078368
0.227912 0.980376 -0.987567
-0.232535 1.124363 -0.472537
1.330286 0.747178 -1.301008
0.681797 0.883868 -1.071427
0.130704 1.002912 -0.623645
-0.291589 1.093315 -0.352266
0.852451 0.910581 -1.078636
0.031892 1.008021 -0.955942
-0.091408 1.026403 -0.605014
-0.545186 1.087023 0.061595
1.265654 0.965844 -1.078540
0.276927 0.995645 -1.077599
-0.107947 1.015286 -0.357860
-0.375514 1.027706 0.032085
0.677062 1.042514 -1.242147
0.013615 1.006813 -1.004587
-0.285743 0.998186 -0.228874
-0.632658 0.981838 0.102637
1.402328 1.220679 -0.848667
0.267757 1.054246 -0.971351
-0.001257 1.019421 -0.589708
-0.373389 0.973385 0.127587
0.053476 1.045558 -1.153156
0.104896 1.065220 -0.540806
-0.198452 0.997929 0.080437
0.397639 1.195239 -1.107528
0.000823 1.064917 -0.697482
-0.159418 1.017259 -0.110980
-0.859640 0.781046 0.083367
0.952409 1.518935 -0.909952
-0.068082 1.070981 -0.733763
-0.390538 0.932719 -0.409259
-0.676082 0.814419 0.216742
0.535216 1.440197 -1.149597
-0.089443 1.101754 -0.679013
-0.126995 1.086201 -0.275026
-0.869562 0.683405 0.247573
0.627425 1.629891 -1.003139
-0.245651 1.045667 -0.917694
-0.283586 1.025686 -0.512343
-0.598253 0.824315 0.201680
0.291506 1.524481 -1.006764
-0.339700 1.019818 -0.741230
-0.475552 0.918824 -0.152762
-0.684019 0.756405 0.231489
0.034757 1.436205 -1.133972
-0.152300 1.261601 -0.609845
-0.426354 1.004852 0.097880
-0.805641 0.635226 0.162614
-0.115495 1.392702 -1.056926
-0.288676 1.203615 -0.530204
-0.403920 1.081778 0.055536
-0.933888 0.480617 0.340640
-0.063070 1.633269 -1.153006
-0.357152 1.229564 -0.807206
-0.735100 0.709635 -0.420018
-0.930950 0.445483 0.055491
-0.236165 1.564528 -1.231856
-0.508248 1.107352 -1.182549
-0.719143 0.764437 -0.621291
-0.652620 0.891089 0.046377
-0.335624 1.613190 -1.175951
-0.619983 1.032583 -0.797528
-0.775839 0.717310 -0.475320
-0.853501 0.571215 0.112697
-0.488095 1.546521 -1.130746
-0.780442 0.775861 -1.017862
-0.898836 0.481913 -0.398208
-0.882087 0.545505 0.210009
-1.178687 -0.240277 0.200895
-0.679581 1.296791 -1.014791
-0.695891 1.255232 -0.612668
-0.801178 0.914698 0.238841
-1.001743 0.206698 0.428829
-0.759674 1.442250 -1.145355
-0.891622 0.728101 -0.826452
-0.943348 0.464182 -0.447538
-0.964787 0.385485 0.195372
-1.137488 -0.564359 0.373394
-0.868479 1.498657 -1.318973
-0.931105 0.838942 -1.092731
-0.966837 0.504374 -0.623982
-0.988243 0.378031 0.258356
-1.057467 -0.376182 0.305586
-0.996633 1.239551 -1.246483
-1.006024 0.853970 -0.545713
-1.009085 0.796634 -0.292546
-1.017578 0.179617 0.243937
-1.022476 -0.640117 0.385129
-1.084866 0.920807 -1.107368
-1.057163 0.520425 -0.550739
-1.070206 0.625310 -0.180509
-1.016533 -0.071646 0.302469
-1.232198 1.261036 -1.370259
-1.135032 0.652659 -0.697815
-1.122558 0.547764 -0.204484
-1.120651 0.510208 0.197898
-1.345999 1.171993 -1.066869
-1.132072 0.360211 -1.104873
-1.088115 0.173814 -0.666591
-1.159232 0.405906 0.206014
-0.922607 -0.507867 0.524952
-1.425760 0.972864 -1.139108
-1.285653 0.578396 -0.735557
-1.162722 0.220913 -0.030439
-1.067719 -0.045221 0.201732
-0.736529 -0.952511 0.378938
-1.542502 0.925786 -1.090403
-1.185740 0.166176 -1.129246
-1.170574 0.123180 -0.724036
-1.281742 0.337254 0.147962
-0.884204 -0.518593 0.462616
-1.625192 0.802128 -1.281789
-1.294596 0.229017 -1.057527
-1.255052 0.146831 -0.416924
-1.178218 0.001867 0.164928
-0.809958 -0.635199 0.354468
-1.508404 0.397100 -1.020708
-1.366665 0.185877 -0.498793
-1.133208 -0.153294 -0.089452
-0.757752 -0.690765 0.156496
-1.746382 0.512720 -1.124994
-1.415909 0.118264 -0.930811
-1.216717 -0.128090 -0.317144
-1.023401 -0.367545 0.299626
-0.535434 -0.945818 0.345463
-1.534386 0.092736 -0.979562
-1.134919 -0.303504 -0.540838
-0.887447 -0.549766 -0.218410
-0.598023 -0.838405 0.198970
-1.492831 -0.076276 -1.072804
-1.073898 -0.427033 -0.485294
-0.757922 -0.691167 -0.071315
-0.540734 -0.872006 0.163693
-1.496677 -0.185387 -0.925818
-0.955422 -0.563892 -0.693206
-0.430236 -0.933435 -0.300246
-0.232696 -1.077698 0.234890
-1.423218 -0.354210 -1.019686
-0.832315 -0.686001 -0.935822
-0.399234 -0.932974 -0.577627
-0.402911 -0.939928 0.126278
0.275035 -1.325045 0.570163
-1.455864 -0.442204 -1.293331
-0.924389 -0.685188 -1.001259
-0.618711 -0.828691 -0.527163
-0.430815 -0.923513 0.303903
0.186142 -1.202775 0.414274
-1.223399 -0.637644 -1.020818
-0.538515 -0.879724 -0.694719
0.006987 -1.073065 -0.390484
0.158381 -1.132739 0.202549
-1.159053 -0.742854 -1.014856
-0.501142 -0.910147 -0.928132
-0.097679 -1.016945 -0.509975
0.041068 -1.060555 0.231192
0.898354 -1.280069 0.476453
-1.167468 -0.829944 -0.953568
-0.257300 -0.975428 -1.042894
0.073413 -1.034045 -0.566786
0.071860 -1.041771 0.138048
0.944934 -1.185037 0.380259
-1.286213 -0.927235 -0.723456
-0.319865 -0.990766 -0.572819
0.337860 -1.035618 -0.326413
0.435623 -1.047463 0.172775
-1.320148 -1.039793 -0.546994
-0.237053 -1.012834 -0.751790
0.489332 -1.000096 -0.411053
0.570217 -1.005533 0.240332
-0.529288 -1.066453 -1.285896
0.146917 -0.992017 -1.197872
0.139618 -1.002450 -0.342168
0.446256 -0.975286 0.283962
1.201195 -0.891713 0.340495
-0.732139 -1.167997 -1.362680
-0.653248 -1.161093 -0.573475
-0.070641 -1.045354 -0.427227
0.432079 -0.946456 -0.215888
1.038294 -0.830614 0.338797
-0.438028 -1.171264 -1.432304
-0.481954 -1.191370 -0.818117
-0.036319 -1.067577 -0.165520
0.535228 -0.900904 -0.007048
1.148242 -0.724934 0.402881
-0.214979 -1.158574 -1.427564
0.529605 -0.870991 -1.003670
0.403780 -0.928536 -0.329962
0.635351 -0.843945 0.205906
1.402454 -0.544240 0.357429
-0.075797 -1.155425 -1.372050
-0.030887 -1.138116 -0.965144
0.257143 -1.002292 -0.343418
0.644386 -0.812637 -0.071983
1.347852 -0.467531 0.374759
-0.596848 -1.546201 -0.678979
0.494083 -0.880273 -0.609995
0.880138 -0.645911 -0.486813
1.078517 -0.533671 0.201988
0.167847 -1.125540 -1.314711
0.271594 -1.052490 -0.968510
0.515243 -0.880322 -0.199062
0.808693 -0.662503 -0.021123
1.502841 -0.146827 0.368843
0.093359 -1.268560 -0.787844
0.730719 -0.694382 -0.963131
0.971330 -0.488040 -0.335104
1.157786 -0.328908 0.202716
0.334310 -1.107672 -1.369574
0.725333 -0.696151 -0.923237
0.790577 -0.636875 -0.275363
1.073812 -0.340409 0.146644
1.849939 0.489559 0.228960
0.405009 -1.110468 -1.088972
0.865137 -0.525931 -0.908474
0.984410 -0.381568 -0.466775
1.180170 -0.142882 0.161938
1.841768 0.702507 0.150565
0.486686 -1.088199 -1.289782
0.770592 -0.655671 -1.085826
0.985705 -0.339482 -0.368671
1.098430 -0.172108 -0.074930
1.529232 0.481350 0.374232
0.643578 -0.925745 -1.107228
0.957072 -0.342775 -0.868528
1.010771 -0.253773 -0.370836
1.237965 0.160581 0.144374
1.557086 0.757084 0.258246
0.703767 -0.905333 -1.165312
0.966984 -0.295145 -0.924301
1.071741 -0.064839 -0.387951
1.295470 0.446419 0.076394
1.743604 1.494344 0.168401
0.713549 -1.034748 -1.447100
0.852760 -0.617758 -1.183066
1.033849 -0.079306 -0.729049
1.142774 0.237006 -0.245800
1.250028 0.548061 0.241222
0.797388 -1.030928 -1.205719
0.976047 -0.241088 -0.936863
1.068709 0.146441 -0.367687
1.133037 0.423544 -0.129314
1.290525 1.105852 0.378429
0.906162 -0.815844 -1.010578
1.024189 0.068156 -0.793243
1.044169 0.190599 -0.440753
1.121798 0.744321 0.023630
1.270643 1.874893 0.114990
0.968346 -0.832749 -1.147669
0.995287 -0.235541 -1.002658
1.014795 0.099310 -0.527615
1.043589 0.657279 -0.068073
1.077347 1.398330 0.141216
1.038241 -0.788909 -1.207125
1.009462 -0.061208 -0.880406
0.994996 0.307702 -0.703786
0.973390 0.931552 -0.149504
1.090008 -0.573419 -0.866342
1.002537 0.099091 -0.776544
0.971714 0.366284 -0.392124
0.892696 1.001578 0.013376
1.138794 -0.505806 -1.249196
0.983875 0.206724 -0.920727
0.910860 0.551423 -0.593226
0.788433 1.117232 -0.280732
1.382582 -1.058226 -1.333879
1.191945 -0.439207 -0.958317
0.963759 0.286181 -0.927182
0.824583 0.747003 -0.413592
0.628708 1.378344 -0.153748
1.497547 -0.997258 -1.260342
1.254110 -0.399134 -0.887053
0.908016 0.437581 -0.823817
0.729849 0.882343 -0.310501
1.590851 -0.854764 -1.101820
1.282358 -0.269244 -0.874398
0.887119 0.473337 -0.901716
0.666445 0.900526 -0.388198
1.587406 -0.600865 -1.090540
1.352757 -0.234666 -0.834079
0.700260 0.771756 -0.700537
0.386689 1.260503 -0.388045
1.658166 -0.491806 -1.145003
1.352778 -0.095275 -0.798991
0.653753 0.798785 -0.756466
0.298236 1.258762 -0.444375
1.212273 0.174160 -1.023985
0.692221 0.730394 -0.991518
0.366598 1.086766 -0.476171
1.311248 0.169718 -1.073694
0.698481 0.723342 -0.952995
0.391400 1.006198 -0.532441
1.393171 0.215826 -1.253324
0.795735 0.659755 -1.079025
0.278462 1.047505 -0.684388
-0.185536 1.394744 -0.371794
1.402944 0.305080 -1.303742
0.772131 0.700547 -1.130356
0.101130 1.124435 -0.700915
-0.264862 1.356194 -0.424631
1.317507 0.453896 -1.221089
0.466129 0.890771 -0.920010
0.226771 1.017364 -0.534671
1.021850 0.674342 -1.197013
0.209650 0.998992 -0.834319
0.020617 1.077050 -0.541853
1.412802 0.624969 -1.335540
0.714010 0.835816 -1.013603
0.078246 1.027074 -0.769809
-0.416715 1.176302 -0.551774
1.010305 0.816983 -1.196927
0.360370 0.952069 -0.960506
0.175997 0.994657 -0.519247
-0.451860 1.127138 -0.116925
1.186554 0.871568 -1.372992
0.527129 0.949264 -1.141994
-0.196709 1.035460 -0.807389
-0.481884 1.070610 -0.569706
1.130455 0.972488 -1.237467
0.530935 0.989793 -1.093761
0.046317 1.008171 -0.584901
-0.470022 1.024125 -0.367150
0.744938 1.056148 -1.181803
-0.209376 0.993705 -0.878247
-0.542653 0.976069 -0.399808
0.878234 1.152718 -1.158115
0.061932 1.025952 -1.040497
-0.046284 1.014614 -0.541427
-0.580822 0.937587 0.064691
0.983041 1.277553 -1.113697
-0.023720 1.030422 -0.875347
-0.082942 1.018694 -0.617229
-0.671194 0.880725 0.080638
1.099127 1.440926 -0.942129
0.029253 1.073222 -0.915561
-0.270917 0.977294 -0.295489
-0.521307 0.895682 0.086843
1.149118 1.611546 -0.871785
0.028812 1.111287 -1.056179
-0.147111 1.038449 -0.617372
-0.551251 0.868669 0.189969
0.342417 1.338387 -1.024675
-0.365372 0.949039 -0.756765
-0.474318 0.893031 -0.408541
-0.819542 0.708729 0.160654
0.369460 1.464298 -1.612834
0.018573 1.228652 -1.207947
-0.128725 1.135349 -0.623541
-0.351222 0.987585 -0.244436
-1.135034 0.453304 0.077631
0.061303 1.349880 -1.135155
-0.202451 1.139367 -0.667441
-0.399185 0.984946 -0.138824
-1.069765 0.438002 0.240332
0.057729 1.454981 -1.683103
-0.190337 1.218248 -1.218174
-0.308322 1.113677 -0.484940
-0.442859 0.988173 -0.048653
-1.178826 0.268378 0.217286
0.151575 1.717542 -1.305798
-0.437587 1.029381 -1.254833
-0.408968 1.073387 -0.641955
-0.553309 0.918758 0.182869
-0.037106 1.674762 -1.052696
-0.564475 0.937735 -0.996564
-0.679503 0.785215 -0.555702
-0.734730 0.720351 0.091250
-0.179975 1.667626 -1.226677
-0.634245 0.901429 -1.023895
-0.843245 0.559299 -0.458721
-0.849665 0.563871 0.244042
-0.351802 1.591264 -1.144659
-0.634020 1.009654 -0.765387
-0.788723 0.693813 -0.442550
-0.963688 0.341854 0.124839
-0.557108 1.375033 -1.051843
-0.703257 1.002316 -0.496694
-0.823756 0.695385 -0.027318
-0.925139 0.431999 0.206077
-0.633892 1.506561 -1.153006
-0.787189 0.947611 -0.867047
-0.996141 0.187093 -0.445616
-1.010012 0.152846 -0.040986
-0.761915 1.453285 -1.164132
-0.880476 0.785665 -1.083670
-0.957650 0.374328 -0.670448
-0.964128 0.392339 0.180381
-0.874829 1.468975 -1.450849
-0.935368 0.824052 -1.076874
-0.956700 0.635720 -0.641955
-0.951657 0.778788 0.022921
-0.999473 1.555467 -1.509319
-1.004980 0.922048 -0.988546
-1.009052 0.651146 -0.612225
-1.017832 0.585608 0.176600
-1.134462 1.492047 -1.381652
-1.086822 0.911014 -1.097913
-1.081254 0.753564 -0.366416
-1.090099 0.795722 0.093506
-0.999068 -0.289872 0.443437
-1.240431 1.197007 -1.305104
-1.106284 0.464371 -1.135603
-1.038940 0.067348 -0.572819
-1.088145 0.287956 0.151564
-0.939883 -0.518670 0.288301
-1.324055 1.068602 -1.267639
-1.148588 0.412096 -1.187136
-1.146720 0.381244 -0.632000
-1.166359 0.411477 0.363468
-0.926174 -0.479517 0.295906
-1.319110 0.693407 -1.235721
-1.243737 0.464772 -0.563637
-1.172021 0.246133 0.109427
-0.991390 -0.251307 0.172072
-1.514642 0.840991 -1.149857
-1.239373 0.256557 -0.773053
-1.225131 0.216381 -0.369347
-1.196060 0.139119 0.271332
-0.770846 -0.749224 0.294811
-1.562680 0.675699 -1.269375
-1.456475 0.478114 -0.453333
-1.377851 0.332396 0.125613
-1.047961 -0.230955 0.365785
-0.504017 -1.150570 0.339441
-1.705303 0.665273 -1.311180
-1.105379 -0.178946 -1.082772
-0.999137 -0.336076 -0.645512
-1.149475 -0.142359 0.225436
-0.710406 -0.757822 0.267782
-1.605877 0.335251 -1.163437
-1.538067 0.247525 -0.672929
-1.299120 -0.043953 0.028781
-0.875964 -0.542945 0.271451
-0.195172 -1.341195 0.397019
-1.644275 0.206878 -1.021777
-1.232299 -0.202017 -0.732888
-1.029125 -0.405055 -0.501938
-0.767692 -0.672831 0.211448
-0.226206 -1.205127 0.262839
-1.539091 -0.048456 -0.984446
-1.359702 -0.202924 -0.314124
-0.995295 -0.504346 0.186682
-0.406430 -0.980449 0.231192
-1.731912 -0.043461 -1.149857
-1.063187 -0.496790 -0.890486
-1.030278 -0.524369 -0.486356
-0.965355 -0.576683 0.155465
-0.285918 -1.035563 0.291918
-1.384656 -0.382533 -0.961618
-0.789749 -0.712643 -0.872882
-0.409303 -0.926483 -0.602078
-0.482802 -0.895596 0.162196
0.145174 -1.247363 0.514925
-1.360505 -0.495867 -0.984013
-0.981389 -0.668862 -0.576543
-0.472948 -0.899662 -0.128904
-0.101485 -1.069423 0.291556
-1.738882 -0.462019 -1.260342
-1.188842 -0.654183 -0.974159
-0.794801 -0.794283 -0.562949
-0.620098 -0.859436 -0.123513
0.177717 -1.139518 0.406146
-1.018570 -0.783681 -0.818117
-0.740248 -0.855580 -0.588115
-0.198646 -0.995525 -0.137672
0.338452 -1.134462 0.322513
-1.011019 -0.858677 -0.909545
-0.519492 -0.940020 -0.556810
-0.030671 -1.021021 -0.196611
0.434913 -1.100133 0.319966
-0.993053 -0.937604 -0.992406
-0.203641 -0.997411 -0.572904
0.082114 -1.020002 -0.336981
0.451611 -1.053884 0.385077
-0.808581 -1.026395 -1.039949
-0.211905 -1.011727 -0.895326
0.139795 -1.005760 -0.570434
0.139832 -1.013622 0.133112
0.940372 -0.995067 0.427799
-0.539486 -1.070409 -1.306734
-0.105405 -1.022915 -1.044065
-0.078747 -1.026064 -0.488613
0.148274 -1.007331 0.191627
1.026497 -0.907954 0.430731
-1.062149 -1.247569 -0.645607
0.061010 -1.015553 -0.761770
0.467652 -0.936795 -0.344125
0.688471 -0.899239 0.339693
1.513946 -0.729728 0.342888
-0.849807 -1.306112 -0.673627
-0.062373 -1.072120 -0.556455
0.552673 -0.892890 -0.161751
0.945589 -0.780397 0.262475
-0.192207 -1.149952 -1.567665
0.265685 -0.974405 -1.061502
0.157708 -1.023539 -0.537153
0.374243 -0.945845 0.144974
1.198387 -0.621823 0.385297
0.652629 -0.797278 -0.930140
0.621320 -0.818832 -0.460988
0.773101 -0.750210 0.134602
1.698676 -0.289961 0.422883
0.649142 -0.788179 -0.357140
0.775426 -0.720057 0.383962
1.439937 -0.309217 0.293032
-0.207909 -1.400647 -1.436619
-0.072175 -1.309846 -0.703441
0.459515 -0.917510 -0.463613
0.873700 -0.612272 -0.248738
1.323543 -0.283982 0.216306
0.892963 -0.554239 -0.489897
1.113382 -0.366529 0.288682
-0.072117 -1.558088 -0.676415
0.632117 -0.804491 -0.434672
0.994313 -0.415906 -0.371306
1.308265 -0.089135 0.296354
0.257831 -1.294799 -1.414239
0.380821 -1.145075 -0.978813
0.681224 -0.769206 -0.475400
1.028294 -0.332639 -0.020774
1.344846 0.069051 0.200555
0.593057 -0.920780 -1.528668
0.899971 -0.459597 -0.930055
0.873888 -0.512435 -0.316676
1.056430 -0.240630 0.160654
1.584918 0.570776 0.350291
0.606411 -0.990899 -1.382662
0.845818 -0.548186 -1.027145
0.932402 -0.399111 -0.435552
1.023007 -0.238916 0.007392
1.440997 0.543038 0.250272
0.597211 -1.153304 -1.368188
0.766326 -0.766552 -0.956787
0.970545 -0.291325 -0.746535
1.131647 0.071920 -0.173387
1.270931 0.390547 0.162110
0.765226 -0.905718 -1.273178
1.011253 -0.132094 -1.000068
1.048698 -0.031497 -0.498927
1.128509 0.202729 0.038307
1.396814 1.048273 0.286052
0.861934 -0.755172 -0.987453
0.992929 -0.170057 -0.835670
1.055721 0.094087 -0.447621
1.164292 0.558562 0.073592
1.393804 1.589949 0.219490
0.934878 -0.582332 -1.198087
1.022345 0.043083 -0.655827
1.061318 0.309097 -0.268075
1.119090 0.716144 0.159914
1.287478 2.012062 0.142853
0.962660 -0.924616 -1.444801
0.993366 -0.275129 -1.060478
1.011394 0.078529 -0.734305
1.030281 0.411109 -0.254661
1.051742 0.821295 0.173092
1.036342 -0.781185 -1.366078
1.013477 -0.198039 -1.072605
0.999398 0.220095 -0.655107
0.981964 0.760960 -0.045457
0.974577 1.023376 0.346120
1.133848 -0.880014 -1.473727
1.046935 -0.236641 -1.093313
0.960555 0.403935 -0.700898
0.947347 0.525012 -0.350311
0.866571 1.139181 0.207024
1.164228 -0.585127 -1.205016
1.017008 0.061953 -0.969082
0.927368 0.469550 -0.550550
0.806142 1.015604 -0.089080
0.699152 1.496004 0.287393
1.190255 -0.415554 -1.109993
0.935672 0.370941 -0.987567
0.825227 0.736262 -0.266263
0.694799 1.146978 0.011911
1.234860 -0.346082 -1.332305
1.009234 0.192427 -1.037642
0.784257 0.729677 -0.733618
0.617593 1.129062 -0.459729
1.250732 -0.213146 -0.954796
0.894827 0.458277 -0.924313
0.742750 0.756234 -0.447260
0.503944 1.211481 -0.228209
1.280373 -0.132435 -1.170193
0.911283 0.438980 -1.082249
0.618955 0.902558 -0.477031
0.374546 1.282374 -0.349243
1.697044 -0.523022 -1.221922
1.337454 -0.066224 -0.936593
0.694217 0.746186 -0.688959
0.439543 1.073672 -0.265799
1.263355 0.115897 -1.128306
0.811796 0.604017 -0.888635
0.403749 1.044143 -0.730680
0.052135 1.424821 -0.507800
1.149409 0.315394 -1.115118
0.487716 0.913740 -0.898754
0.365838 1.032278 -0.304678
1.659926 0.019899 -1.197150
1.273489 0.312200 -0.702035
0.346351 0.995530 -0.807027
-0.119469 1.343931 -0.494277
1.169119 0.462516 -0.928027
0.505533 0.867606 -1.045022
0.291257 1.005936 -0.508677
1.240057 0.500382 -1.278109
0.516106 0.864851 -1.010317
0.070819 1.091492 -0.648164
1.293794 0.566707 -1.258578
0.889558 0.729075 -0.999843
0.061475 1.057942 -0.781724
-0.477341 1.273966 -0.470093
1.087700 0.725174 -1.041356
0.218614 0.983001 -0.978943
0.039320 1.041192 -0.536836
1.270803 0.773011 -1.230480
0.396712 0.945708 -1.024079
-0.236943 1.073708 -0.627869
-0.742649 1.174769 -0.407757
0.878016 0.914007 -1.298513
0.135996 0.994283 -1.119632
-0.117392 1.027022 -0.584461
1.114962 0.982288 -1.227685
0.451515 0.996624 -0.995144
-0.211875 1.011083 -0.751417
-0.792527 1.024835 -0.439988
1.026957 1.075255 -1.229432
0.282502 1.025738 -1.053485
-0.053274 1.007820 -0.579880
-0.712785 0.965023 -0.328469
0.924556 1.156648 -1.559050
0.360799 1.072524 -1.119983
-0.295751 0.971504 -0.878247
-0.725941 0.906612 -0.604989
0.936553 1.262595 -1.383989
0.163447 1.075652 -0.972417
-0.417963 0.933248 -0.820630
-0.983027 0.796722 -0.510152
0.751945 1.317248 -1.284606
0.046982 1.076930 -1.111795
-0.196412 0.999527 -0.580770
-0.727150 0.822449 -0.124949
0.685513 1.400853 -1.191439
-0.009333 1.092713 -1.167562
-0.305520 0.968854 -0.544647
-0.760661 0.771278 -0.180359
0.256184 1.297797 -1.075099
-0.591023 0.820668 -0.920704
-0.757390 0.732273 -0.477615
-1.030483 0.585921 0.152475
0.381272 1.475279 -1.467634
-0.035387 1.193264 -1.120063
-0.516784 0.866019 -0.822767
-0.794817 0.681160 -0.345569
0.565362 1.768450 -1.014717
-0.358378 1.007926 -0.899204
-0.456851 0.931716 -0.551065
-0.814004 0.646574 0.108474
-0.525389 0.901429 -0.401205
-0.614188 0.819556 -0.052724
-0.065750 1.470769 -0.858041
-0.611888 0.831769 -0.888191
-0.780696 0.643575 -0.355449
-0.998477 0.397194 0.123026
-0.187326 1.466131 -1.041359
-0.527730 0.994578 -0.748526
-0.726017 0.725729 -0.274856
-1.101144 0.207592 0.126690
-0.082706 1.872189 -0.872840
-0.727465 0.750323 -0.962346
-0.745577 0.731295 -0.407266
-0.800922 0.646283 0.089106
-0.336850 1.664596 -0.750177
-0.786013 0.696881 -0.808806
-0.841910 0.585897 -0.459684
-0.972200 0.326140 0.313807
-0.586533 1.281858 -1.594911
-0.687222 1.024111 -1.218879
-0.750140 0.878994 -0.484940
-0.791081 0.785092 0.009109
-1.130827 -0.119631 0.181488
-0.697682 1.269531 -1.157065
-0.807709 0.883130 -0.601275
-0.877821 0.644360 -0.074245
-1.012278 0.152012 0.137788
-0.752830 1.499099 -1.227024
-0.922178 0.558210 -0.933334
-0.987129 0.211004 -0.608203
-0.993419 0.230174 0.244401
-0.926279 0.932971 -1.057527
-0.947810 0.760978 -0.473755
-0.962156 0.678793 0.167050
-1.028205 -0.054807 0.357707
-1.002573 1.208337 -1.210257
-1.003186 0.530016 -1.129193
-1.007629 0.111251 -0.715276
-1.014844 0.399066 -0.080641
-1.111467 1.225756 -1.357797
-1.043719 0.418025 -1.097305
-1.019587 0.081627 -0.624733
-1.047290 0.305278 0.100723
-1.214426 1.045862 -1.097340
-1.125597 0.521864 -0.360885
-1.133241 0.543795 -0.046194
-0.979636 -0.307189 0.327478
-1.329896 1.049423 -1.255146
-1.138794 0.346047 -0.935726
-1.121570 0.256884 -0.291335
-1.061570 0.018082 0.238051
-1.373067 0.807803 -1.080281
-1.107317 0.095727 -1.055469
-1.015772 -0.161507 -0.672947
-0.979695 -0.286392 0.214313
-0.764888 -0.861797 0.229067
-1.575733 0.977052 -1.349191
-1.265131 0.318921 -1.035730
-1.259151 0.292133 -0.484873
-1.301725 0.361709 0.268367
-0.914458 -0.450643 0.341929
-1.542248 0.645840 -1.217647
-1.282403 0.199681 -1.020607
-1.126812 -0.078472 -0.403475
-1.164564 -0.027690 0.204906
-1.523555 0.413677 -1.225586
-1.306098 0.094345 -0.523213
-1.274685 0.045263 -0.268607
-0.886249 -0.513104 0.361224
-1.661837 0.388436 -1.276314
-1.164445 -0.185725 -1.255862
-0.959824 -0.432323 -0.638033
-1.208841 -0.156802 0.051154
-0.608328 -0.857483 0.514486
-1.731844 0.280854 -1.186594
-1.374571 -0.070157 -0.841094
-1.151611 -0.295441 -0.224618
-0.964001 -0.482862 0.156186
-0.286734 -1.143145 0.482125
-1.833256 0.212993 -1.166473
-0.973523 -0.498951 -0.994434
-0.893987 -0.571773 -0.498106
-1.138030 -0.381687 0.281931
-0.443292 -0.956129 0.360853
-1.948447 0.107931 -1.335176
-1.038141 -0.510787 -1.019661
-1.057945 -0.501637 -0.706710
-1.213088 -0.409857 0.253505
-0.416314 -0.949941 0.420732
-1.561788 -0.282369 -0.898277
-1.254832 -0.457037 -0.580501
-0.949995 -0.630578 -0.258752
-0.411826 -0.936653 0.285756
0.306427 -1.337768 0.435130
-1.656781 -0.372484 -1.091928
-1.066982 -0.634120 -0.714558
-0.630780 -0.830357 -0.210921
-0.390220 -0.939863 0.172244
0.342623 -1.262826 0.466584
-1.661220 -0.488029 -1.148123
-0.820685 -0.780146 -0.946016
-0.764041 -0.802709 -0.688948
-0.781257 -0.806812 0.160430
0.189920 -1.144734 0.427949
-1.573066 -0.641260 -1.092969
-0.709824 -0.859239 -0.888592
-0.288172 -0.967646 -0.620746
-0.306780 -0.972828 0.232937
0.469808 -1.170207 0.528065
-1.313998 -0.817214 -1.169476
-0.497642 -0.940555 -1.054196
-0.182910 -0.994652 -0.430411
-0.246520 -0.992054 0.181377
0.543904 -1.113506 0.472603
-1.129713 -0.936726 -1.021434
-0.632398 -0.971150 -0.672395
-0.010887 -1.015334 -0.132284
0.334132 -1.040189 0.196856
-0.897374 -1.027748 -0.989599
-0.284487 -1.012051 -0.994403
0.197281 -1.005442 -0.485487
0.113706 -1.016074 0.274971
0.768120 -1.002248 0.532445
-1.104981 -1.134471 -1.063565
-0.512349 -1.069305 -0.923713
-0.243776 -1.043312 -0.545430
0.002736 -1.021501 -0.016241
0.654519 -0.950932 0.235608
-0.730958 -1.170362 -1.193745
-0.080380 -1.041454 -0.959496
0.185952 -0.991949 -0.577012
0.249943 -0.988071 0.218198
0.912626 -0.855273 0.325938
-0.667971 -1.240689 -1.251923
-0.031178 -1.055959 -1.019324
0.415590 -0.932107 -0.362178
0.354375 -0.957236 0.248375
1.082155 -0.743622 0.300377
-0.726705 -1.370090 -1.346349
-0.363747 -1.232771 -0.643641
-0.173069 -1.159645 -0.356449
0.403490 -0.934587 0.184447
0.954292 -0.715323 0.347261
-0.698560 -1.474457 -1.487715
-0.417271 -1.341325 -0.725397
0.173727 -1.044534 -0.486714
0.618222 -0.823616 -0.123521
0.930133 -0.669577 0.209813
-0.337763 -1.399095 -0.620718
0.305440 -0.998542 -0.591357
0.797542 -0.695793 -0.287417
1.008024 -0.571652 0.249054
-0.084729 -1.315008 -1.408968
0.061921 -1.212851 -0.823299
0.383866 -0.978466 -0.261186
0.678357 -0.759375 -0.082698
1.256584 -0.329188 0.267464
0.002173 -1.340867 -1.457443
0.139392 -1.226470 -0.873042
0.487926 -0.923403 -0.221263
0.809380 -0.638911 0.048646
1.299860 -0.202513 0.306230
0.974020 -0.438524 -0.411103
0.990023 -0.430494 0.144370
1.652769 0.275279 0.333265
-0.002757 -1.637684 -0.644216
0.795204 -0.618602 -0.724903
1.014665 -0.344672 -0.396634
1.030258 -0.334864 0.159930
0.441691 -1.164049 -1.419619
0.579201 -0.963347 -0.742500
0.649107 -0.861383 -0.395018
0.919002 -0.447403 -0.034151
1.345105 0.208777 0.410209
0.759842 -0.703485 -1.453133
0.890874 -0.462134 -1.071577
0.833247 -0.588488 -0.401069
1.020043 -0.244988 0.166193
1.394021 0.462939 0.463323
1.007888 -0.198284 -0.788196
1.110183 0.032051 -0.249947
1.153619 0.121880 0.252688
0.814982 -0.731835 -1.529023
0.923568 -0.407918 -1.056493
0.953856 -0.342077 -0.259658
1.062589 -0.012391 0.068796
1.313754 0.771629 0.217845
0.840527 -0.833831 -1.268584
1.019609 -0.042059 -0.995384
1.063233 0.123667 -0.401699
1.107829 0.301439 0.043029
0.902809 -0.825035 -1.019751
1.033200 0.123985 -0.708479
1.063112 0.310002 -0.261187
1.121469 0.697632 0.318304
0.978364 -0.686425 -1.123596
1.007846 0.057560 -0.943000
1.026511 0.373181 -0.315546
1.043961 0.700094 0.165906
1.031579 -0.642673 -1.521495
1.022146 -0.366031 -1.141639
1.001379 0.135023 -0.782852
0.990238 0.468754 -0.303229
0.975320 0.922050 0.367352
1.083577 -0.533115 -1.329329
1.038564 -0.179916 -1.007933
0.962520 0.397101 -0.705230
0.930118 0.664195 -0.317040
0.875698 1.114420 0.354931
1.135938 -0.475050 -1.213943
1.023136 0.030299 -1.009085
0.959552 0.340687 -0.385927
0.853959 0.822464 -0.020712
0.781044 1.159246 0.313092
1.157119 -0.314943 -0.959393
0.968678 0.270132 -0.959805
0.852134 0.652791 -0.389037
0.756286 0.967980 0.093672
0.478780 1.833315 0.195440
1.293168 -0.494888 -1.374952
1.070112 0.043924 -1.083714
0.815368 0.656701 -0.840629
0.699852 0.949554 -0.210513
0.536054 1.347100 0.068448
1.251279 -0.220203 -1.132531
0.905372 0.437575 -0.955504
0.735101 0.776404 -0.238613
0.537302 1.156670 0.035589
0.006163 2.162232 0.120907
1.188549 0.012765 -0.931487
0.820201 0.584645 -0.838902
0.721893 0.745909 -0.394649
0.344121 1.340789 0.106826
1.286051 -0.009814 -1.340399
0.845551 0.552877 -0.862512
0.538079 0.946181 -0.498767
0.232460 1.337288 -0.127522
1.273899 0.112819 -1.151541
0.718615 0.703856 -0.879470
0.549071 0.891678 -0.343403
0.182743 1.279828 -0.272460
1.375772 0.119071 -1.195849
0.722930 0.703792 -0.834586
0.508518 0.897601 -0.597443
-0.032546 1.382976 -0.246632
1.257761 0.319214 -0.846264
0.581786 0.820796 -0.872292
0.249869 1.073130 -0.450576
-0.279492 1.469819 -0.190938
1.197567 0.443477 -0.973808
0.480624 0.883502 -1.001936
0.089782 1.132277 -0.338832
1.204221 0.518481 -1.222595
0.685179 0.781374 -0.929558
0.151189 1.049979 -0.777024
-0.554149 1.407792 -0.333822
0.963039 0.704093 -1.117944
0.132771 1.026299 -0.903806
-0.057101 1.102900 -0.611194
1.055370 0.739703 -1.173711
0.777518 0.822237 -0.943890
-0.078812 1.070938 -0.723124
-0.654432 1.238289 -0.559570
0.964260 0.835400 -0.970992
0.138586 0.996320 -0.999062
-0.252025 1.079090 -0.428823
1.159897 0.886038 -1.178051
0.646347 0.942259 -0.977539
-0.239898 1.037858 -0.758219
-0.817177 1.102036 -0.445533
1.176819 0.982415 -1.143318
0.577323 0.994488 -0.999135
-0.333164 1.011182 -0.927053
-0.688408 1.021126 -0.591910
1.094656 1.079375 -1.321939
0.512278 1.042111 -1.031690
-0.378168 0.982620 -0.812448
-0.958985 0.945719 -0.499406
1.082342 1.182138 -1.437965
0.359965 1.072077 -1.117857
-0.441929 0.949013 -0.840990
-0.791072 0.897823 -0.508913
0.711700 1.207893 -1.237910
0.003442 1.036500 -0.913158
-0.355897 0.949672 -0.737183
-0.999640 0.793402 -0.484580
0.645301 1.288255 -1.313540
-0.043811 1.049508 -0.990130
-0.577308 0.867061 -0.538280
-1.201269 0.650432 -0.283664
0.417525 1.288514 -1.313918
-0.248409 0.990379 -0.988372
-0.556099 0.856616 -0.512856
-0.933926 0.690389 -0.089825
0.523066 1.444766 -1.320544
0.071756 1.192446 -1.122183
-0.692181 0.765726 -0.756466
-1.014891 0.585802 -0.575891
0.155068 1.324329 -1.097584
-0.349957 0.976927 -1.103270
-0.495819 0.884594 -0.514587
-0.943263 0.585068 0.090063
0.171681 1.440238 -1.160563
-0.580140 0.823249 -1.009959
-0.780094 0.666312 -0.475400
-0.974883 0.513656 0.061067
0.110586 1.525924 -1.137736
-0.209675 1.208527 -1.028570
-0.659000 0.769284 -0.490958
-0.908992 0.525359 -0.162834
-0.033716 1.517876 -0.944669
-0.628010 0.812500 -1.034073
-0.754808 0.669986 -0.592071
-1.014675 0.372118 -0.020774
0.130025 1.930218 -0.970462
-0.446122 1.108761 -1.123596
-0.675778 0.796396 -0.407979
-0.844048 0.561996 -0.168550
-0.084615 1.857685 -0.849357
-0.700457 0.793252 -1.027866
-0.785980 0.662450 -0.287717
-0.915100 0.452003 0.246938
-0.271586 1.785242 -0.931406
-0.729689 0.804961 -1.144480
-0.775577 0.724305 -0.498106
-0.914160 0.445811 0.124889
-0.342075 1.986630 -0.929582
-0.782015 0.788780 -0.875824
-0.902133 0.476587 -0.403214
-0.992594 0.247210 0.129515
-0.843975 0.739959 -1.091280
-0.856903 0.714922 -0.537062
-0.941931 0.416281 0.082316
-1.133703 -0.317047 0.129188
-0.774192 1.376389 -1.055554
-0.905364 0.661269 -0.732928
-0.929369 0.558226 -0.236651
-1.019867 0.073689 0.124839
-0.880862 1.392518 -1.175951
-0.956242 0.571087 -1.063271
-0.964873 0.544387 -0.508681
-0.999627 0.254865 0.260730
-1.007206 1.219298 -1.400710
-1.007460 0.783457 -1.145557
-1.011812 0.528399 -0.620000
-1.019761 0.318435 0.203512
-1.015760 -0.438510 0.249023
-1.121936 1.241911 -1.220425
-1.036499 0.289009 -0.925515
-1.002366 -0.127861 -0.507400
-1.032841 0.140654 -0.020151
-1.167601 0.794664 -0.914000
-1.122806 0.526618 -0.536199
-1.119868 0.485491 -0.131822
-0.973432 -0.346512 0.389752
-1.324374 1.037565 -1.235358
-1.095779 0.191600 -0.881499
-0.954584 -0.324328 -0.819506
-0.967215 -0.314509 0.037508
-1.333591 0.710254 -1.102836
-1.220794 0.391235 -0.635898
-1.226336 0.383693 0.063974
-0.959502 -0.349277 0.492721
-1.499116 0.798556 -1.432113
-1.191557 0.153405 -0.965043
-1.167438 0.097188 -0.708478
-1.119125 -0.024833 0.173555
-0.798794 -0.689291 0.367352
-1.525975 0.599867 -1.332076
-1.079364 -0.153173 -0.980586
-0.986154 -0.318288 -0.541434
-1.066633 -0.198475 0.125960
-0.603007 -0.974063 0.208361
-1.552121 0.450412 -1.121005
-1.455956 0.304191 -0.540650
-1.305847 0.075918 0.366777
-0.854879 -0.555309 0.259808
-1.581584 0.295546 -1.278857
-1.137614 -0.217818 -1.198578
-0.974018 -0.415504 -0.669367
-1.086578 -0.299607 0.146245
-1.539450 0.095123 -1.160409
-1.418058 -0.031474 -0.579055
-1.376474 -0.083968 0.206944
-0.805621 -0.641095 0.484305
-1.462398 -0.106454 -1.018987
-1.431286 -0.137473 -0.617918
-1.241805 -0.298764 -0.095512
-0.735261 -0.713325 0.145954
-1.637830 -0.102921 -1.334509
-1.224403 -0.386189 -0.989295
-1.169503 -0.433817 -0.200254
-1.141892 -0.457827 0.200721
-0.274798 -1.043701 0.313620
-1.695776 -0.204602 -1.278743
-0.973841 -0.606350 -1.166728
-0.823330 -0.697333 -0.577787
-1.095405 -0.556465 0.204955
-0.324800 -0.986679 0.432624
-1.743899 -0.319212 -1.217075
-0.990271 -0.656763 -1.105580
-0.875160 -0.712381 -0.756677
-0.984374 -0.676570 0.298540
-0.235942 -1.012123 0.436228
-1.767566 -0.466713 -1.138132
-0.924343 -0.750850 -0.937493
-0.745440 -0.815801 -0.498744
-0.706713 -0.839812 0.441071
-0.046840 -1.059806 0.397687
-1.779027 -0.589929 -1.212755
-0.900822 -0.809005 -1.163493
-0.732464 -0.857649 -0.576774
-0.971466 -0.808216 0.294718
0.023341 -1.058761 0.557444
-1.687377 -0.762267 -1.176147
-0.953837 -0.873347 -1.010406
-0.784627 -0.905127 -0.427144
-0.704664 -0.924263 0.213047
0.125260 -1.047666 0.199406
-1.480473 -0.913266 -1.161643
-0.577596 -0.969477 -1.110417
-0.177706 -1.000419 -0.547509
-0.405058 -0.994513 0.176464
0.413310 -1.046494 0.315018
-1.077383 -1.031297 -1.066517
-0.677610 -1.027351 -0.512570
-0.247848 -1.019391 -0.249782
0.306327 -1.010400 0.203017
-1.272387 -1.154389 -1.125583
-0.679710 -1.088439 -0.987887
-0.281909 -1.049425 -0.428429
-0.199692 -1.047292 0.214548
0.470618 -0.972103 0.316876
-1.082577 -1.244600 -1.179080
-0.130723 -1.051547 -1.034272
0.262914 -0.977482 -0.468253
0.059564 -1.025653 0.108407
0.763534 -0.885605 0.454850
-1.106155 -1.375258 -1.203915
-0.330013 -1.147018 -0.944558
-0.146681 -1.097497 -0.506552
0.135309 -1.022448 0.263231
0.723129 -0.847453 0.276573
-0.538835 -1.293984 -1.065336
0.062828 -1.059609 -0.681469
0.602104 -0.849048 -0.378053
0.679325 -0.826172 0.270585
-0.518571 -1.381566 -1.208466
0.004393 -1.122702 -0.915539
0.249605 -1.004395 -0.532515
0.401990 -0.935282 0.058223
1.103142 -0.588848 0.501422
-0.244318 -1.327114 -1.131294
0.267116 -1.014873 -0.985144
0.751421 -0.723333 -0.531061
0.686084 -0.773479 0.232466
1.371197 -0.356563 0.531973
-0.045238 -1.290687 -1.179692
0.485647 -0.892747 -0.943351
0.704193 -0.732940 -0.559642
0.709044 -0.739137 0.144623
1.350171 -0.258705 0.440262
0.016892 -1.335094 -1.101448
0.631428 -0.783312 -0.981305
0.872015 -0.576008 -0.354594
0.889002 -0.569069 0.201573
1.392741 -0.116960 0.312725
-0.019178 -1.502623 -0.569995
0.506804 -0.935005 -0.691077
0.958382 -0.453406 -0.446175
1.173648 -0.232236 0.183052
0.837071 -0.560210 -0.975350
1.037289 -0.314246 -0.347415
1.002072 -0.370666 0.265162
1.558957 0.343497 0.360939
0.275816 -1.417921 -1.320538
0.334063 -1.340925 -0.678775
0.650340 -0.857144 -0.383640
1.045341 -0.252368 -0.043207
1.280738 0.106501 0.234568
0.687779 -0.849507 -1.345168
0.823337 -0.592156 -1.112999
0.834736 -0.587252 -0.407147
1.020095 -0.241490 0.161862
1.427546 0.543155 0.403834
0.518095 -1.351531 -1.326136
0.509579 -1.385135 -0.865032
0.875822 -0.525456 -0.415728
1.082139 -0.035709 -0.351760
1.213930 0.264418 0.129414
0.972630 -0.262210 -0.836388
1.100690 0.115772 -0.263362
1.116458 0.149904 0.146644
1.010066 -0.112616 -0.407867
1.065319 0.106436 0.275284
1.258007 0.991048 0.370909
0.923789 -0.653185 -1.469633
0.972775 -0.298482 -1.145877
0.981990 -0.288686 -0.438961
1.029186 0.038457 0.038561
1.153268 0.979510 0.375103
0.987911 -0.343068 -1.327441
1.007227 0.110421 -1.209976
1.012941 0.038572 -0.443819
1.032259 0.348213 0.184545
1.075560 1.400338 0.321660
1.024903 -0.464570 -1.276099
1.009252 -0.044282 -0.861796
1.012254 0.043611 -0.214121
0.997206 0.453161 0.207720
0.959228 1.275304 0.359832
1.058298 -0.348613 -1.241006
1.002395 0.084719 -0.975572
0.989972 0.237585 -0.234741
0.939400 0.644803 0.188750
0.813847 1.564357 0.137876
1.085353 -0.232450 -1.050504
0.956205 0.334085 -0.751571
0.899228 0.596452 -0.366239
0.796923 1.059063 0.152594
1.179538 -0.387047 -1.411160
0.981032 0.230971 -1.025713
0.881404 0.551255 -0.549829
0.783499 0.866430 -0.070191
0.705788 1.116915 0.319401
1.200626 -0.258154 -1.206184
0.917327 0.412817 -0.877675
0.848171 0.586853 -0.436480
0.699986 0.949172 0.135373
0.434621 1.572157 0.248944
1.192227 -0.101130 -1.127127
0.851427 0.542406 -0.796510
0.669592 0.895095 -0.225647
0.549189 1.128855 0.161891
0.053142 2.057502 0.302973
1.295668 -0.151095 -1.208180
0.969397 0.351307 -1.062618
0.789501 0.636399 -0.586618
0.487354 1.108301 -0.126399
0.234064 1.506742 0.398676
1.221838 0.067923 -1.195603
0.824001 0.580554 -0.805930
0.621116 0.847048 -0.326793
0.280003 1.288948 0.137957
-0.333938 2.070099 0.189160
1.170032 0.230276 -0.941732
0.714760 0.710662 -0.701938
0.489290 0.954370 -0.224507
0.151931 1.313445 0.145275
-0.474583 1.970855 0.248769
1.254617 0.223528 -1.141333
0.699785 0.722243 -0.960522
0.405478 0.993909 -0.389037
0.038668 1.327398 -0.017378
1.242818 0.328941 -1.339343
0.827087 0.636918 -1.137482
0.374576 0.975349 -0.686457
-0.023417 1.272597 -0.319238
1.133928 0.488445 -0.873747
0.484706 0.882793 -0.842134
0.077695 1.136470 -0.328663
-0.359966 1.404929 -0.107108
1.058155 0.595673 -1.172316
0.522887 0.861667 -1.026787
0.076965 1.086251 -0.665554
-0.235238 1.244466 -0.334214
1.807542 0.371156 -1.335026
1.145689 0.633894 -0.872288
0.241495 0.987130 -0.715955
-0.143247 1.141698 -0.293787
1.383721 0.638737 -1.297867
0.903417 0.783077 -0.949857
0.110999 1.015988 -0.824593
-0.586503 1.223759 -0.477422
0.954839 0.832997 -1.124785
0.000738 1.024213 -0.969079
-0.165328 1.063946 -0.375648
0.703327 0.935973 -1.233238
0.042021 1.005329 -0.993315
-0.373595 1.051964 -0.571298
1.489188 0.981209 -1.234386
0.857838 0.995841 -0.709066
-0.277346 1.012108 -0.663343
-0.858396 1.023682 -0.349243
0.772186 1.060381 -1.224001
-0.053783 1.001987 -1.102423
-0.519926 0.975711 -0.437525
0.746553 1.135662 -1.151300
0.010541 1.019303 -0.973369
-0.420019 0.953112 -0.703425
0.463625 1.152061 -1.065595
-0.417615 0.930525 -0.999347
-0.586063 0.894886 -0.404592
0.770841 1.339477 -1.336587
0.221796 1.145996 -1.048669
-0.556143 0.868488 -0.924369
-1.104480 0.675515 -0.615059
0.269439 1.221087 -1.086037
-0.410512 0.917830 -0.906021
-0.776612 0.760346 -0.335828
0.351553 1.344618 -1.213729
-0.300019 0.982529 -1.036928
-0.682046 0.772351 -0.767646
-1.119305 0.532552 -0.399555
0.435068 1.519659 -1.399317
-0.166446 1.106220 -1.079227
-0.900786 0.599156 -0.859734
-1.206222 0.389489 -0.677554
0.362793 1.605434 -1.342852
-0.260893 1.089066 -1.083127
-0.783655 0.654417 -0.991782
-1.094459 0.403536 -0.419460
-0.011501 1.400684 -1.235457
-0.427349 0.992157 -0.942574
-0.726923 0.701099 -0.525708
-1.185697 0.251658 -0.122756
-0.047065 1.496478 -1.248645
-0.426452 1.052406 -0.955935
-0.805022 0.609464 -0.653825
-1.181209 0.169449 -0.345586
-0.312075 1.299072 -1.103204
-0.789851 0.623197 -0.980588
-0.848191 0.553006 -0.329603
-1.089764 0.218307 0.095139
-0.248281 1.565837 -1.237429
-0.664235 0.853025 -1.124232
-0.790399 0.651170 -0.444321
-0.968906 0.351460 -0.117036
-0.322834 1.665546 -1.259310
-0.607585 1.066681 -1.031039
-0.846461 0.574888 -0.435744
-1.004947 0.242929 -0.257000
-0.375610 1.891843 -0.961156
-0.765820 0.830223 -0.937158
-0.835819 0.653869 -0.498106
-1.000162 0.227775 0.160814
-0.773730 1.008514 -1.133940
-0.945885 0.351279 -1.046473
-1.015682 0.106903 -0.512856
-1.120947 -0.271968 0.059379
-0.917931 0.585494 -1.153004
-0.952009 0.433266 -0.416891
-0.987354 0.253603 0.021696
-0.934606 0.890388 -1.178285
-0.972799 0.489928 -0.619009
-1.004538 0.179165 0.002366
-1.065479 -0.557516 0.199802
-1.017723 1.573080 -0.872150
-1.010004 0.378490 -0.756516
-1.012776 0.046099 -0.284025
-1.014516 -0.155109 0.007594
-1.137639 1.373256 -1.064446
-1.033710 0.296844 -1.279813
-1.040415 0.284189 -0.576010
-1.029954 0.074967 0.250010
-1.157840 0.746648 -1.016960
-1.097717 0.398993 -0.698575
-1.078859 0.250708 0.034661
-0.937637 -0.537200 0.319408
-1.297064 0.938202 -1.264587
-1.101118 0.219364 -1.092343
-1.061212 0.049675 -0.503801
-1.068695 0.047384 0.196393
-0.761949 -1.063046 0.112350
-1.411230 0.918559 -1.237788
-1.109333 0.096959 -0.885400
-0.997140 -0.219346 -0.411438
-1.004564 -0.221923 0.291826
-1.443686 0.704419 -1.274332
-1.152954 0.090853 -1.193624
-0.949950 -0.349257 -0.688079
-1.027610 -0.207192 0.129370
-0.712546 -0.874946 0.325903
-1.559941 0.653280 -1.250286
-1.123590 -0.084897 -0.751361
-0.850538 -0.541317 -0.692605
-0.770292 -0.687905 -0.101902
-1.533477 0.407045 -1.239518
-1.071223 -0.237416 -0.828272
-0.733329 -0.708505 -0.527255
-0.763300 -0.676043 -0.063644
-1.529370 0.231657 -1.168429
-1.055909 -0.318692 -0.848859
-0.924466 -0.474866 -0.561408
-0.795320 -0.637567 0.264467
-1.570962 0.125575 -1.220710
-1.108937 -0.327217 -0.841317
-0.991128 -0.450279 -0.255131
-0.863539 -0.580503 0.183236
-1.434949 -0.127561 -1.141671
-1.254744 -0.283328 -0.470445
-1.355619 -0.208957 0.045415
-0.673012 -0.765567 0.264109
-1.677191 -0.089041 -1.230496
-0.990742 -0.546254 -1.119274
-0.644294 -0.781811 -0.704900
-0.783947 -0.700056 0.112257
-0.291688 -1.028977 0.270223
-1.502382 -0.312390 -1.146108
-1.265690 -0.448699 -0.770904
-1.065292 -0.568657 -0.097223
-0.692309 -0.779305 0.169319
0.351927 -1.361589 0.331439
-1.763751 -0.306396 -1.414576
-1.084652 -0.612150 -1.247786
-1.001209 -0.657351 -0.603748
-1.151791 -0.599963 0.209858
-0.292229 -0.988254 0.525927
-1.594134 -0.520325 -1.225982
-1.274052 -0.633586 -0.761826
-0.994901 -0.736593 0.001755
-0.649000 -0.855154 0.177887
0.266722 -1.165628 0.355998
-1.391979 -0.696103 -1.014434
-1.207798 -0.745698 -0.581156
-1.089514 -0.778307 -0.236895
-0.490878 -0.929486 0.300056
0.548920 -1.181073 0.275508
-1.741288 -0.750893 -1.247957
-0.958335 -0.873270 -0.843802
-0.772709 -0.906124 -0.408065
-0.712250 -0.924132 0.380590
0.322598 -1.081185 0.499115
-1.355501 -0.921455 -0.990145
-1.084862 -0.942615 -0.616518
-0.754273 -0.968572 -0.150172
-0.284355 -1.003701 0.354630
0.616944 -1.061216 0.441974
-0.785482 -1.025023 -1.006185
-0.904764 -1.033910 -0.487569
-0.676719 -1.035495 0.183081
0.141196 -1.015773 0.314886
-0.982154 -1.133123 -0.909755
-0.874835 -1.125512 -0.418920
-0.547802 -1.090728 0.046918
0.328136 -0.986039 0.271027
-1.048175 -1.248145 -1.145007
-0.256726 -1.082806 -0.882918
0.214474 -0.988379 -0.375902
0.190239 -0.997124 -0.061533
0.956290 -0.839232 0.379603
-1.247951 -1.414547 -1.232084
-0.393723 -1.163797 -1.033508
-0.006955 -1.055772 -0.471047
0.056605 -1.046189 0.322522
0.764641 -0.838754 0.521614
-0.703871 -1.367852 -0.981655
-0.179642 -1.161364 -0.541899
0.357269 -0.948079 -0.241017
0.661782 -0.830794 0.235166
-0.848718 -1.556044 -1.216382
-0.459319 -1.361113 -0.961618
-0.157739 -1.213520 -0.494930
0.268866 -1.002792 0.009822
0.781513 -0.745822 0.317961
-0.583439 -1.543781 -1.180470
0.119095 -1.108058 -1.065399
0.464533 -0.900527 -0.498477
0.470350 -0.906192 0.207151
1.029547 -0.561557 0.465031
-0.123994 -1.360103 -0.992406
0.390932 -0.971226 -0.607039
0.852408 -0.622144 -0.302231
0.819156 -0.654137 0.161862
0.094052 -1.266037 -0.956557
0.347497 -1.045540 -0.486676
0.670731 -0.759357 -0.218425
0.979210 -0.488738 0.204099
0.109025 -1.352472 -1.146738
0.608889 -0.822540 -0.819657
0.896407 -0.521511 -0.400420
0.757829 -0.679353 0.176551
1.406557 0.009887 0.509950
0.254136 -1.321289 -0.776523
0.716807 -0.720164 -0.746753
0.933402 -0.444475 -0.420616
1.076974 -0.270310 0.263521
0.283463 -1.423982 -0.818875
0.677481 -0.815190 -0.492054
1.026920 -0.277508 -0.094556
1.207240 -0.005790 0.387679
0.553906 -1.095468 -1.550773
0.716627 -0.795360 -1.081936
0.764946 -0.718449 -0.436849
