1.687905 -1.873663 7.888312
1.325283 -1.471134 6.494737
1.171463 -1.300385 6.176369
1.101842 -1.223102 5.814495
0.826276 -0.917210 4.750772
0.598294 -0.664137 4.443607
0.488777 -0.542568 4.089138
0.221016 -0.245339 2.973674
0.015775 -0.017511 2.626093
0.047192 -0.052386 2.219453
-0.536797 0.595873 0.677877
2.143408 -2.559610 9.486916
1.599299 -1.909847 8.213417
1.262024 -1.507081 6.791331
1.125678 -1.344259 6.464919
1.009657 -1.205710 6.128473
0.571797 -0.682827 4.328247
0.068393 -0.081674 2.497745
-0.651097 0.777526 0.981081
3.275322 -4.215441 19.052894
3.452371 -4.443309 19.186295
3.175192 -4.086571 19.001563
2.172299 -2.795817 9.933503
2.094747 -2.696005 9.559004
1.958988 -2.521279 9.253043
1.613065 -2.076065 8.261572
1.493709 -1.922450 7.937334
1.364606 -1.756291 7.619256
1.055871 -1.358939 6.587314
0.957837 -1.232766 6.241689
0.907676 -1.168207 5.867556
0.762191 -0.980963 5.137098
0.594071 -0.764588 4.819750
0.458518 -0.590127 4.475899
0.417486 -0.537318 4.095658
-0.002046 0.002633 2.233507
-0.583815 0.751388 0.693700
3.231257 -4.493880 19.245360
3.250298 -4.520362 19.116927
3.022691 -4.203816 18.942544
2.016195 -2.804030 9.711955
1.897565 -2.639044 9.393749
1.475042 -2.051419 8.064204
1.402038 -1.949888 7.700520
1.135326 -1.578959 6.674766
0.959210 -1.334025 6.387778
0.895831 -1.245880 6.023365
0.636136 -0.884707 4.882270
0.448317 -0.623499 4.654523
0.392839 -0.546342 4.280337
0.167701 -0.233230 3.167932
-0.042353 0.058903 2.829495
-0.118465 0.164756 2.447675
2.868104 -4.283104 18.865646
1.954245 -2.918387 10.070173
1.928781 -2.880359 9.640111
1.816563 -2.712779 9.322194
1.392432 -2.079399 8.016819
1.323459 -1.976398 7.652761
1.059083 -1.581590 6.639487
0.905521 -1.352267 6.346850
0.844705 -1.261447 5.977592
0.611499 -0.913187 4.915136
0.447171 -0.667786 4.593974
0.382122 -0.570645 4.231197
0.114420 -0.170871 3.136487
-0.071707 0.107083 2.791851
-0.074837 0.111758 2.392580
2.875942 -4.665550 19.179166
1.837259 -2.980529 10.054024
1.814868 -2.944204 9.627963
1.696683 -2.752476 9.318920
1.308598 -2.122897 7.999570
1.233022 -2.000294 7.650529
0.983793 -1.595977 6.635420
0.850356 -1.379505 6.328647
0.806428 -1.308243 5.955487
0.586506 -0.951470 4.889520
0.419751 -0.680949 4.579649
0.357957 -0.580703 4.211970
0.106565 -0.172877 3.121674
-0.082190 0.133335 2.775450
-0.019896 0.032276 2.359703
2.764474 -4.868806 19.137752
2.564171 -4.516030 18.953282
1.707864 -3.007899 9.720057
1.607444 -2.831038 9.401962
1.358004 -2.391723 8.382904
1.260716 -2.220379 8.061426
1.188922 -2.093935 7.713533
0.977056 -1.720796 6.692057
0.827105 -1.456701 6.401521
0.761734 -1.341571 6.046235
0.564499 -0.994198 4.978539
0.418725 -0.737461 4.663869
0.347714 -0.612396 4.303255
0.156993 -0.276496 3.197958
-0.020941 0.036882 2.860733
-0.097871 0.172372 2.483012
2.458699 -4.725029 19.014542
2.492253 -4.789512 19.063977
1.540907 -2.961255 9.532985
1.418119 -2.725284 9.247133
1.170461 -2.249345 8.244949
1.111836 -2.136682 7.885336
1.004742 -1.930872 7.577198
0.854688 -1.642505 6.907280
0.799324 -1.536109 6.546450
0.715139 -1.374326 6.209703
0.655922 -1.260525 5.851784
0.387459 -0.744602 4.432149
0.289550 -0.556446 4.087684
-0.054498 0.104732 2.324044
-0.439231 0.844097 0.693700
2.366947 -4.943274 19.179166
2.324317 -4.854244 19.022148
1.497070 -3.126571 9.640111
1.409970 -2.944666 9.322194
1.079826 -2.255174 8.012507
1.027235 -2.145340 7.652761
0.822033 -1.716783 6.639487
0.702095 -1.466298 6.342300
0.665810 -1.390518 5.969209
0.485012 -1.012928 4.908272
0.347624 -0.725999 4.598748
0.296594 -0.619424 4.231197
0.110087 -0.229912 3.127953
-0.044982 0.093943 2.788109
-0.047379 0.098950 2.389364
2.085730 -4.808155 18.895177
2.021110 -4.659188 18.842951
1.651357 -3.806811 11.151446
1.393286 -3.211890 9.738700
1.312186 -3.024934 9.421497
1.102743 -2.542112 8.421070
1.015170 -2.340233 8.111518
0.947086 -2.183281 7.770129
0.643990 -1.484565 6.034454
0.437497 -1.008545 5.006548
0.339009 -0.781504 4.678154
0.271526 -0.625938 4.318807
0.117435 -0.270719 3.212159
-0.016256 0.037475 2.870743
-0.078343 0.180602 2.493107
1.986115 -5.100885 19.054143
1.936919 -4.974537 19.052894
1.265490 -3.250124 9.718497
1.190776 -3.058238 9.396918
0.919955 -2.362696 8.081418
0.875202 -2.247757 7.722206
0.715341 -1.837190 6.674237
0.605896 -1.556107 6.387909
0.557965 -1.433006 6.032515
0.395424 -1.015556 4.973683
0.279558 -0.717981 4.664090
0.244579 -0.628146 4.285146
0.095923 -0.246357 3.182103
-0.043691 0.112211 2.847154
-0.082378 0.211569 2.456007
1.743652 -4.942499 18.895177
1.662319 -4.711955 18.785035
1.373986 -3.894655 11.166913
1.171724 -3.321331 9.724965
1.096976 -3.109454 9.421497
0.921883 -2.613141 8.421070
0.847938 -2.403536 8.107219
0.791756 -2.244284 7.770129
0.638917 -1.811054 6.747321
0.561379 -1.591266 6.433266
0.509288 -1.443611 6.086759
0.367564 -1.041885 5.025320
0.269046 -0.762630 4.710190
0.228564 -0.647880 4.338034
0.099344 -0.281597 3.231809
-0.012282 0.034815 2.895763
-0.064358 0.182426 2.518341
-0.312782 0.886602 1.372551
-0.354185 1.003962 0.973049
-0.343035 0.972357 0.553998
1.568320 -5.030676 18.975505
0.822283 -2.637625 8.458433
0.765250 -2.454679 8.041456
0.718141 -2.303570 7.780854
0.588616 -1.888094 6.755022
0.518693 -1.663802 6.437818
0.465072 -1.491805 6.101077
0.271590 -0.871175 4.312731
-0.247150 0.792778 0.574373
1.478755 -5.436297 19.370402
1.496722 -5.502348 19.265811
0.876970 -3.223974 9.490999
0.655607 -2.410187 8.226357
0.422455 -1.553058 6.156329
0.345651 -1.270703 5.856722
0.192968 -0.709403 4.427985
0.201270 -0.739923 4.025201
-0.151678 0.557607 0.649298
-0.585116 2.151041 -2.357282
1.256594 -5.327550 19.144395
1.236729 -5.243330 19.025673
0.792181 -3.358592 9.615809
0.731824 -3.102696 9.244796
0.616405 -2.613359 8.313908
0.571499 -2.422969 7.990941
0.538479 -2.282976 7.641823
0.419340 -1.777868 6.649642
0.361290 -1.531754 6.346374
0.352432 -1.494199 5.950913
0.251071 -1.064459 4.896358
0.166980 -0.707941 4.598625
0.151021 -0.640280 4.217779
0.046621 -0.197659 3.121674
-0.041459 0.175772 2.784209
-0.031325 0.132807 2.377489
1.064815 -5.385141 19.154891
1.091483 -5.520011 19.186295
0.989567 -5.004588 18.919963
0.671910 -3.398086 9.636062
0.632805 -3.200318 9.318091
0.485436 -2.455019 8.016819
0.453054 -2.291252 7.678766
0.355736 -1.799083 6.667620
0.310818 -1.571917 6.351182
0.299054 -1.512419 5.969209
0.217847 -1.101727 4.908272
0.151448 -0.765924 4.605100
0.128502 -0.649879 4.237033
0.049612 -0.250905 3.132877
-0.020056 0.101432 2.793131
-0.021154 0.106984 2.394388
0.880512 -5.517694 19.280129
0.655349 -4.106720 11.163028
0.435019 -2.726029 8.454193
0.403387 -2.527808 8.128704
0.369625 -2.316244 7.813824
0.296514 -1.858096 6.784280
0.259670 -1.627215 6.469493
0.234878 -1.471854 6.122161
0.171189 -1.072749 5.051121
0.132054 -0.827509 4.722756
0.105374 -0.660325 4.368069
0.008981 -0.056280 2.504542
-0.167598 1.050245 0.994184
-0.158219 0.991475 0.621762
-0.321648 2.015595 -1.998900
0.685654 -5.601724 19.436456
0.484743 -3.960304 10.945606
0.405884 -3.316029 9.537068
0.373863 -3.054421 9.255443
0.308339 -2.519101 8.249250
0.292897 -2.392942 7.889673
0.264700 -2.162570 7.581598
0.184554 -1.507788 6.200075
0.160381 -1.310293 5.865990
0.092412 -0.754995 4.426664
0.093296 -0.762219 4.029985
-0.103620 0.846567 0.653520
-0.267582 2.186116 -2.371215
0.469158 -5.546189 19.175926
0.353004 -4.173059 11.240241
0.336474 -3.977652 10.907010
0.281842 -3.331810 9.495081
0.259695 -3.070003 9.213406
0.210537 -2.488874 8.226357
0.073826 -0.872738 4.372324
0.068374 -0.808288 3.994933
-0.036353 0.429747 2.623629
-0.074069 0.875618 0.628206
0.301854 -5.881930 19.357458
0.214545 -4.180621 11.197730
0.204543 -3.985734 10.864545
0.130738 -2.547563 8.165968
0.098189 -1.913303 6.801574
0.087383 -1.702751 6.478576
0.078021 -1.520321 6.136508
0.041976 -0.817943 4.351102
0.003026 -0.058970 2.519475
-0.054466 1.061317 1.010034
-0.046377 0.903708 0.592343
0.050510 -3.453073 9.665885
0.047552 -3.250866 9.347685
0.036666 -2.506659 8.025440
0.034222 -2.339554 7.687478
0.027607 -1.887326 6.666784
0.023854 -1.630740 6.355948
0.022620 -1.546425 5.982926
0.016485 -1.126959 4.922332
0.011456 -0.783184 4.614660
0.009723 -0.664704 4.246658
-0.002586 0.176763 2.809420
-0.003036 0.207542 2.412328
-0.117224 -5.681779 19.491911
-0.106858 -5.179341 18.883568
-0.087273 -4.230080 11.294079
-0.083140 -4.029758 10.957706
-0.071896 -3.484747 9.941200
-0.069721 -3.379350 9.552155
-0.065160 -3.158263 9.245442
-0.053588 -2.597387 8.256089
-0.050501 -2.447743 7.908856
-0.045706 -2.215346 7.601703
-0.035498 -1.720558 6.587314
-0.032167 -1.559108 6.237121
-0.030482 -1.477472 5.862966
-0.024172 -1.171606 5.163387
-0.018509 -0.897122 4.844582
-0.015465 -0.749605 4.485478
-0.014082 -0.682536 4.105273
0.000530 0.025695 2.256537
0.022704 1.100432 0.720274
-0.196782 -3.503439 9.931314
-0.189846 -3.379954 9.560297
-0.177436 -3.159001 9.253705
-0.147186 -2.620439 8.253017
-0.134910 -2.401895 7.935504
-0.123228 -2.193908 7.621170
-0.095408 -1.698612 6.605600
-0.086426 -1.538701 6.259567
-0.083054 -1.478656 5.872146
-0.064533 -1.148930 5.179959
-0.046418 -0.826410 4.874220
-0.039468 -0.702668 4.507456
-0.038410 -0.683846 4.114887
0.001372 0.024428 2.266538
0.064494 1.148225 0.738050
-0.325310 -3.502014 9.943420
-0.313601 -3.375964 9.568437
-0.295089 -3.176680 9.248920
-0.241337 -2.598026 8.277506
-0.223313 -2.403996 7.952849
-0.205910 -2.216654 7.623643
-0.157359 -1.693996 6.605600
-0.142545 -1.534520 6.259567
-0.137131 -1.476233 5.876736
-0.106567 -1.147215 5.184639
-0.076681 -0.825488 4.878988
-0.065095 -0.700759 4.507456
-0.063351 -0.681987 4.114887
0.002263 0.024362 2.266538
0.106390 1.145304 0.732743
-0.751717 -5.782284 19.379145
-0.455108 -3.500740 10.052078
-0.446897 -3.437579 9.640111
-0.421224 -3.240100 9.326297
-0.322908 -2.483837 8.021129
-0.301374 -2.318201 7.683123
-0.239180 -1.839794 6.653755
-0.206350 -1.587263 6.346626
-0.192471 -1.480506 5.981390
-0.138412 -1.064679 4.917300
-0.100330 -0.771750 4.595538
-0.085106 -0.654644 4.227407
-0.029577 -0.227508 3.127289
0.016712 0.128554 2.786823
0.020620 0.158610 2.390759
-0.968045 -5.873287 19.516117
-0.916789 -5.562306 19.193210
-0.572533 -3.473649 10.082277
-0.561625 -3.407468 9.665885
-0.528737 -3.207932 9.347685
-0.404427 -2.453723 8.041075
-0.380858 -2.310725 7.691834
-0.301719 -1.830577 6.653755
-0.260305 -1.579312 6.346626
-0.242797 -1.473090 5.981390
-0.167011 -1.013283 4.844082
-0.122631 -0.744023 4.601876
-0.107172 -0.650228 4.222593
-0.037033 -0.224688 3.117427
0.021329 0.129407 2.776764
0.018158 0.110170 2.374293
-1.154769 -5.656556 19.609447
-1.130481 -5.537582 19.262598
-0.702283 -3.440084 10.023844
-0.689700 -3.378449 9.611756
-0.644718 -3.158104 9.302467
-0.536618 -2.628587 8.309647
-0.497074 -2.434880 7.982311
-0.467925 -2.292099 7.628759
-0.368922 -1.807138 6.626820
-0.318086 -1.558121 6.319275
-0.301062 -1.474731 5.940942
-0.212880 -1.042775 4.884386
-0.144488 -0.707764 4.579442
-0.125572 -0.615105 4.199481
0.009517 0.046619 3.139116
0.036879 0.180649 2.758992
0.003136 0.015363 2.336524
-1.347991 -5.575323 19.317651
-1.268470 -5.246420 19.032719
-0.765892 -3.167745 9.687548
-0.752723 -3.113278 9.269529
-0.615307 -2.544923 8.294630
-0.569429 -2.355171 7.970185
-0.524639 -2.169918 7.636799
-0.407391 -1.684979 6.618971
-0.364185 -1.506277 6.282427
-0.355849 -1.471801 5.891402
-0.241341 -0.998193 4.844082
-0.166840 -0.690056 4.531460
-0.150845 -0.623899 4.150351
0.276042 1.141714 0.749625
-1.460300 -5.257347 19.102624
-0.929201 -3.345296 9.920976
-0.901130 -3.244233 9.531788
-0.842059 -3.031569 9.224773
-0.692281 -2.492337 8.234656
-0.645781 -2.324931 7.894009
-0.583644 -2.101226 7.585997
-0.458652 -1.651233 6.569213
-0.415991 -1.497642 6.223414
-0.387899 -1.396508 5.857396
-0.318529 -1.146762 5.137503
-0.251984 -0.907190 4.816972
-0.199680 -0.718884 4.471109
-0.174993 -0.630008 4.091685
0.000892 0.003213 2.233507
0.288042 1.037005 0.703486
-1.633595 -5.142291 19.091723
-1.521831 -4.790476 18.775513
-1.053946 -3.317649 9.979402
-1.035274 -3.258874 9.567127
-0.968230 -3.047831 9.261287
-0.791353 -2.491051 8.286069
-0.732301 -2.305163 7.961518
-0.681490 -2.145219 7.617315
-0.531887 -1.674293 6.609701
-0.476280 -1.499253 6.273653
-0.458454 -1.443138 5.891402
-0.318617 -1.002954 4.842042
-0.215321 -0.677795 4.536259
-0.194682 -0.612828 4.155169
-0.005925 -0.018651 3.086577
0.065121 0.204989 2.722270
0.363010 1.142697 0.766548
-1.805836 -5.029963 18.966181
-1.775766 -4.946206 18.996109
-1.390354 -3.872681 11.147566
-1.186485 -3.304827 9.708826
-1.117839 -3.113622 9.391848
-0.933214 -2.599368 8.404114
-0.858972 -2.392575 8.094321
-0.793693 -2.210745 7.763681
-0.647056 -1.802304 6.733910
-0.561102 -1.562890 6.433209
-0.499693 -1.391840 6.090040
-0.364283 -1.014670 5.022931
-0.272391 -0.758716 4.700643
-0.223539 -0.622645 4.339196
-0.018109 -0.050442 2.479650
-2.127310 -5.298475 19.509111
-2.013583 -5.015217 19.067497
-1.966682 -4.898401 18.951349
-1.918530 -4.778470 18.983634
-1.217220 -3.031721 9.699859
-1.197157 -2.981751 9.286003
-0.988816 -2.462837 8.308577
-0.923482 -2.300111 7.969361
-0.870069 -2.167075 7.620046
-0.674523 -1.680030 6.609164
-0.579945 -1.444466 6.300707
-0.557785 -1.389271 5.918021
-0.394062 -0.981486 4.860865
-0.266821 -0.664570 4.555455
-0.232204 -0.578348 4.180189
0.006788 0.016906 2.316531
0.437017 1.088475 0.792134
-2.264315 -5.131148 19.293997
-2.292862 -5.195839 19.220814
-2.021385 -4.580648 18.792294
-1.345969 -3.050092 9.432727
-1.124290 -2.547747 8.446486
-1.044211 -2.366280 8.125817
-0.948681 -2.149799 7.822530
-0.768982 -1.742585 6.774739
-0.674670 -1.528864 6.460444
-0.601744 -1.363608 6.122161
-0.448261 -1.015802 5.044086
-0.338314 -0.766651 4.722756
-0.269963 -0.611762 4.368069
-0.112050 -0.253917 3.255898
0.013946 0.031602 2.910773
0.077265 0.175089 2.533479
0.419405 0.950411 0.987626
0.365587 0.828453 0.571382
-2.350393 -4.837598 19.049881
-2.356530 -4.850228 19.029197
-1.532267 -3.153723 9.927277
-1.478262 -3.042570 9.556227
-1.381588 -2.843594 9.249574
-1.145979 -2.358663 8.248739
-1.061082 -2.183927 7.924343
-0.959362 -1.974567 7.616775
-0.751276 -1.546282 6.582789
-0.681490 -1.402649 6.237121
-0.635490 -1.307970 5.871189
-0.511497 -1.052767 5.158713
-0.381609 -0.785430 4.851282
-0.305948 -0.629704 4.493049
-0.287208 -0.591135 4.106129
0.011231 0.023116 2.256537
0.491920 1.012473 0.721201
-2.428899 -4.574437 18.852305
-2.403959 -4.527466 18.906658
-1.625727 -3.061793 9.686135
-1.529488 -2.880542 9.364107
-1.170351 -2.204166 8.058331
-1.102206 -2.075827 7.709249
-0.888597 -1.673529 6.684695
-0.768912 -1.448120 6.378686
-0.718092 -1.352409 6.014214
-0.519815 -0.978987 4.947984
-0.370283 -0.697367 4.638556
-0.314479 -0.592269 4.270716
-0.111216 -0.209457 3.171659
0.069149 0.130230 2.835871
0.107101 0.201707 2.445896
-2.680689 -4.653246 18.983844
-1.762868 -3.060057 10.098405
-1.730478 -3.003833 9.686135
-1.628038 -2.826013 9.364107
-1.256880 -2.181742 8.046982
-1.173225 -2.036531 7.709249
-0.945853 -1.641849 6.684695
-0.818455 -1.420707 6.378686
-0.764361 -1.326807 6.014214
-0.553982 -0.961625 4.952675
-0.382710 -0.664323 4.649738
-0.335323 -0.582067 4.275526
-0.118382 -0.205492 3.171659
0.073604 0.127765 2.835871
0.114002 0.197888 2.445896
-1.869119 -2.983358 10.082277
-1.833509 -2.926518 9.665885
-1.726141 -2.755146 9.347685
-1.332145 -2.126277 8.029749
-1.243367 -1.984576 7.691834
-1.004062 -1.602614 6.675740
-0.868652 -1.386482 6.369592
-0.798726 -1.274871 6.013484
-0.587776 -0.938166 4.943293
-0.418532 -0.668032 4.633777
-0.355409 -0.567278 4.265905
0.104934 0.167488 2.838416
0.121604 0.194096 2.440840
-2.842522 -4.187699 18.769569
-1.985707 -2.925410 10.060138
-1.936559 -2.853004 9.657780
-1.823081 -2.685825 9.339470
-1.381668 -2.035519 8.043756
-1.300249 -1.915570 7.693959
-1.058031 -1.558727 6.657825
-0.914979 -1.347979 6.351399
-0.826627 -1.217815 5.921729
-0.618737 -0.911544 4.924523
-0.439898 -0.648072 4.614660
-0.372700 -0.549074 4.241846
0.085403 0.125818 2.805664
0.116572 0.171738 2.412328
-2.045952 -2.805052 9.694230
-1.926424 -2.641176 9.376416
-1.618058 -2.218398 8.374416
-1.474514 -2.021596 8.071268
-1.388718 -1.903967 7.722304
-1.133449 -1.553988 6.688676
-0.969269 -1.328892 6.392323
-0.891370 -1.222091 6.036395
-0.655572 -0.898806 4.962056
-0.467525 -0.640989 4.652889
-0.397226 -0.544607 4.285146
-0.170300 -0.233485 3.177762
0.056400 0.077326 2.843338
0.133792 0.183432 2.456007
-1.565306 -1.988849 8.181773
-0.983010 -1.248995 6.101641
-0.507761 -0.645152 4.254502
-0.035671 -0.045322 2.509520
0.529034 0.672182 0.575122
-2.711670 -3.195554 11.244092
-2.166791 -2.553444 9.503243
-1.996693 -2.352993 9.221711
-1.633348 -1.924810 8.223431
-1.551492 -1.828348 7.863646
-1.387001 -1.634504 7.565788
-0.977386 -1.151796 6.177173
-0.879539 -1.036489 5.826564
-0.503935 -0.593860 4.396648
-0.476828 -0.561915 4.006832
-2.707255 -2.960552 10.891862
-2.258190 -2.469472 9.499162
-2.095264 -2.291302 9.204613
-1.703563 -1.862952 8.223431
-1.618188 -1.769590 7.863646
-1.461906 -1.598686 7.555191
-1.239357 -1.355314 6.871354
-1.128741 -1.234349 6.533064
-1.021678 -1.117269 6.186335
-0.934375 -1.021798 5.823054
-0.777587 -0.850340 5.097914
-0.641951 -0.702014 4.758237
-0.478133 -0.522869 4.424493
-0.433760 -0.474343 4.043517
0.096430 0.105453 2.117848
0.660218 0.721990 0.641999
-3.487273 -3.561668 18.715213
-2.805222 -2.865067 10.930425
-2.437865 -2.489872 9.894954
-2.351975 -2.402151 9.523636
-2.195921 -2.242767 9.212363
-1.804956 -1.843462 8.221789
-1.669434 -1.705048 7.896443
-1.538621 -1.571445 7.566571
-1.197694 -1.223245 6.564686
-1.087426 -1.110624 6.223414
-1.030515 -1.052499 5.849193
-0.782398 -0.799089 5.159059
-0.573508 -0.585743 4.845607
-0.505026 -0.515800 4.477276
-0.445071 -0.454565 4.014603
0.019267 0.019678 2.241534
0.822875 0.840430 0.707112
-3.702769 -3.517827 18.802032
-2.475109 -2.351485 9.651099
-2.328731 -2.212419 9.332063
-1.807968 -1.717665 7.999570
-1.703552 -1.618465 7.650529
-1.345038 -1.277858 6.653755
-1.160418 -1.102459 6.346626
-1.082370 -1.028309 5.981390
-0.795796 -0.756048 4.910442
-0.582652 -0.553550 4.593974
-0.497059 -0.472232 4.226391
-0.149087 -0.141640 3.136487
0.129272 0.122815 2.799336
0.169406 0.160944 2.405443
-4.328834 -3.819857 19.609447
-2.575618 -2.272782 9.637505
-2.422536 -2.137698 9.314808
-1.868259 -1.648592 7.995256
-1.758775 -1.551981 7.641823
-1.405771 -1.240483 6.635420
-1.215099 -1.072229 6.328647
-1.133445 -1.000177 5.959271
-0.802015 -0.707716 4.903197
-0.571068 -0.503923 4.630598
-0.475032 -0.419178 4.223589
-0.152274 -0.134370 3.121674
0.080370 0.070920 2.768020
0.139983 0.123524 2.378835
-4.364937 -3.597459 19.175800
-4.059398 -3.345643 18.878176
-2.514969 -2.072767 9.594903
-2.426051 -1.999483 9.220637
-2.011480 -1.657806 8.218775
-1.862044 -1.534644 7.894009
-1.716202 -1.414446 7.560331
-1.333524 -1.099054 6.537407
-1.192929 -0.983179 6.200560
-1.129323 -0.930756 5.821634
-0.894566 -0.737276 5.121306
-0.664710 -0.547836 4.808469
-0.551425 -0.454469 4.448490
-0.500282 -0.412318 4.067605
0.443528 0.365543 2.680481
0.850830 0.701230 0.667334
-4.730972 -3.617069 19.488260
-4.467130 -3.415348 19.123851
-2.634201 -2.013981 9.404119
-2.216961 -1.694979 8.404927
-2.040657 -1.560186 8.091492
-1.853206 -1.416870 7.787690
-1.501427 -1.147917 6.738929
-1.315001 -1.005385 6.419585
-1.172164 -0.896179 6.080858
-0.852101 -0.651475 5.004130
-0.636339 -0.486514 4.681546
-0.521800 -0.398942 4.319941
-0.058527 -0.044747 2.441475
0.768744 0.587744 1.337529
0.867229 0.663041 0.931975
-2.828544 -1.999651 9.682087
-2.663130 -1.882711 9.364107
-2.234643 -1.579790 8.357432
-2.055992 -1.453492 8.046982
-1.917435 -1.355539 7.704896
-1.303988 -0.921860 5.975237
-0.862550 -0.609783 4.947691
-0.661377 -0.467563 4.617841
-0.524874 -0.371062 4.262145
-0.170721 -0.120692 3.156235
0.143099 0.101164 2.819503
0.229135 0.161988 2.432157
-4.630363 -3.031811 19.064824
-4.417186 -2.892230 18.982616
-2.880393 -1.885988 9.649673
-2.711496 -1.775399 9.331252
-2.274321 -1.489151 8.323434
-2.071361 -1.356260 8.019490
-1.865954 -1.221766 7.632414
-1.535806 -1.005596 6.672113
-1.321003 -0.864950 6.360065
-1.191291 -0.780019 6.011127
-0.879234 -0.575694 4.928866
-0.673420 -0.440934 4.598748
-0.518541 -0.339524 4.165717
-0.172044 -0.112649 3.136487
0.149178 0.097677 2.799336
0.236975 0.155163 2.411875
-4.799992 -2.917397 19.269655
-4.760691 -2.893510 19.089179
-2.818249 -1.712909 9.375477
-2.371061 -1.441112 8.375284
-2.151995 -1.307966 7.992594
-1.980784 -1.203905 7.757174
-1.335621 -0.811780 6.028622
-0.913097 -0.554973 4.990025
-0.680144 -0.413386 4.662443
-0.557273 -0.338706 4.300681
-0.205622 -0.124975 3.191372
0.081125 0.049307 2.848357
0.171692 0.104353 2.462821
0.827854 0.503163 1.321756
0.933510 0.567380 0.916101
-4.842657 -2.708856 19.224532
-4.623589 -2.586315 18.934299
-3.030081 -1.694948 9.694230
-2.853058 -1.595926 9.376416
-2.415578 -1.351211 8.362571
-2.203206 -1.232416 8.059900
-2.017431 -1.128498 7.744087
-1.362629 -0.762219 6.024054
-0.930169 -0.520312 4.980620
-0.694628 -0.388557 4.662443
-0.568117 -0.317790 4.295865
-0.019303 -0.010798 2.433148
-4.929941 -2.519533 19.186302
-3.089220 -1.578800 9.690183
-2.906407 -1.485370 9.368211
-2.460540 -1.257502 8.354092
-2.245962 -1.147838 8.055594
-2.094699 -1.070533 7.713601
-1.426352 -0.728962 5.988909
-0.946629 -0.483791 4.971213
-0.704205 -0.359897 4.643334
-0.576523 -0.294642 4.281415
-0.190018 -0.097112 3.180915
0.152610 0.077994 2.844707
0.246903 0.126184 2.457505
-4.907435 -2.276012 19.071016
-2.944549 -1.365648 9.667015
-2.896520 -1.343372 9.253043
-2.389135 -1.108053 8.270124
-2.210532 -1.025219 7.941664
-2.040059 -0.946156 7.612935
-1.613118 -0.748145 6.595922
-1.383045 -0.641440 6.286624
-1.307994 -0.606633 5.911625
-0.931634 -0.432081 4.844082
-0.666006 -0.308886 4.525226
-0.604376 -0.280303 4.144634
0.019377 0.008987 2.291536
1.042549 0.483522 0.759278
-5.221369 -2.220502 19.366733
-3.657910 -1.555607 10.926069
-3.101205 -1.318856 9.489839
-2.859536 -1.216080 9.208759
-2.325143 -0.988818 8.227736
-2.208631 -0.939269 7.867985
-1.995438 -0.848604 7.559594
-1.558995 -0.662997 6.519395
-1.348487 -0.573474 6.199021
-1.187151 -0.504862 5.855585
-0.650901 -0.276810 4.419692
-0.702624 -0.298806 4.010846
0.930201 0.395588 1.044317
0.854644 0.363456 0.629842
-3.257656 -1.245971 9.718497
-3.067720 -1.173326 9.401016
-2.595839 -0.992843 8.383757
-2.391010 -0.914501 8.074315
-2.191931 -0.838358 7.759327
-1.464446 -0.560114 6.042321
-1.001834 -0.383176 5.004130
-0.757736 -0.289815 4.719735
-0.612392 -0.234224 4.315127
-0.022524 -0.008615 2.448110
-3.914731 -1.334698 11.174646
-3.123310 -1.064869 9.425591
-2.622742 -0.894204 8.421070
-2.435499 -0.830365 8.100077
-2.209995 -0.753481 7.792047
-1.494971 -0.509699 6.074272
-1.047010 -0.356970 5.030012
-0.789497 -0.269173 4.708459
-0.628406 -0.214250 4.348822
-0.051368 -0.017513 2.484628
0.984018 0.335494 0.971795
0.904828 0.308494 0.557105
-2.419827 -0.726970 8.227736
-2.296516 -0.689925 7.863646
-2.074722 -0.623293 7.555191
-1.627594 -0.488966 6.532988
-1.429106 -0.429335 6.199562
-1.285356 -0.386150 5.853204
-0.750528 -0.225475 4.415770
-0.641038 -0.192582 4.047563
0.551845 0.165787 2.670180
0.888778 0.267009 0.650829
0.510210 0.130891 2.999400
-3.206794 -10.615704 -7.622342
-9.079300 7.421205 -10.151507
-6.359527 9.348529 -10.049918
-5.734924 0.874240 -3.569980
-5.482469 0.835756 -3.751871
-5.378331 1.016357 -3.886869
-5.440745 1.237238 -3.697130
