2.234161 -1.270176 3.122065
2.197616 -1.250360 4.031712
2.192857 -1.521483 1.380466
2.214487 -1.537765 2.434739
2.171970 -1.509041 3.116037
2.132769 -1.482788 3.971193
2.112573 -1.757522 0.536140
2.006015 -1.669571 1.097447
1.978381 -1.647769 2.071564
2.002336 -1.668814 2.949268
2.009257 -1.675455 3.649779
1.590827 -1.327482 4.674818
1.904772 -1.915310 1.569035
1.908642 -1.920677 2.613655
1.879307 -1.892215 3.379464
1.785180 -1.798350 4.084567
1.927576 -2.324636 0.198319
1.762621 -2.127282 1.187768
1.727614 -2.085890 1.737414
1.723864 -2.082629 2.550514
1.681339 -2.032861 3.615806
1.495798 -1.809300 4.222378
1.651907 -2.378640 0.356042
1.578784 -2.275194 1.387401
1.578397 -2.275675 1.966331
1.586903 -2.289798 2.998979
1.511464 -2.181814 3.518652
1.285872 -1.857602 4.555355
1.412063 -2.496018 1.341886
1.398984 -2.475120 2.383354
1.377946 -2.438916 2.871085
1.340412 -2.982044 0.093327
1.264916 -2.817186 1.198592
1.240769 -2.764672 1.660188
1.228915 -2.740650 2.541172
1.249800 -2.789172 3.240336
1.211308 -2.706197 4.345909
1.091993 -3.170006 1.594367
1.070802 -3.111237 2.324423
1.054482 -3.066566 3.067820
0.905373 -3.635529 0.409599
0.895920 -3.601805 1.137999
0.881696 -3.550683 2.198902
0.866392 -3.492415 2.801301
0.863536 -3.485363 3.599313
0.819270 -3.311381 4.504714
0.650515 -4.042327 0.010145
0.615028 -3.829390 0.826626
0.609707 -3.802959 1.552953
0.608299 -3.802676 2.474675
0.605255 -3.791196 3.297485
0.593929 -3.725739 3.912640
0.251226 -3.762129 0.296764
0.241198 -3.630836 1.212154
0.238834 -3.609441 1.902454
0.236113 -3.585232 2.729336
0.234948 -3.586014 3.630158
0.216834 -3.320014 4.210488
-0.087133 -3.396250 1.457925
-0.087465 -3.376952 2.111550
-0.087758 -3.342162 3.070134
-0.421409 -3.594752 0.051371
-0.383549 -3.261280 1.047208
-0.385156 -3.266526 1.846297
-0.381186 -3.226496 2.462369
-0.377382 -3.186230 3.258830
-0.360584 -3.036936 4.050403
-0.651974 -3.154105 0.332263
-0.625941 -3.023366 1.177754
-0.620255 -2.990524 2.140049
-0.611203 -2.942624 2.918863
-0.601604 -2.891901 3.765655
-0.514090 -2.468433 4.428329
-0.859370 -2.793945 1.486649
-0.822062 -2.669515 2.386447
-0.810231 -2.628373 3.181585
-0.822596 -2.665214 4.121377
-1.185801 -2.912351 0.114442
-1.069840 -2.624861 1.080578
-1.043660 -2.558583 1.840249
-1.037439 -2.540820 2.780197
-1.046967 -2.561796 3.656701
-0.948539 -2.319488 4.290844
-1.289615 -2.484010 0.587935
-1.254832 -2.415131 1.452316
-1.250813 -2.405615 2.275357
-1.259434 -2.420816 2.908216
-1.647416 -2.591172 0.302300
-1.425676 -2.241212 0.959055
-1.429959 -2.246347 1.834484
-1.434878 -2.252973 2.436313
-1.421527 -2.230250 3.413264
-1.322381 -2.073597 4.092427
-1.583816 -2.056340 1.425360
-1.618825 -2.100039 2.522198
-1.662893 -2.156166 3.152087
-1.580995 -2.048873 3.876205
-1.876041 -2.012847 0.746368
-1.818905 -1.950709 1.327798
-1.826481 -1.957690 2.118880
-1.845122 -1.976516 2.910096
-2.090111 -1.899274 0.608535
-2.008489 -1.824293 1.210351
-1.957349 -1.776872 1.951623
-1.969952 -1.786946 2.987613
-2.368533 -1.753900 0.470613
-2.181266 -1.614297 1.220872
-2.187336 -1.617830 1.989919
-2.194542 -1.622448 2.559383
-2.222000 -1.641427 3.604165
-1.969518 -1.454017 4.447434
-2.409278 -1.489184 1.710814
-2.369283 -1.463814 2.249938
-2.324426 -1.434915 3.257262
-2.315300 -1.428202 4.181960
-2.750717 -1.368226 0.469080
-2.603491 -1.294352 1.005195
-2.563715 -1.273609 1.824998
-2.538987 -1.260378 2.636673
-2.508179 -1.244137 3.463060
-2.202845 -1.091861 4.317524
-2.833733 -1.105037 1.304483
-2.823659 -1.100074 2.162316
-2.841793 -1.105931 3.156906
-3.137657 -0.914613 1.348666
-3.107672 -0.904720 2.265207
-3.116246 -0.906167 3.098950
-3.073860 -0.892767 3.972276
-3.775532 -0.727009 0.204257
-3.539145 -0.680593 0.853257
-3.468335 -0.665858 1.679708
-3.458403 -0.662963 2.413706
-3.484511 -0.666621 3.406153
-3.482080 -0.665175 4.134220
-3.782924 -0.371956 0.715814
-3.773019 -0.370168 1.278922
-3.757836 -0.367559 2.058614
-3.715456 -0.362190 2.925218
-3.709644 -0.360518 3.710392
-3.462128 -0.335283 4.643222
-3.845113 -0.054939 0.296171
-3.560056 -0.049788 1.101378
-3.617516 -0.049482 1.912729
-3.640324 -0.048719 2.694921
-3.548328 -0.046537 3.416447
-3.461457 -0.044282 4.289579
-3.330674 0.263035 1.283909
-3.263477 0.258646 2.034167
-3.259917 0.259663 3.096921
-3.220305 0.257314 3.769917
-2.816459 0.225705 4.446745
-3.371406 0.584521 0.423472
-3.084960 0.535475 0.947269
-3.071327 0.534251 1.917258
-3.033417 0.528385 2.546628
-3.007100 0.524871 3.482377
-2.919441 0.510506 4.335456
-2.914292 0.776158 1.284458
-2.862115 0.763393 2.281546
-2.856326 0.762586 2.933119
-3.026121 1.098517 -0.020767
-2.709124 0.984611 1.005849
-2.632453 0.957359 1.564973
-2.614651 0.952023 2.608587
-2.635143 0.960168 3.229957
-2.542030 0.927337 4.279377
-2.530053 1.191613 0.419962
-2.454940 1.157134 1.231394
-2.368375 1.117095 1.952883
-2.376059 1.121724 2.894647
-2.442964 1.154260 3.758519
-2.086225 0.986391 4.538927
-2.281618 1.343776 0.526991
-2.215216 1.305676 1.447400
-2.215883 1.306707 2.029327
-2.246199 1.325631 2.970368
-2.102299 1.495306 1.658579
-2.115232 1.505420 2.441034
-2.099042 1.494782 3.206540
-2.022206 1.441024 4.079223
-2.046043 1.754646 0.284213
-1.924654 1.651595 1.141853
-1.950036 1.674429 1.987087
-1.952726 1.677819 2.856144
-1.951350 1.677717 3.728400
-1.646171 1.415800 4.219902
-1.775059 1.834433 1.606824
-1.773362 1.833905 2.518146
-1.779008 1.840802 3.303682
-1.693629 1.753179 3.880556
-1.665703 2.058023 0.505913
-1.584195 1.958608 1.385824
-1.556590 1.925503 2.098079
-1.583780 1.960164 2.796382
-1.570379 1.944954 3.746168
-1.239534 1.536206 4.697376
-1.586799 2.362683 0.366991
-1.427831 2.127342 1.172805
-1.437346 2.142344 1.658579
-1.420281 2.118331 2.507580
-1.380272 2.060319 3.534522
-1.248902 1.865163 4.201210
-1.229983 2.255055 1.373477
-1.240153 2.275677 2.367157
-1.220476 2.241206 3.208604
-1.182206 2.172375 3.983954
-1.146146 2.659857 0.387457
-1.022982 2.375882 1.161492
-1.033497 2.402050 1.879050
-1.028208 2.391368 2.546558
-0.991922 2.308805 3.339660
-0.909533 2.119032 4.302202
-0.883481 2.708361 0.587171
-0.858593 2.634875 1.439930
-0.861356 2.645899 2.207930
-0.843121 2.592006 2.866146
-0.844165 2.598270 3.808681
-0.725993 2.236288 4.480049
-0.676566 2.901188 1.631009
-0.668126 2.868777 2.419001
-0.671414 2.885785 3.016752
-0.658200 2.832726 3.812417
-0.492268 3.535248 -0.041152
-0.430139 3.094694 0.624609
-0.429128 3.095000 1.520544
-0.431556 3.120799 2.489633
-0.434215 3.145878 3.167414
-0.436106 3.168391 4.182712
-0.168413 3.691439 0.266597
-0.161159 3.561581 1.255724
-0.158102 3.511846 1.866287
-0.157933 3.529438 2.588796
-0.158107 3.564324 3.622266
-0.151775 3.443010 4.374977
0.162832 4.116203 0.081103
0.147656 3.702715 0.922750
0.146447 3.649616 1.581771
0.145449 3.604472 2.181264
0.147301 3.612071 3.317217
0.142192 3.468272 3.912812
0.465831 3.539915 0.288058
0.436299 3.307457 1.128646
0.438716 3.317529 1.988766
0.435248 3.284827 2.676693
0.426320 3.209219 3.580685
0.402767 3.024719 4.441767
0.693944 3.071766 1.509146
0.702011 3.101814 2.560767
0.661365 2.919640 3.087911
0.637696 2.810592 4.047887
0.904697 2.828789 1.401106
0.869713 2.716927 2.119775
0.891413 2.781182 3.114868
1.205862 2.824021 0.323148
1.094453 2.561074 1.102986
1.057719 2.473173 1.875410
1.043602 2.437677 2.882242
1.082955 2.527402 3.732650
0.965499 2.252196 4.243380
1.248160 2.313703 1.635350
1.210607 2.242445 2.475882
1.229960 2.276579 3.333226
1.231972 2.278695 4.142662
1.420869 2.173397 0.422143
1.363832 2.084684 1.302065
1.386424 2.117709 2.190527
1.416488 2.162238 2.993395
1.584464 1.963434 1.491562
1.602400 1.984146 2.507580
1.562599 1.933696 3.320639
1.555634 1.924113 3.994541
1.949015 2.038198 0.241324
1.702926 1.779589 1.207601
1.685005 1.760082 1.813367
1.678838 1.752713 2.536853
1.692211 1.765520 3.430858
1.501255 1.565452 4.198563
1.901822 1.657580 0.518122
1.858269 1.618745 1.249958
1.852225 1.612367 2.184167
1.772990 1.542618 2.872696
1.934982 1.407391 1.347854
1.913222 1.390496 2.349045
1.894439 1.376070 3.087035
1.933258 1.403396 3.896134
2.160812 1.275351 1.756987
2.066609 1.219004 2.496054
2.048175 1.207402 3.223048
2.010961 1.184612 4.094903
2.368640 1.132396 0.685517
2.271304 1.085200 1.332951
2.278407 1.087834 2.074236
2.228713 1.063395 2.789391
2.396247 0.879759 1.606824
2.438085 0.894260 2.451588
2.449601 0.897632 3.288883
2.398669 0.878229 4.039691
2.888301 0.794310 0.302893
2.685645 0.737725 1.102986
2.660484 0.730136 1.745674
2.635486 0.722373 2.611966
2.617464 0.716395 3.619343
2.474268 0.676490 4.369851
2.902417 0.517001 1.485681
2.913384 0.518126 2.229277
2.895975 0.514113 3.060552
2.867683 0.508229 3.854288
2.345700 0.415175 4.530254
3.357776 0.282641 0.155136
3.219241 0.270048 0.924027
3.224032 0.269429 1.765695
3.207894 0.266889 2.756413
3.155050 0.261802 3.346284
3.083375 0.254685 4.373499
3.499912 0.000103 0.649394
3.487611 -0.000588 1.175740
3.497292 -0.001676 2.001531
3.507146 -0.002893 2.922078
3.528087 -0.003979 3.730050
3.265982 -0.004647 4.553540
4.200881 -0.394194 0.010111
3.837655 -0.361388 0.878229
3.779882 -0.356747 1.432322
3.724103 -0.352737 2.317434
3.745803 -0.356172 3.283593
3.723602 -0.355185 4.081724
3.705737 -0.690980 0.143267
3.496015 -0.652985 0.957306
3.485077 -0.652315 1.968005
3.481006 -0.652560 2.712356
3.471569 -0.651865 3.511393
3.285291 -0.617641 4.124945
3.286662 -0.933667 1.302032
3.205136 -0.911651 2.186802
3.189099 -0.908187 3.041079
3.100936 -0.883900 3.707630
2.595321 -0.740476 4.440049
3.245778 -1.228815 0.309452
3.002800 -1.137879 1.132361
2.955466 -1.120757 1.779570
2.917574 -1.107632 2.784454
2.850909 -1.083121 3.451089
2.689631 -1.022721 4.239136
2.720352 -1.331078 1.618447
2.666082 -1.305460 2.386072
2.635888 -1.291766 3.292736
2.593552 -1.271693 3.867259
2.448145 -1.494229 1.352365
2.420355 -1.478389 2.267998
2.388278 -1.459484 2.839592
2.387167 -1.773667 0.595713
2.177324 -1.618503 1.199830
2.141218 -1.592579 1.950362
2.191556 -1.631275 2.950283
2.194881 -1.634559 3.595978
1.851010 -1.379189 4.323466
2.395966 -2.114056 0.270142
2.125748 -1.876822 1.122531
2.045276 -1.806451 1.631124
2.000518 -1.767943 2.415247
1.992996 -1.762454 3.305720
1.918008 -1.697122 4.103074
1.801367 -1.898604 1.329516
1.788426 -1.885978 2.059676
1.777454 -1.875675 2.982839
1.856761 -2.350566 0.292449
1.628909 -2.062974 0.843691
1.629074 -2.064452 1.656439
1.659022 -2.103847 2.562694
1.652417 -2.096811 3.411065
1.556249 -1.976185 4.375457
1.467779 -2.264997 0.599987
1.422695 -2.196716 1.329516
1.450951 -2.241528 1.981962
1.489447 -2.302430 2.748658
1.239625 -2.348615 1.676443
1.218508 -2.309846 2.281244
1.203581 -2.283525 3.259330
1.204009 -2.285993 4.079327
1.125300 -2.722699 0.366036
1.054121 -2.552585 1.156244
1.033780 -2.504927 1.768981
1.014775 -2.461206 2.680249
1.000783 -2.429333 3.499830
0.911910 -2.215675 4.431906
0.797314 -2.573684 1.390100
0.810473 -2.619507 2.368513
0.797210 -2.579335 3.175174
0.782248 -2.533648 4.008244
0.645113 -2.924658 0.219338
0.598663 -2.717940 1.029472
0.599648 -2.726647 1.912559
0.594896 -2.709450 2.841431
0.596220 -2.718910 3.559830
0.546641 -2.496846 4.510017
0.420637 -3.368312 0.103356
0.377639 -3.031176 0.886561
0.371347 -2.988999 1.807443
0.367032 -2.961601 2.626414
0.366131 -2.959980 3.257117
0.355035 -2.876328 3.961509
0.101004 -3.246711 1.484442
0.098132 -3.182206 2.216215
0.097285 -3.184053 2.978314
-0.217194 -3.639674 0.369622
-0.216318 -3.606390 1.182130
-0.217658 -3.611825 1.923003
-0.214380 -3.538890 2.763830
-0.213860 -3.511551 3.627045
-0.207996 -3.402205 4.264218
-0.605254 -4.050527 0.294194
-0.571079 -3.814928 0.990536
-0.576791 -3.844931 1.806982
-0.575524 -3.830296 2.432208
-0.569373 -3.782562 3.134025
-0.559475 -3.709175 3.945949
-0.911280 -3.687014 0.521537
-0.881494 -3.561633 1.365271
-0.878523 -3.545436 2.096259
-0.881409 -3.552179 2.951568
-0.880642 -3.544730 3.717764
-0.812358 -3.265755 4.541651
-1.107014 -3.296357 1.578806
-1.083632 -3.224697 2.089493
-1.093669 -3.250092 3.198345
-1.520009 -3.422028 0.081921
-1.342908 -3.020723 0.932567
-1.322168 -2.972082 1.598565
-1.308301 -2.938697 2.349770
-1.307810 -2.934770 3.310759
-1.253421 -2.810842 3.995663
-1.652314 -2.965804 0.227382
-1.538811 -2.759980 1.092250
-1.507844 -2.702390 1.960182
-1.489417 -2.667954 2.569146
-1.482999 -2.654034 3.620285
-1.352923 -2.419635 4.420972
-1.696196 -2.505338 1.545397
-1.617933 -2.388423 2.244105
-1.578497 -2.328765 3.028521
-1.561417 -2.302161 3.803766
-2.067736 -2.502684 0.394301
-1.820733 -2.202696 1.016986
-1.813664 -2.192549 1.983479
-1.774538 -2.144231 2.619089
-1.769847 -2.137211 3.465300
-1.631333 -1.968763 4.295911
-1.912765 -1.937301 1.473354
-1.870905 -1.893771 2.288835
-1.884838 -1.906527 3.250941
-1.840374 -1.860656 3.915907
-2.235304 -1.879876 0.324416
-2.034140 -1.709836 1.001202
-2.010679 -1.688743 2.089984
-2.063817 -1.732471 2.783794
-2.077494 -1.742894 3.598300
-1.811441 -1.518865 4.371042
-2.161281 -1.523698 1.391899
-2.198729 -1.548961 2.329470
-2.197081 -1.546971 3.017272
-2.595766 -1.493220 0.146226
-2.283120 -1.312367 1.044023
-2.290968 -1.315896 1.920001
-2.323616 -1.333917 2.562694
-2.301503 -1.320165 3.508114
-2.119874 -1.215313 4.179816
-7.747407 -3.547778 -0.339638
-2.496632 -1.142488 0.315383
-2.423732 -1.108104 1.264593
-2.450900 -1.119754 1.970154
-2.413686 -1.101755 2.903318
-2.347952 -1.070825 3.802309
-2.015386 -0.918669 4.387779
-2.553720 -0.888389 1.632181
-2.598238 -0.902938 2.505174
-2.561090 -0.889504 3.004802
-2.483782 -0.861617 4.031912
-3.024277 -0.765674 0.166569
-2.647869 -0.669556 0.957194
-2.633720 -0.664999 1.905759
-2.646282 -0.667493 2.559383
-2.580758 -0.650209 3.316255
-2.487590 -0.625729 4.369851
-2.983730 -0.474873 0.386195
-2.830491 -0.449515 1.289488
-2.814735 -0.446184 2.067357
-2.777261 -0.439613 2.669867
-2.761157 -0.436009 3.685837
-2.376015 -0.374691 4.291234
-2.985927 -0.221917 1.379303
-2.980863 -0.220504 2.311400
-3.011210 -0.221867 3.096340
-2.946908 -0.216393 3.776110
-3.345377 0.062713 0.351870
-3.267646 0.062474 1.348666
-3.227132 0.062615 2.109509
-3.172293 0.062376 2.812005
-3.179147 0.063635 3.764451
-2.927770 0.059092 4.244115
-3.746603 0.421215 0.255832
-3.506828 0.395057 0.854954
-3.461091 0.391035 1.712865
-3.454069 0.391260 2.489092
-3.479255 0.395386 3.451874
-3.384457 0.385319 4.013533
-4.109076 0.842071 -0.101174
-3.727136 0.765263 0.889625
-3.746933 0.770268 1.523335
-3.735410 0.769018 2.282152
-3.679928 0.758951 3.222177
-3.670466 0.757996 3.915233
-3.477213 1.030569 1.562277
-3.499188 1.037777 2.044931
-3.549071 1.054205 3.164948
-3.313613 1.335363 0.493805
-3.120729 1.258660 1.252033
-3.081003 1.243653 2.010785
-3.136187 1.267189 2.931716
-3.071485 1.241907 3.584018
-2.741919 1.109432 4.283187
-3.334394 1.705249 0.245762
-2.899474 1.483835 0.985660
-2.826447 1.447196 1.539344
-2.829606 1.450160 2.550373
-2.830461 1.451500 3.229781
-2.765127 1.419040 4.045135
-2.605240 1.627555 0.437809
-2.579047 1.612347 1.304483
-2.474098 1.547538 1.937754
-2.413435 1.510676 2.814945
-2.493852 1.562091 3.650625
-2.139525 1.340982 4.460049
-2.267091 1.734647 1.646808
-2.209546 1.691338 2.207930
-2.244807 1.719643 3.206887
-2.254013 1.727904 4.126542
-2.236290 2.029861 0.250508
-2.045437 1.857944 1.208783
-2.032600 1.847379 2.009656
-1.985976 1.805835 2.636403
-1.991745 1.812084 3.387812
-1.824129 1.660779 4.391651
-1.734232 1.892880 1.331233
-1.767300 1.930462 2.376179
-1.763488 1.927214 3.023116
-1.828905 2.402971 0.187881
-1.549192 2.036823 1.067175
-1.548694 2.037235 1.754725
-1.547888 2.037536 2.634356
-1.528258 2.012574 3.210667
-1.444975 1.904232 4.153338
-1.375111 2.203826 0.506567
-1.360650 2.182347 1.457960
-1.377587 2.210795 2.165194
-1.345811 2.160920 2.805151
-1.290287 2.073203 3.666220
-1.005004 1.615852 4.520736
-1.262660 2.520910 0.094432
-1.110086 2.217972 0.921059
-1.148325 2.296512 1.934283
-1.154641 2.310601 2.622103
-1.112361 2.227485 3.362970
-1.010364 2.024614 4.134676
-0.927356 2.325961 1.640632
-0.920865 2.311323 2.309768
-0.908172 2.281755 3.259226
-0.864147 2.172569 3.890493
-0.756186 2.562036 0.389727
-0.716950 2.431428 1.099574
-0.705129 2.394251 2.001511
-0.707381 2.405002 2.956869
-0.687370 2.339045 3.623836
-0.552605 1.882212 4.372770
-0.594337 2.986081 0.156466
-0.502449 2.527338 0.760315
-0.502052 2.529606 1.637463
-0.495089 2.498432 2.454749
-0.493332 2.494036 3.390358
-0.462999 2.343988 4.142729
-0.310088 2.780970 0.545943
-0.286153 2.571849 1.193160
-0.285753 2.574167 1.880263
-0.291512 2.634812 2.871704
-0.292713 2.652828 3.676684
-0.248810 2.260579 4.467339
-0.052642 2.729652 1.662675
-0.052652 2.773749 2.482543
-0.051871 2.759706 2.990412
-0.049381 2.683786 4.079377
0.215887 2.964499 0.480757
0.211177 2.886512 1.382902
0.209973 2.861660 1.961234
0.211628 2.870617 2.896937
0.214622 2.898180 3.791480
0.187356 2.521746 4.491765
0.539557 3.276082 0.258900
0.500629 3.036119 0.771342
0.503576 3.046545 1.824744
0.507156 3.063031 2.555380
0.511060 3.080444 3.423530
0.497155 2.992389 4.053036
0.846942 3.284643 1.313227
0.849739 3.291735 2.048157
0.860522 3.328595 3.000132
0.864502 3.340351 3.706462
0.759380 2.931024 4.455087
1.269956 3.525671 0.481275
1.252626 3.474046 1.333602
1.238711 3.432613 2.034665
1.240684 3.434782 2.848925
1.224858 3.388536 3.463336
1.151967 3.183135 4.497328
1.585026 3.394302 0.368640
1.463419 3.132012 0.980479
1.444443 3.089052 1.757585
1.447179 3.092119 2.679994
1.430401 3.054107 3.411539
1.369856 2.922588 4.221511
1.602646 2.793897 1.423121
1.596139 2.780753 2.173217
1.562644 2.720466 3.003022
1.549070 2.694435 4.045135
1.924650 2.740042 0.558840
1.759539 2.503906 1.105539
1.741238 2.475921 2.099704
1.690182 2.402252 2.671676
1.655842 2.351969 3.477294
1.536612 2.181102 4.390241
1.840807 2.155091 1.752768
1.800184 2.106471 2.430017
1.783084 2.084970 3.393954
1.754060 2.050163 3.971510
2.157356 2.116693 0.480130
1.986354 1.948173 0.997964
1.921742 1.883559 1.896466
1.858784 1.820535 2.885961
1.895959 1.856095 3.508114
1.734806 1.697157 4.482077
2.184218 1.788527 0.535097
1.987029 1.626082 1.341794
1.950861 1.595712 1.989649
1.999526 1.634326 2.961725
2.005202 1.638147 3.631018
1.669268 1.362853 4.524254
2.132641 1.437277 0.432976
2.043214 1.376155 1.218190
2.086986 1.404377 2.350586
2.114884 1.422589 2.847417
2.151120 1.180209 1.632153
2.146462 1.176796 2.471665
2.091977 1.146397 3.008815
2.206783 1.208107 4.150644
2.601400 1.154522 0.366991
2.221772 0.985493 0.932843
2.205748 0.977514 1.835739
2.259396 1.000324 2.810566
2.229602 0.986615 3.346095
2.019236 0.892692 4.323829
2.293066 0.774417 1.421200
2.296501 0.774584 2.483853
2.276688 0.767221 3.220984
2.283716 0.768780 4.097667
2.550687 0.606280 0.432417
2.394926 0.568589 1.154652
2.454509 0.581899 2.031944
2.380940 0.563735 2.822965
2.376403 0.561891 3.666220
2.055374 0.485463 4.366882
3.012725 0.437915 0.062586
2.480598 0.359722 0.973355
2.431461 0.351931 1.706295
2.397378 0.346323 2.462652
2.332973 0.336316 3.278207
2.224095 0.319854 4.222508
2.596135 0.142164 1.541441
2.532293 0.137988 2.275089
2.557037 0.138649 3.005886
2.594892 0.139772 3.981746
3.092230 -0.119495 0.125009
2.704696 -0.105371 0.978861
2.712230 -0.106550 1.863676
2.718879 -0.107383 2.433165
2.658397 -0.105842 3.305720
2.544334 -0.102122 4.200821
3.048358 -0.372847 0.364843
2.860560 -0.350542 0.984899
2.873767 -0.353237 1.980903
2.862150 -0.352497 2.622779
2.872077 -0.354840 3.665835
2.613751 -0.323522 4.308731
3.023310 -0.659825 1.386122
3.033660 -0.662997 2.158085
3.031814 -0.663457 2.890432
3.039213 -0.666189 3.834304
2.603263 -0.571329 4.582739
3.499037 -1.106379 0.184691
3.249246 -1.028521 1.023102
3.266100 -1.034567 1.549911
3.296970 -1.045782 2.604244
3.305760 -1.049603 3.361320
3.282702 -1.043319 4.134784
3.624069 -1.500804 0.489224
3.516982 -1.457209 0.971412
3.510668 -1.456287 2.057244
3.454597 -1.433986 2.687782
3.411697 -1.417188 3.361912
3.395166 -1.411883 4.410697
3.190204 -1.690324 1.758593
3.181981 -1.687091 2.491162
3.185586 -1.690113 3.214451
3.135579 -1.664674 3.946269
3.014998 -1.960312 0.380394
2.856621 -1.858301 1.012770
2.865878 -1.865764 1.953856
2.845891 -1.854011 2.785118
2.813890 -1.834285 3.537941
2.612124 -1.703873 4.370656
2.488305 -1.980394 1.653686
2.443902 -1.946264 2.470443
2.413241 -1.923042 3.290327
2.401380 -1.914520 3.933126
2.294424 -2.156724 0.592993
2.249408 -2.115349 1.188173
2.186157 -2.057260 2.101074
2.132493 -2.007946 2.903639
2.156612 -2.032095 3.859745
1.799484 -1.696246 4.444590
2.200410 -2.487122 0.331390
1.940633 -2.194388 0.878996
1.895979 -2.145422 1.835478
1.842503 -2.086119 2.619089
1.849714 -2.095513 3.410568
1.783987 -2.022207 4.195180
1.612210 -2.196816 1.536465
1.586712 -2.163198 2.213653
1.631601 -2.226263 3.297194
1.621919 -2.214134 3.934855
1.530955 -2.519018 0.512443
1.448176 -2.384273 1.250002
1.408820 -2.320676 1.874197
1.371295 -2.260544 2.776850
1.368558 -2.257634 3.636889
1.220683 -2.014735 4.296718
1.156278 -2.387273 1.602680
1.156270 -2.388460 2.141325
1.134065 -2.344287 2.917616
1.133080 -2.344688 4.034505
0.928894 -2.458378 1.614261
0.929477 -2.462640 2.608180
0.913082 -2.421136 3.333226
0.899998 -2.388238 4.018561
0.757136 -2.742959 0.304080
0.714518 -2.591978 1.221663
0.739640 -2.685265 1.776048
0.718976 -2.613534 2.655745
0.700109 -2.548627 3.668512
0.623798 -2.272802 4.307337
0.485670 -2.620752 1.275127
0.482037 -2.605386 2.067558
0.473385 -2.563240 2.949268
0.278884 -3.031899 0.166897
0.244915 -2.671926 1.032144
0.246862 -2.702058 1.842634
0.247326 -2.714469 2.506795
0.238456 -2.625692 3.318394
0.227729 -2.517015 4.256380
-0.006562 -2.754228 1.640578
-0.007263 -2.720327 2.422646
-0.008246 -2.759229 3.286686
-0.008937 -2.751109 3.997927
-0.252738 -2.757751 1.387401
-0.247997 -2.696923 2.222745
-0.250647 -2.718095 2.918733
-0.256761 -2.774036 3.845775
-0.538866 -3.025416 0.531620
-0.519666 -2.914082 1.097976
-0.512299 -2.868192 1.843560
-0.512957 -2.866796 2.673413
-0.520103 -2.900432 3.692458
-0.470785 -2.620776 4.561670
-0.899648 -3.324859 0.082576
-0.851224 -3.142027 0.913047
-0.833092 -3.071506 1.705654
-0.819640 -3.018290 2.522487
-0.827409 -3.042602 3.483710
-0.810906 -2.978353 4.310988
-1.230861 -3.241958 1.331262
-1.272203 -3.347677 2.162140
-1.300563 -3.419305 2.931041
-1.829362 -3.802188 0.060664
-1.684248 -3.497485 0.969470
-1.681521 -3.490053 1.490690
-1.664725 -3.452861 2.188695
-1.672142 -3.465183 3.101306
-1.652451 -3.421662 3.930498
-2.104002 -3.512396 -0.040579
-1.919603 -3.201658 1.014329
-1.894151 -3.157401 1.683300
-1.897435 -3.160314 2.629819
-1.917282 -3.191265 3.400672
-1.852795 -3.082627 3.910230
-2.229867 -3.039398 0.153500
-2.075223 -2.826794 0.968879
-2.050803 -2.791620 1.837805
-2.053886 -2.793861 2.728046
-2.064105 -2.806003 3.526334
-1.919769 -2.608685 4.094241
-2.279829 -2.617636 0.381655
-2.177566 -2.498613 1.232968
-2.155051 -2.471113 2.127477
-2.151099 -2.465344 2.794280
-2.144224 -2.456058 3.557600
-1.893724 -2.168074 4.249612
-2.302374 -2.187265 0.696559
-2.257898 -2.144179 1.218633
-2.250746 -2.135959 2.116426
-2.250083 -2.134151 2.859187
-2.202536 -2.087575 3.820931
-1.816781 -1.721192 4.484064
-2.646791 -2.086349 0.258559
-2.399569 -1.890554 0.896990
-2.361581 -1.859525 1.671713
-2.296189 -1.806980 2.441504
-2.270339 -1.785439 3.328434
-2.247531 -1.766217 4.294291
-2.566670 -1.689121 0.500350
-2.394810 -1.575008 1.299968
-2.316113 -1.522388 2.008354
-2.270435 -1.491493 2.739915
-2.316925 -1.520861 3.698725
-2.061427 -1.352222 4.595712
-2.337210 -1.242850 1.465678
-2.378520 -1.263775 2.392633
-2.401139 -1.274993 3.099490
-2.329977 -1.236371 3.871223
-2.647265 -1.114640 0.482012
-2.434098 -1.024039 1.286493
-2.460976 -1.034616 1.971429
-2.504506 -1.052081 2.739915
-2.470317 -1.036895 3.516384
-2.201806 -0.923426 4.357643
-2.523986 -0.797947 1.465678
-2.482222 -0.784075 2.133540
-2.525481 -0.796693 3.158196
-2.994643 -0.673100 0.041697
-2.594489 -0.582131 1.064421
-2.598432 -0.582243 1.834484
-2.588896 -0.579398 2.543274
-2.572131 -0.574891 3.307851
-2.427302 -0.541571 4.346512
-2.774950 -0.360001 0.545943
-2.637545 -0.341643 1.085493
-2.631188 -0.339792 2.130787
-2.618536 -0.337579 2.724146
-2.569120 -0.330336 3.641573
-2.063542 -0.264694 4.532866
-2.669669 -0.104177 1.454198
-2.702686 -0.104761 2.159606
-2.690062 -0.103361 3.080439
-2.649736 -0.100915 4.008244
-2.992043 0.165425 0.417780
-2.776925 0.154084 0.955954
-2.767881 0.154671 2.018860
-2.714488 0.152438 2.771476
-2.644302 0.149156 3.455422
-2.413666 0.136757 4.171889
-2.774611 0.396957 1.606961
-2.726214 0.390584 2.146302
-2.733790 0.392558 3.011428
-2.669531 0.384272 3.960984
-3.111460 0.731887 0.394819
-2.927935 0.689437 1.023459
-2.933526 0.691704 1.849201
-2.910051 0.687147 2.709987
-2.854174 0.674877 3.546023
-2.701158 0.639394 4.229096
-3.002498 1.013842 1.373005
-2.995311 1.012530 2.269663
-2.993138 1.012662 2.969863
-3.368539 1.456119 0.184691
-3.147207 1.361386 0.857218
-3.147246 1.362491 1.632523
-3.196558 1.385224 2.602527
-3.193438 1.384742 3.214762
-3.127749 1.357715 4.274549
-3.275236 1.805227 1.239661
-3.293446 1.816898 2.244250
-3.298489 1.820984 3.046098
-3.282490 1.813183 3.687458
-2.983349 1.649047 4.484052
-3.393962 2.290147 -0.040579
-3.091512 2.087688 0.911893
-3.045800 2.057869 1.539687
-3.070134 2.076030 2.556326
-3.078836 2.083239 3.339191
-2.977585 2.016011 4.139057
-2.773594 2.249840 0.390933
-2.671099 2.168145 1.259882
-2.641496 2.145511 2.110160
-2.608075 2.119207 2.631801
-2.600522 2.114830 3.726556
-2.390826 1.945054 4.269308
-2.268884 2.244489 1.299371
-2.246992 2.224439 2.269663
-2.255509 2.234345 3.157019
-2.310282 2.720814 -0.030864
-1.989914 2.344771 0.677541
-1.955389 2.305487 1.482777
-1.915347 2.259627 2.281546
-1.898923 2.241998 3.324117
-1.910290 2.256627 4.040027
-1.840897 2.580325 0.166351
-1.690140 2.370844 1.151745
-1.663719 2.335183 1.919318
-1.653871 2.322428 2.509172
-1.689278 2.374196 3.611129
-1.594348 2.241828 4.231824
-1.423288 2.438354 0.556079
-1.367096 2.343361 1.199830
-1.361247 2.335168 2.128034
-1.363817 2.341271 2.983758
-1.268077 2.684969 0.041806
-1.100230 2.331290 0.813107
-1.091794 2.315533 1.775851
-1.106669 2.348570 2.441034
-1.129629 2.399713 3.497576
-1.057112 2.246861 4.079223
-0.859321 2.390693 1.279251
-0.867447 2.416366 2.379245
-0.870797 2.428098 3.238215
-0.846509 2.361990 3.841373
-0.690341 2.631102 0.252471
-0.661775 2.525544 1.129095
-0.649602 2.481919 1.892037
-0.638395 2.442621 2.859822
-0.641689 2.458114 3.646257
-0.531146 2.037180 4.529996
-0.490313 2.954092 0.114892
-0.418016 2.523788 1.035484
-0.413351 2.499661 1.745286
-0.418267 2.533050 2.379245
-0.414698 2.517827 3.496025
-0.379511 2.307427 4.137399
-0.185371 2.567166 0.591371
-0.178818 2.485828 1.333810
-0.174932 2.440278 2.014681
-0.168947 2.366716 2.839015
0.033953 2.994769 0.219338
0.029887 2.579564 0.897571
0.030642 2.564825 1.881476
0.031229 2.570442 2.432048
0.031066 2.488676 3.352388
0.029437 2.290427 4.390047
0.287389 2.731010 0.367945
0.273873 2.595791 1.107996
0.270916 2.559287 2.050446
0.269417 2.537689 2.889680
0.267323 2.512671 3.498272
0.231829 2.172947 4.347909
0.503468 2.524919 1.531877
0.502965 2.518265 2.389806
0.507865 2.539567 3.056730
0.497613 2.484637 3.838909
0.854571 2.895994 0.093941
0.760184 2.572895 1.021614
0.762675 2.578412 1.854355
0.744825 2.515946 2.481645
0.768556 2.592482 3.514117
0.743898 2.507235 4.140001
1.096170 2.787763 0.302893
1.060176 2.693061 1.382902
1.062256 2.696438 2.033260
1.062366 2.694477 2.800822
1.056426 2.677402 3.498247
0.953575 2.414428 4.419819
1.556787 3.072448 -0.030966
1.403363 2.767495 0.812499
1.381187 2.721823 1.586105
1.389600 2.736374 2.390283
1.413623 2.781112 3.392299
1.395295 2.742971 4.227622
1.783279 2.894112 0.620110
1.780185 2.887409 1.313227
1.771543 2.871644 2.039165
1.789577 2.898735 2.919456
1.808607 2.927856 3.613568
1.677535 2.713619 4.552065
2.828119 -0.155183 0.368458
3.168169 -0.175093 1.419740
3.036353 -0.169213 2.666772
3.099803 -0.173716 3.502693
3.108070 -0.175315 4.488897
3.035635 -0.423808 0.594114
3.042041 -0.425639 1.404963
3.025661 -0.424744 2.625449
3.003392 -0.422494 3.399587
3.002817 -0.423551 4.408737
3.266823 -0.769186 1.500833
2.881590 -0.679354 2.290536
2.879062 -0.679989 3.386750
2.871529 -0.679458 4.508313
2.909284 -0.933961 2.172853
2.816174 -0.905365 3.306517
2.793351 -0.899151 4.300429
2.654112 -1.112162 1.141516
2.644033 -1.109046 2.105486
2.640118 -1.108560 3.114474
2.708857 -1.138503 4.029935
2.641500 -1.346732 0.984668
2.650927 -1.352918 2.097761
2.604029 -1.330376 3.249513
2.606446 -1.332701 4.151236
2.516920 -1.561272 0.923836
2.465329 -1.530733 2.082791
2.543196 -1.580130 2.881632
2.507683 -1.559363 3.898239
2.480450 -1.855353 0.988625
2.453925 -1.837053 2.071458
2.411854 -1.806821 2.980353
2.388057 -1.790344 3.964831
2.365548 -2.082251 1.057043
2.337467 -2.059001 2.007724
2.310928 -2.037277 3.094751
2.355263 -2.077722 3.967997
2.203037 -2.331673 2.192512
2.168088 -2.296635 3.337766
2.217871 -2.351000 4.266458
2.130808 -2.623398 1.579955
2.087684 -2.572391 2.645581
2.098674 -2.587524 3.451332
1.960959 -2.885449 1.574349
1.888110 -2.781012 2.811523
1.950941 -2.875346 3.577105
1.864820 -3.299434 0.801445
1.801469 -3.190810 2.034164
1.795045 -3.181600 2.809366
1.770797 -3.141397 3.821862
1.603059 -3.489008 2.064151
1.615771 -3.519488 2.862799
1.606655 -3.503129 3.867468
1.365360 -3.769209 0.994533
1.351217 -3.734924 2.067022
1.375378 -3.806162 3.047145
1.367023 -3.787609 4.066746
0.993109 -3.725398 0.839513
0.993773 -3.732882 1.715737
0.973755 -3.664096 2.868591
0.969032 -3.650912 3.697610
0.661379 -3.590186 1.016341
0.652425 -3.547667 1.828083
0.644342 -3.510517 2.746065
0.647790 -3.537575 3.852401
0.337341 -3.549625 0.959264
0.333915 -3.524317 1.721794
0.327287 -3.468747 2.762297
0.324015 -3.448017 3.776297
0.036355 -3.256064 1.767601
0.035695 -3.298512 2.686623
0.034456 -3.314636 3.830611
-0.195797 -3.134044 1.017074
-0.201568 -3.211295 1.800047
-0.204132 -3.233214 2.781176
-0.203665 -3.204488 3.910822
-0.471082 -3.098240 0.895814
-0.463475 -3.038893 2.121223
-0.465572 -3.046475 2.934334
-0.462584 -3.019671 3.907306
-0.714162 -3.016815 1.120184
-0.716875 -3.023710 2.028351
-0.697082 -2.934141 3.291033
-0.705987 -2.967295 4.177314
-0.912599 -2.803171 3.337587
-0.934530 -2.868021 4.031315
-1.171914 -2.794033 3.089262
-1.170140 -2.787150 4.010638
-1.398549 -2.683879 3.099598
-1.357218 -2.601776 4.300429
-1.629016 -2.563876 1.143505
-1.586809 -2.495087 2.300891
-1.648649 -2.590730 3.045533
-1.641746 -2.577905 3.987029
-1.820689 -2.411642 1.184848
-1.811321 -2.397419 2.166353
-1.821006 -2.408318 3.200506
-1.832537 -2.421990 4.049015
-2.070792 -2.309596 2.340560
-2.025406 -2.257338 3.319490
-2.014135 -2.243446 4.121372
-2.208213 -2.086055 0.595171
-2.265323 -2.138328 1.644924
-2.244961 -2.117584 2.612977
-2.224534 -2.096959 3.487323
-2.264719 -2.133517 4.319863
-2.529901 -2.014978 1.899570
-2.543041 -2.024125 2.750345
-2.473276 -1.966875 3.906181
-2.803104 -1.882481 1.167991
-2.751048 -1.845990 2.195493
-2.710696 -1.817477 3.178587
-2.728174 -1.827970 4.012548
-3.070634 -1.705382 1.653228
-3.009427 -1.669913 2.655950
-2.968471 -1.645732 3.664001
-3.035679 -1.681852 4.428112
-3.449776 -1.554316 0.951681
-3.451437 -1.553871 1.709484
-3.332618 -1.498845 2.730002
-3.355718 -1.507796 3.676976
-3.693870 -1.301426 2.000645
-3.677226 -1.293969 3.018591
-3.683497 -1.294581 4.039197
-3.723063 -0.973569 2.113232
-3.745073 -0.977828 3.099412
-3.817159 -0.995515 3.829776
-3.511511 -0.609823 1.099839
-3.573495 -0.619547 1.846977
-3.569367 -0.617482 2.821530
-3.589841 -0.619681 3.788775
-3.337594 -0.323598 1.158957
-3.433273 -0.331820 1.966808
-3.373455 -0.324475 3.197604
-3.353117 -0.321308 4.162298
-3.257989 -0.043841 0.920913
-3.279239 -0.042721 2.067389
-3.277046 -0.041385 3.137507
-3.247464 -0.039717 4.215067
-3.060164 0.225045 1.202751
-3.033993 0.224345 2.284546
-3.071960 0.228175 3.174893
-3.204997 0.239138 4.069675
-3.014782 0.460450 3.267827
-3.015005 0.461519 4.177314
-2.865495 0.692305 3.257308
-2.938272 0.710954 4.180363
-2.752107 0.912616 2.163805
-2.698073 0.896078 3.418157
-2.770800 0.921194 4.262131
-3.265204 1.405083 1.471004
-2.575542 1.109359 2.433794
-2.650991 1.142848 3.283209
-2.604814 1.124260 4.452139
-2.401974 1.269563 1.496652
-2.494906 1.319730 2.381821
-2.467829 1.306696 3.493646
-2.499289 1.324412 4.393083
-2.398838 1.538298 1.569751
-2.401437 1.540966 2.369312
-2.409155 1.547156 3.355854
-2.407394 1.547289 4.369060
-2.304099 1.769411 0.590296
-2.207047 1.696193 1.604334
-2.211836 1.701201 2.626925
-2.232156 1.718079 3.581646
-2.247220 1.730935 4.542311
-2.122375 1.931435 1.659799
-2.100695 1.913412 2.864697
-2.148678 1.958469 3.792963
-2.009951 2.153445 0.965262
-1.981005 2.124065 2.001737
-1.966279 2.109913 3.052205
-1.984059 2.130535 4.032949
-1.809456 2.305949 3.389388
-1.810761 2.309204 4.300429
-1.981767 3.009248 0.596209
-1.680139 2.552829 1.375460
-1.681436 2.556885 2.383847
-1.684209 2.563319 3.456342
-1.705984 2.598294 4.330177
-1.552770 2.843623 1.667974
-1.498849 2.747783 2.870154
-1.523861 2.795606 3.664577
-1.368199 3.028525 1.029244
-1.362197 3.018536 2.125463
-1.387836 3.078046 2.999634
-1.364328 3.029076 4.058162
-1.137557 3.291873 2.314216
-1.137692 3.296518 3.377739
-1.151937 3.340873 4.135011
-0.982856 3.854693 0.406778
-0.932862 3.663800 1.301308
-0.918491 3.614292 2.516743
-0.931960 3.672566 3.421016
-0.917953 3.622972 4.408959
-0.663391 3.784912 1.488034
-0.668318 3.821391 2.467583
-0.662954 3.800392 3.611863
-0.327635 3.602146 1.518074
-0.321103 3.546564 2.617503
-0.317491 3.522684 3.709878
-0.013060 3.269035 1.877360
-0.012323 3.385017 2.819647
-0.011027 3.372201 3.814952
0.244148 3.223477 1.124066
0.243274 3.194877 2.202800
0.250106 3.272200 2.967547
0.255018 3.320463 3.948176
0.476704 2.956693 2.418950
0.480577 2.973973 3.381515
0.496020 3.063162 4.261058
0.671268 2.724063 0.502482
0.699489 2.834597 1.382996
0.706105 2.856352 2.493521
0.715010 2.888142 3.415173
0.940072 2.752343 1.626980
0.928150 2.714154 2.630519
0.934191 2.728848 3.534553
1.124048 2.607069 1.742867
1.088248 2.521058 2.913578
1.105295 2.558575 3.675226
1.317938 2.444290 1.055163
1.324752 2.455141 1.877994
1.311469 2.428399 2.871933
1.317938 2.438374 3.807564
1.559783 2.394268 0.847290
1.493766 2.290613 2.105039
1.504092 2.304837 2.973573
1.489147 2.280133 3.963754
1.731987 2.225852 1.012156
1.689345 2.169319 2.063382
1.699927 2.181333 3.012711
1.705216 2.186672 3.887833
1.940533 2.114928 3.093714
1.899065 2.068185 4.114827
1.852820 1.700949 0.556347
2.154269 1.976376 1.443630
2.099269 1.924469 2.460635
2.057716 1.884706 3.664825
2.228701 1.729102 1.865737
2.205472 1.709790 2.859106
2.189620 1.696167 3.898240
2.471787 1.602343 0.965262
2.508706 1.625018 1.915188
2.452797 1.587388 3.018636
2.442032 1.579117 4.043318
2.740980 1.471507 3.162130
2.703434 1.450014 4.205251
3.555606 1.578275 0.488588
2.954079 1.310158 1.336027
2.948977 1.306638 2.291619
2.888676 1.278378 3.497460
2.897169 1.280989 4.392993
3.195074 1.109492 0.542421
3.233337 1.121519 1.467376
3.157489 1.093765 2.563545
3.129552 1.082851 3.512868
3.198308 1.105493 4.368524
3.515298 0.900396 1.557480
3.438484 0.879114 2.727668
3.478136 0.888109 3.546835
3.850037 0.634055 0.858139
3.807996 0.625844 1.725846
3.744814 0.613816 2.858464
3.808798 0.622953 3.768833
3.870833 0.320540 2.160762
3.891964 0.321044 2.998395
3.843753 0.315576 4.024152
3.729239 0.001897 0.953494
3.686673 0.000456 1.973206
3.716893 -0.000779 2.854210
3.659547 -0.002312 3.984296
3.418602 -0.286939 2.237790
3.434368 -0.289590 3.262220
3.481780 -0.294792 4.178646
3.664810 -0.613465 0.452465
3.283053 -0.550705 1.361425
3.341849 -0.561754 2.280507
3.228514 -0.544161 3.466622
3.282393 -0.554175 4.206204
3.095651 -0.788439 0.406622
3.116070 -0.794930 1.447736
3.081008 -0.787265 2.495428
3.074213 -0.786890 3.615777
3.120257 -0.799740 4.476230
2.604926 -0.901268 0.289428
2.895504 -1.003434 1.637806
3.002597 -1.041540 2.425373
2.980555 -1.035135 3.427937
2.490193 -1.101309 0.372747
2.855049 -1.264088 1.483031
2.832642 -1.255449 2.501575
2.770676 -1.229388 3.649936
2.596257 -1.422084 1.775577
2.612733 -1.432263 2.691873
2.627326 -1.441402 3.593374
2.534605 -1.679178 2.516074
2.488815 -1.650198 3.544363
2.261146 -1.766919 2.781632
2.312352 -1.807980 3.539445
2.141508 -1.994490 0.945844
2.191572 -2.042455 1.823847
2.164546 -2.018884 2.904676
2.150014 -2.006608 3.769363
1.980256 -2.186047 2.321604
1.948778 -2.153002 3.392040
1.972034 -2.180273 4.369772
1.833963 -2.406011 1.599699
1.790198 -2.350690 2.764342
1.776462 -2.334338 3.710039
1.638085 -2.531929 0.992421
1.631006 -2.522797 1.873809
1.645120 -2.546649 2.848299
1.620992 -2.511701 4.034295
1.452132 -2.749282 2.470629
1.472607 -2.790455 3.427937
1.455144 -2.759702 4.378625
1.164155 -2.667928 0.508449
1.322429 -3.033688 1.483134
1.289897 -2.962123 2.501680
1.270895 -2.921182 3.415086
1.250064 -2.876686 4.585560
1.086980 -3.205009 1.710143
1.082719 -3.196027 2.621024
1.074853 -3.177034 3.707580
0.848481 -3.445850 1.070338
0.855855 -3.480034 1.819361
0.836433 -3.407547 2.998914
0.851191 -3.471946 3.755727
0.615844 -3.766715 1.140323
0.602632 -3.694396 2.109198
0.595414 -3.659518 3.190991
0.588354 -3.625422 4.278213
0.311237 -4.025238 1.608890
0.305955 -3.976577 2.608737
0.303758 -3.968289 3.640600
-0.025910 -3.923973 0.937297
-0.027340 -3.952541 1.761168
-0.028885 -3.954955 2.778309
-0.029918 -3.877689 3.875081
-0.339791 -3.662521 1.923905
-0.342898 -3.678661 3.073448
-0.344545 -3.683343 3.941029
-0.609496 -3.492434 3.124961
-0.615526 -3.518767 4.180368
-0.863648 -3.365174 0.448734
-0.830553 -3.231740 1.340919
-0.832987 -3.235821 2.413682
-0.853626 -3.311199 3.344026
-0.846774 -3.279518 4.358286
-1.094398 -3.132720 1.743932
-1.042977 -2.982119 2.707493
-1.079577 -3.083867 3.487162
-1.285101 -2.884198 1.531551
-1.254264 -2.811901 2.633619
-1.279695 -2.866257 3.559279
-1.466987 -2.644135 1.892721
-1.470105 -2.647520 2.858635
-1.474009 -2.652171 3.889527
-1.500564 -2.267457 0.721064
-1.668946 -2.519785 1.751457
-1.677600 -2.530798 2.757556
-1.668659 -2.514926 3.941210
-1.762701 -2.227427 1.884666
-1.850235 -2.336181 2.923021
-1.849060 -2.332661 4.075689
-2.019151 -2.163117 2.220051
-2.014737 -2.156876 3.166627
-2.035263 -2.177128 4.235161
-2.244000 -2.019969 1.832447
-2.206502 -1.984783 2.803469
-2.213325 -1.989778 3.575410
-2.408765 -1.806472 1.073834
-2.419659 -1.813492 1.892721
-2.421088 -1.813195 2.868971
-2.429353 -1.817955 3.889527
-2.514017 -1.603569 3.234053
-2.481801 -1.581580 4.359412
-2.761284 -1.451253 1.705189
-2.764650 -1.451769 2.660269
-2.713405 -1.423730 3.546628
-2.940731 -1.238158 1.024914
-2.966558 -1.247929 1.870392
-2.856627 -1.200328 2.962968
-2.873609 -1.206526 3.711218
-3.207539 -1.058952 1.026955
-3.132284 -1.032824 2.016064
-3.075366 -1.012886 2.941224
-3.015278 -0.991650 4.113766
-3.270068 -0.769994 2.362441
-3.285946 -0.772700 3.158964
-3.259129 -0.765136 4.144695
-3.775881 -0.596490 0.389815
-3.588401 -0.565560 1.337409
-3.497752 -0.549777 2.449839
-3.485308 -0.546638 3.334556
-3.513727 -0.549886 4.231318
-3.850737 -0.253644 1.725846
-3.674885 -0.240471 2.876508
-3.676282 -0.239248 3.824328
-4.069929 0.051887 1.874443
-4.010534 0.052724 2.922042
-3.942154 0.053548 4.084499
-3.672918 0.342389 2.112320
-3.661098 0.342803 3.203331
-3.703654 0.348087 4.125904
-3.440441 0.613657 2.133891
-3.490354 0.623796 3.045590
-3.481632 0.623686 4.124813
-3.181767 0.846315 2.477162
-3.271757 0.871526 3.446366
-3.341279 0.891417 4.468980
-2.960570 1.055108 0.601327
-3.072936 1.096276 1.465435
-3.008668 1.074785 2.604538
-2.991083 1.069754 3.605481
-3.043638 1.089724 4.524489
-2.783212 1.265133 1.729113
-2.815570 1.280934 2.592338
-2.844628 1.295439 3.600510
-2.622840 1.469689 1.722126
-2.586379 1.450528 2.733278
-2.619066 1.469931 3.572687
-2.388244 1.616255 1.912114
-2.461214 1.666707 2.712574
-2.450734 1.660920 3.707220
-2.238583 1.816562 1.841311
-2.272621 1.845476 2.766632
-2.249524 1.828281 3.904117
-2.081080 1.986289 3.394706
-2.047651 1.955794 4.382693
-1.908052 2.156206 2.831179
-1.960743 2.217072 3.627172
-1.777624 2.381875 3.104502
-1.700654 2.280724 4.250867
-1.799886 2.830511 0.411782
-1.513418 2.381978 1.429244
-1.545061 2.433490 2.286273
-1.540995 2.429117 3.314337
-1.545447 2.438061 4.286035
-1.335785 2.554766 1.841311
-1.360526 2.604189 2.735546
-1.340695 2.568731 3.824075
-1.142820 2.710629 0.975621
-1.131035 2.685858 2.122328
-1.144891 2.721254 3.005845
-1.135025 2.700259 3.890808
-0.907612 2.790474 3.298747
-0.920329 2.832623 4.155449
-0.702698 2.976594 2.464423
-0.723082 3.067524 3.358369
-0.711545 3.024313 4.509524
-0.449080 2.986175 0.371820
-0.484395 3.230505 1.525627
-0.477293 3.192354 2.662074
-0.472145 3.166193 3.692760
-0.475363 3.194610 4.534770
-0.219231 3.396856 1.729117
-0.217709 3.391067 2.629259
-0.218322 3.420864 3.640962
0.062160 3.590215 1.168959
0.063292 3.596065 1.928393
0.063781 3.538176 3.065982
0.065693 3.566653 4.111839
0.427246 4.216502 0.432427
0.383129 3.764980 1.570202
0.386140 3.781875 2.462569
0.392733 3.833154 3.386170
0.390295 3.796230 4.322255
0.686734 3.654791 1.672864
0.693549 3.684428 2.535245
0.694906 3.683946 3.542626
0.906011 3.377699 1.694053
0.883470 3.287666 2.917735
0.915247 3.402043 3.671624
1.124000 3.106898 1.009885
1.117308 3.085129 1.916783
1.111667 3.065588 3.029166
1.130393 3.113994 3.920187
1.357579 2.914151 0.963183
1.343780 2.881894 1.902943
1.343796 2.879176 2.886249
1.340300 2.868449 4.054916
1.473511 2.615799 3.332398
1.480658 2.626112 4.380905
1.954844 2.892924 0.539054
1.631298 2.412191 1.545689
1.692732 2.501422 2.346558
1.668291 2.463371 3.334985
1.663286 2.454131 4.286917
1.709460 2.103220 0.404010
1.827538 2.246841 1.374172
1.816175 2.231181 2.377585
1.764128 2.165304 3.574058
1.955303 2.044804 1.915832
1.942839 2.030209 2.958219
1.930458 2.016108 3.745144
1.996641 1.760285 1.937757
2.095255 1.845636 3.090894
2.106349 1.854111 4.034747
2.219997 1.650409 2.315403
2.217253 1.646863 3.506828
2.266299 1.682117 4.413866
2.554827 1.592263 0.596243
2.408927 1.500181 1.529873
2.408776 1.498900 2.491795
2.408635 1.497648 3.438932
2.532946 1.305283 1.498714
2.443085 1.257554 2.751806
2.480744 1.275975 3.584459
2.571891 1.057170 1.756846
2.617304 1.074720 2.744754
2.603671 1.068086 3.672361
2.498523 0.794602 0.694967
2.693925 0.855313 1.997062
2.772954 0.879383 2.899053
2.735980 0.866445 3.997495
2.944506 0.669421 0.982082
3.032221 0.688298 1.877162
2.902001 0.657372 3.094151
2.885334 0.652812 3.797575
3.207174 0.459865 2.029783
3.217822 0.460130 3.059988
3.197747 0.455898 4.187201
3.274657 0.212406 2.357845
3.293951 0.212586 3.225166
3.214524 0.205973 4.476230
3.408236 -0.070133 0.410182
3.449153 -0.072527 1.606388
3.471091 -0.074147 2.494386
3.449309 -0.074863 3.410788
3.431000 -0.075705 4.382997
3.729192 -0.388867 0.902783
3.627465 -0.379687 1.935554
3.646076 -0.382903 2.848031
3.612472 -0.380931 3.986957
3.784733 -0.727811 2.390058
3.843564 -0.740360 3.204319
3.900754 -0.752710 4.071843
3.542161 -0.982992 0.483604
3.702490 -1.028799 1.348674
3.641459 -1.013582 2.523338
3.669487 -1.022753 3.438999
3.661780 -1.021858 4.284536
3.320664 -1.225718 1.651829
3.304763 -1.221256 2.650027
3.326429 -1.230723 3.679290
3.298792 -1.221684 4.531355
3.124895 -1.462688 1.676507
3.097237 -1.451213 2.717308
3.090932 -1.449503 3.602599
3.056358 -1.434743 4.656222
2.824205 -1.627425 1.686981
2.827809 -1.630939 2.709251
2.851424 -1.645898 3.653942
2.614115 -1.805346 1.480060
2.623490 -1.813359 2.544856
2.648385 -1.832034 3.551402
2.083897 -1.710586 0.507104
2.451858 -2.014038 1.419740
2.351773 -1.933627 2.656440
2.418831 -1.990159 3.579893
2.160613 -2.103500 1.842786
2.167238 -2.111431 2.788562
2.178075 -2.123419 3.698846
1.906960 -2.202046 1.119353
1.924822 -2.224340 2.120389
1.975349 -2.284309 3.039996
1.932629 -2.236593 4.057999
1.881202 -2.560069 1.480060
1.715624 -2.336506 2.466706
1.710138 -2.330918 3.513804
1.769044 -2.412657 4.283781
1.601055 -2.580282 1.497924
1.557387 -2.512360 2.683754
1.561767 -2.521179 3.526370
1.316525 -2.631642 0.904398
1.328918 -2.658664 1.815246
1.336038 -2.675577 2.891978
1.319248 -2.644178 3.807931
1.119258 -2.731877 1.086882
1.142669 -2.791466 1.913397
1.146852 -2.804934 3.008985
1.112792 -2.724734 4.099429
0.904676 -2.873367 3.301373
0.894597 -2.845048 4.314823
0.674109 -2.977588 2.404504
0.672377 -2.974759 3.347924
0.669787 -2.968081 4.287881
0.391592 -2.826713 0.449429
0.440023 -3.185712 1.518276
0.434967 -3.157399 2.474841
0.431315 -3.139432 3.466563
0.179176 -3.311146 1.894612
0.178567 -3.319901 2.764503
0.174726 -3.273361 3.864140
-0.097148 -3.528958 0.980671
-0.096980 -3.472427 2.045304
-0.095983 -3.384249 3.207842
-0.097937 -3.413087 4.098015
-0.447664 -3.962420 0.646330
-0.414029 -3.655978 1.355401
-0.416641 -3.667935 2.251272
-0.412607 -3.619671 3.304969
-0.406396 -3.554101 4.248851
-0.755372 -3.831129 1.535099
-0.734678 -3.716835 2.799626
-0.735241 -3.712658 3.755946
-1.135045 -3.970838 0.961307
-1.131910 -3.954489 1.902067
-1.129422 -3.939712 2.974886
-1.130007 -3.936345 3.933559
-1.382728 -3.639146 1.991955
-1.357226 -3.568167 2.945652
-1.334065 -3.503642 3.867427
-1.588571 -3.303762 1.045837
-1.547913 -3.215789 2.149291
-1.580180 -3.280128 2.998468
-1.555847 -3.226077 4.149809
-1.757197 -3.042541 1.091821
-1.734693 -3.001044 2.065735
-1.710831 -2.956884 3.195285
-1.714582 -2.960694 4.245717
-1.857098 -2.683829 2.258912
-1.910130 -2.758516 3.140786
-1.937667 -2.796055 4.138945
-3.516799 -4.262889 0.342041
-2.063715 -2.497943 2.250498
-2.044928 -2.473459 3.183361
-2.023442 -2.445285 4.372398
-2.265338 -2.317559 0.425426
-2.188795 -2.237640 1.391719
-2.144951 -2.190863 2.594467
-2.207788 -2.253773 3.348067
-2.167853 -2.211490 4.281691
-2.286441 -1.975151 1.610036
-2.286870 -1.973985 2.648289
-2.330321 -2.010195 3.505330
-2.411618 -1.753879 2.762066
-2.449368 -1.780085 3.660271
-2.492494 -1.512107 2.958865
-2.516993 -1.525736 3.929313
-2.651372 -1.324162 1.126927
-2.608940 -1.301686 2.192931
-2.583711 -1.287898 3.202794
-2.609144 -1.299389 4.192697
-2.758962 -1.095193 3.195177
-2.752272 -1.091445 4.127450
-3.020059 -0.928207 0.560117
-2.888159 -0.886520 1.539267
-2.955274 -0.906117 2.371512
-2.826277 -0.865221 3.557433
-2.857936 -0.874063 4.294127
-2.687975 -0.581350 0.238401
-3.025455 -0.652867 1.484537
-3.000834 -0.646273 2.584142
-2.919482 -0.627676 3.544363
-3.182371 -0.411479 1.679811
-3.046952 -0.392590 2.885027
-3.078225 -0.395613 3.752474
-3.295419 -0.149040 0.818234
-3.287823 -0.147553 1.745487
-3.191715 -0.141948 2.834784
-3.199028 -0.141158 3.772353
-3.292216 0.122682 3.086178
-3.303942 0.124378 4.109453
-3.525081 0.427670 1.551240
-3.421453 0.416413 2.565915
-3.362595 0.410669 3.684475
-3.664543 0.754129 0.923065
-3.579515 0.738027 1.915221
-3.552064 0.733504 2.731946
-3.479454 0.720097 3.905968
-3.742910 1.074024 1.217283
-3.721169 1.069168 2.121845
-3.703191 1.065561 3.149955
-3.739523 1.077440 4.079593
-3.517802 1.358285 2.325816
-3.606836 1.394025 3.188302
-3.651724 1.412804 4.087089
-3.226089 1.545149 2.347925
-3.239327 1.553032 3.378499
-3.229001 1.549605 4.406041
-3.136318 1.840116 0.514811
-2.947848 1.730863 1.407333
-2.905708 1.707689 2.481571
-2.950735 1.735656 3.492585
-2.946225 1.734508 4.512927
-3.099353 2.187394 0.460678
-2.700007 1.907215 1.563781
-2.681115 1.895166 2.427790
-2.672603 1.890461 3.307290
-2.688902 1.903507 4.319051
-2.731463 2.303961 0.536672
-2.460457 2.076780 1.437452
-2.495784 2.108137 2.398921
-2.370972 2.004357 3.502693
-2.435072 2.059821 4.320927
-2.261794 2.244041 0.427206
-2.188101 2.172457 1.373995
-2.138771 2.125389 2.588428
-2.162998 2.150932 3.507981
-2.177577 2.166800 4.364257
-1.915759 2.261698 1.765223
-1.904356 2.249956 2.785056
-1.942174 2.296119 3.642348
-1.551092 2.139710 0.847570
-1.720575 2.375243 1.777319
-1.702025 2.351575 2.839200
-1.691924 2.339765 4.025602
-1.492556 2.526576 0.925119
-1.460069 2.473707 1.943245
-1.450897 2.460636 3.135238
-1.463290 2.483725 4.126296
-1.240764 2.527484 3.340406
-1.256260 2.560958 4.139774
-1.160670 2.928474 1.622732
-1.039832 2.625899 2.452414
-1.072027 2.709636 3.280610
-1.064439 2.693268 4.254915
-0.812472 2.690858 1.602615
