-1.614366 1.312560 0.953656
-1.631386 1.303139 1.600606
-1.642450 1.300122 1.897695
-1.761426 1.334116 2.451987
-1.714422 1.296602 3.190131
-1.743272 1.298571 3.573837
-1.775534 1.301923 3.957262
-1.644145 1.234458 4.534392
-1.500768 1.166459 4.940728
-1.750468 1.253569 5.477475
-1.914941 1.306157 6.021408
-1.852296 1.275317 6.243852
-1.962211 1.301245 6.973553
-1.933454 1.279636 7.371830
-1.893057 1.255491 7.684445
-1.903439 1.245215 8.259066
-1.904022 1.233147 8.748004
-1.857026 1.196957 9.433683
-1.605531 1.186630 -0.151478
-1.890054 1.264038 0.411665
-1.797252 1.226994 0.709251
-1.710230 1.187481 1.183219
-1.733545 1.176925 1.918864
-1.750917 1.173039 2.304615
-1.766779 1.170814 2.602863
-1.802298 1.168475 3.162860
-1.824246 1.168210 3.460729
-1.776387 1.138950 4.028622
-1.641472 1.081506 4.607715
-1.703619 1.087683 5.168540
-1.823310 1.121196 5.366717
-2.013805 1.164654 6.085183
-2.082282 1.175118 6.553890
-2.076413 1.159247 7.124660
-2.047662 1.140257 7.523405
-2.022732 1.122462 7.923395
-2.001643 1.105868 8.324590
-2.002183 1.094049 8.813873
-1.787818 1.005294 9.631340
-1.314653 0.969621 -0.533699
-1.600140 1.024048 -0.052210
-1.794569 1.053418 0.596989
-1.797769 1.047054 0.893530
-1.809612 1.036403 1.452380
-1.822149 1.030105 1.836234
-1.842440 1.023508 2.307345
-1.873486 1.017310 2.865525
-1.912112 1.012874 3.423249
-1.943037 1.010848 3.806107
-1.977535 1.009654 4.188664
-1.946848 0.986900 4.842592
-1.787193 0.942385 5.161018
-1.942179 0.967202 5.619871
-2.127163 0.994864 6.249305
-2.101809 0.977440 6.732131
-2.067575 0.960011 7.129511
-2.068312 0.946466 7.702104
-2.155804 0.955467 8.170211
-2.057952 0.920711 8.677357
-1.928994 0.882863 9.013546
-1.501845 0.765540 9.791391
-0.798855 0.774312 -0.643271
-1.285747 0.835498 -0.236766
-1.678146 0.885269 0.071386
-1.778204 0.882372 0.810902
-1.881414 0.890358 1.108408
-1.895356 0.879165 1.668908
-1.905935 0.873673 1.967006
-1.832940 0.849734 2.532128
-1.866597 0.841392 3.093242
-1.795595 0.821800 3.486366
-1.834643 0.816296 3.960392
-2.183382 0.854460 4.491604
-2.126005 0.836838 4.885155
-1.777823 0.776071 5.315758
-1.850022 0.773317 5.877510
-2.125680 0.800851 6.408975
-2.087203 0.785854 6.807739
-1.970009 0.756934 7.311659
-2.037841 0.757721 7.696354
-2.126050 0.759434 8.167366
-2.177315 0.749181 8.918062
-1.990262 0.709380 9.452756
-1.842564 0.775813 -0.264483
-2.135463 0.779443 0.474893
-2.037013 0.765409 0.774000
-1.945741 0.745714 1.336932
-1.862398 0.726525 1.902506
-1.874359 0.720348 2.202998
-2.002407 0.716454 2.760472
-1.733991 0.685707 3.254771
-1.869373 0.684403 3.723949
-2.308123 0.705485 4.162906
-2.246543 0.691870 4.556707
-2.188867 0.678498 4.952052
-1.882603 0.638279 5.735540
-1.737907 0.618218 6.150999
-2.018756 0.625787 6.685231
-2.052070 0.623238 6.895898
-2.063091 0.608507 7.559110
-2.035204 0.597087 7.962013
-2.126504 0.592568 8.433973
-2.125789 0.581017 8.925437
-1.801835 0.538137 9.768646
-0.909669 0.642736 -0.678359
-1.403684 0.632225 -0.448239
-1.794929 0.616795 0.038426
-1.892744 0.598499 0.778708
-1.894642 0.593507 0.991731
-1.905114 0.580242 1.555375
-1.816996 0.572015 1.947128
-1.940753 0.557664 2.506815
-1.878340 0.542981 3.163720
-1.992627 0.536984 3.369688
-2.442442 0.517960 3.984227
-2.369877 0.511574 4.290170
-2.317819 0.500895 4.770926
-2.094109 0.487335 5.451578
-1.957073 0.477087 5.951718
-1.912422 0.468172 6.353581
-1.984272 0.456329 6.828970
-2.076632 0.442255 7.390763
-2.129119 0.434727 7.689885
-2.135375 0.421154 8.268603
-2.034028 0.410235 8.781624
-1.939257 0.399165 9.298124
-1.742058 0.477947 -0.078059
-2.036775 0.443245 0.225966
-2.035406 0.430199 0.787965
-1.944054 0.423470 1.439646
-1.851857 0.424986 1.742948
-1.875474 0.407488 2.395160
-1.899382 0.394087 2.871409
-2.028238 0.371039 3.340307
-2.248224 0.343814 3.623638
-2.477458 0.313771 3.990308
-2.447017 0.299322 4.728180
-2.300519 0.301496 5.220192
-2.050304 0.315025 5.641751
-1.903179 0.319105 6.054929
-1.970130 0.301709 6.529813
-2.056666 0.280451 7.091256
-2.037718 0.270730 7.581576
-2.008620 0.263978 7.985772
-2.017796 0.249514 8.566165
-2.035345 0.234239 9.147725
-1.536156 0.268809 9.665476
-1.773947 0.335089 -0.026090
-2.163789 0.259402 0.278151
-2.063354 0.265813 0.752094
-1.871245 0.286147 1.318019
-1.877033 0.277997 1.619051
-1.802289 0.273480 2.363717
-2.174202 0.176876 3.683515
-2.491883 0.114612 3.956189
-2.459820 0.102743 4.694712
-2.313640 0.116749 5.187280
-2.162824 0.133538 5.596711
-1.734866 0.195877 6.138332
-1.619293 0.202051 6.734447
-2.040743 0.124429 6.886027
-2.144948 0.090756 7.534581
-2.130755 0.081610 8.025752
-2.089194 0.081379 8.343604
-1.988284 0.086924 8.857584
-1.758476 0.107746 9.682387
-1.702239 0.219684 -0.208910
-2.079232 0.105726 0.449398
-1.981283 0.124003 0.748226
-1.887068 0.137033 1.224302
-1.897140 0.120829 1.787561
-1.818133 0.127697 2.355121
-1.834775 0.114007 2.743229
-2.144874 0.024442 3.111723
-2.572770 -0.101692 3.725770
-2.512935 -0.097603 4.201716
-2.442447 -0.086611 4.506361
-2.323147 -0.073688 5.257511
-2.058247 -0.010709 5.503787
-1.550599 0.105874 6.146164
-1.614835 0.077614 6.624974
-2.053837 -0.044470 6.951268
-2.074962 -0.068097 7.703114
-2.061829 -0.076522 8.194126
-2.037875 -0.080053 8.598960
-1.940619 -0.067155 9.113311
-1.490639 0.033162 9.808033
-1.712610 0.079384 -0.130940
-1.986666 -0.030288 0.435529
-1.984842 -0.037034 0.734184
-1.891838 -0.016328 1.209884
-1.900362 -0.033219 1.772805
-2.228659 -0.178222 3.002541
-2.554915 -0.309600 3.709924
-2.481975 -0.291620 4.012601
-2.441288 -0.293493 4.662932
-2.298735 -0.255862 5.153686
-1.954874 -0.144354 5.498666
-1.491771 -0.005176 6.408127
-1.625299 -0.058882 6.695083
-1.854041 -0.145381 6.964084
-1.966356 -0.202812 7.701266
-1.937383 -0.202682 8.105111
-1.912238 -0.203917 8.510142
-1.924561 -0.222596 9.091738
-1.502229 -0.094510 9.874172
-1.369416 0.108797 -0.815935
-1.261751 0.144392 -0.336970
-1.524711 0.015190 0.148095
-1.885922 -0.152984 0.450089
-1.791862 -0.123335 0.925255
-1.794303 -0.136557 1.400531
-1.714598 -0.117880 2.055600
-2.133667 -0.337517 3.366341
-2.350547 -0.447668 3.906913
-2.301022 -0.440071 4.470918
-2.220029 -0.407443 4.602152
-1.997747 -0.323783 5.192815
-1.773823 -0.237335 5.702846
-1.214871 -0.008204 6.453569
-1.379206 -0.095384 7.008687
-1.860343 -0.312485 7.140446
-1.839499 -0.315755 7.631045
-1.838538 -0.330135 8.210829
-1.876898 -0.366497 8.967386
-0.844727 0.291349 -0.822773
-1.618530 -0.138682 -0.226267
-1.960617 -0.334563 0.255378
-1.866492 -0.299073 0.818155
-1.778250 -0.262141 1.207472
-1.785550 -0.283329 1.860205
-1.876138 -0.335015 1.980755
-1.715243 -0.264051 2.553711
-1.821726 -0.333522 3.024644
-2.294790 -0.602958 3.636207
-2.412384 -0.678073 4.095687
-2.176609 -0.562717 4.505959
-2.032282 -0.496169 4.910694
-1.829511 -0.405719 5.594371
-1.756312 -0.410068 7.238842
-1.785539 -0.431308 7.450136
-1.841635 -0.471575 7.836839
-1.842347 -0.487323 8.417275
-1.779423 -0.471909 9.107450
-1.488050 -0.326122 9.492522
-1.688909 -0.323162 -0.328275
-2.011247 -0.546860 0.238948
-1.836109 -0.449440 0.799271
-1.667161 -0.353713 1.276799
-1.673618 -0.376004 1.929395
-1.970341 -0.606459 3.334840
-2.236660 -0.785853 3.608078
-2.253070 -0.804608 3.902171
-1.966688 -0.641195 4.670341
-1.745896 -0.510355 5.087782
-1.620347 -0.443216 5.586615
-1.618401 -0.484861 7.131203
-1.775037 -0.601069 7.677022
-1.663715 -0.540980 8.099200
-1.666132 -0.558707 8.681290
-1.728531 -0.609691 9.067624
-1.398250 -0.412838 9.651419
-1.732229 -0.522386 -0.199545
-1.958880 -0.710527 0.277211
-1.793516 -0.597406 0.749830
-1.632631 -0.485265 1.138799
-1.636498 -0.510042 1.879737
-1.798166 -0.640215 2.083000
-1.575331 -0.488620 2.748376
-2.158427 -0.957856 3.472493
-2.023263 -0.868293 3.957262
-1.752050 -0.682675 4.729388
-1.608957 -0.579576 4.961193
-1.589502 -0.586773 5.713518
-1.352621 -0.451713 7.307353
-1.456527 -0.537282 7.502717
-1.607090 -0.669038 8.049636
-1.660295 -0.721286 8.436199
-1.665108 -0.742112 9.018172
-1.351354 -0.518228 9.600455
-1.463566 -0.448206 -0.130328
-1.678095 -0.651822 0.265088
-1.595892 -0.593527 0.744428
-1.592558 -0.613845 1.489302
-1.594133 -0.624728 1.792485
-1.777019 -0.835060 3.304857
-1.941585 -0.993429 3.677725
-1.737606 -0.862864 5.317813
-1.382328 -0.554697 5.591707
-1.231350 -0.447548 6.469524
-0.982620 -0.242840 7.014360
-1.024642 -0.292704 7.410960
-1.364589 -0.605962 7.736995
-1.496593 -0.738069 8.198359
-1.497620 -0.757302 8.784206
-1.479153 -0.753674 9.194679
-1.198512 -0.524663 9.872079
-1.154000 -0.276164 -0.392617
-1.209265 -0.350713 0.094375
-1.545794 -0.717678 0.490126
-1.470469 -0.654791 0.970163
-1.467978 -0.671421 1.538730
-1.470153 -0.689952 2.018610
-1.701284 -0.974798 3.259642
-1.789833 -1.086607 3.814308
-1.538246 -0.881254 5.556299
-1.155165 -0.494663 6.025585
-0.912544 -0.255048 6.477245
-0.894799 -0.256485 7.070392
-1.146727 -0.535968 7.507580
-1.324166 -0.734531 7.866183
-1.398789 -0.835170 8.523065
-1.446749 -0.898773 8.913442
-1.429591 -0.894656 9.324310
-1.130525 -0.369355 -0.478034
-1.178897 -0.447367 0.009498
-1.483938 -0.839857 0.406623
-1.412312 -0.772289 0.975351
-1.408782 -0.785764 1.455738
-1.409223 -0.807413 2.023795
-1.618740 -1.116182 3.351439
-1.695697 -1.228814 3.818063
-1.717029 -1.276051 4.378541
-1.550916 -1.089107 4.883445
-1.195862 -0.666459 5.341640
-1.099666 -0.566202 5.849430
-0.888942 -0.328659 6.479355
-0.856674 -0.304030 6.892008
-1.083798 -0.601571 7.330469
-1.268696 -0.853765 7.955844
-1.298767 -0.902246 8.258481
-1.359082 -0.998001 8.825571
-1.311592 -0.965079 9.522380
-1.313061 -0.789772 -0.195162
-1.467509 -1.040297 0.375919
-1.349157 -0.879007 0.678229
-1.284632 -0.811574 1.337406
-1.282412 -0.828266 1.818537
-1.520118 -1.236075 3.233608
-1.640965 -1.429003 3.605857
-1.600512 -1.393176 4.174626
-1.448773 -1.191213 4.678594
-1.244361 -0.912631 5.200488
-1.104385 -0.732224 5.807628
-0.902558 -0.454415 6.256619
-0.883055 -0.450309 6.848316
-0.979959 -0.615861 7.408410
-1.108162 -0.811722 7.590847
-1.210771 -0.985282 8.141973
-1.245600 -1.052613 8.532040
-1.253474 -1.092158 9.206750
-1.063274 -0.828883 9.594429
-0.859856 -0.200491 -0.532966
-1.247577 -0.894452 -0.299864
-1.380445 -1.155424 0.269907
-1.269061 -0.990143 0.923815
-1.214604 -0.912724 1.315218
-1.211956 -0.922317 1.616813
-1.259426 -1.036756 2.268843
-1.064340 -0.720958 2.857546
-1.470936 -1.475501 3.668875
-1.431712 -1.429133 4.149530
-1.250063 -1.137601 4.750878
-1.112157 -0.910448 5.084214
-0.982648 -0.706736 5.600552
-0.914044 -0.618443 6.289044
-0.831284 -0.488443 6.622781
-0.858356 -0.559070 7.108043
-1.035263 -0.891170 7.541492
-1.080530 -1.001983 8.198909
-1.054256 -0.970860 8.519512
-1.099859 -1.078012 9.086990
-1.003584 -0.938301 9.718836
-1.124614 -0.890793 0.133979
-1.156690 -0.984402 0.614823
-1.149655 -0.990865 1.005951
-1.143231 -1.003435 1.485782
-1.138768 -1.024945 2.054187
-1.137786 -1.039303 2.356297
-1.182482 -1.173476 3.095053
-1.270010 -1.368396 3.293918
-1.320780 -1.510096 3.936103
-1.282933 -1.447200 4.243548
-1.123451 -1.144524 4.846663
-1.007829 -0.929170 5.359027
-0.940874 -0.820681 5.954089
-0.795818 -0.554627 6.672682
-0.770916 -0.524573 7.083405
-0.923130 -0.868373 7.518036
-0.987129 -1.023317 7.891960
-0.967505 -1.004266 8.300830
-0.997960 -1.094366 8.779893
-1.001288 -1.138128 9.456180
-0.875192 -0.512756 -0.034680
-1.004801 -0.887497 0.452571
-1.067475 -1.078964 0.843678
-1.056875 -1.094282 1.500688
-1.018811 -1.007920 1.716805
-1.117875 -1.369334 3.226087
-1.190668 -1.592108 3.686299
-1.229982 -1.726639 4.150409
-1.132249 -1.513009 4.828211
-0.960436 -1.082306 5.183829
-0.835406 -0.804476 5.982287
-0.735005 -0.555977 6.238392
-0.722780 -0.574551 7.009888
-0.797688 -0.778797 7.104487
-0.896884 -1.088253 7.820798
-0.913841 -1.158863 8.211732
-0.866249 -1.067247 8.729978
-0.851222 -1.054693 9.141845
-0.748119 -0.831400 9.888410
-0.825048 -0.499124 -0.820954
-0.918082 -0.873217 -0.234293
-0.990383 -1.159004 0.163351
-0.981164 -1.160063 0.555528
-0.940430 -1.073914 1.215694
-0.932688 -1.087666 1.697000
-0.981784 -1.298918 2.170001
-0.866621 -0.939630 2.669551
-0.864518 -0.958073 2.974017
-1.056059 -1.662622 3.406578
-1.000697 -1.533478 4.161370
-0.974099 -1.466941 4.471012
-0.894834 -1.241161 5.068920
-0.761512 -0.822039 5.609710
-0.657538 -0.505048 6.148030
-0.669126 -0.602072 6.816678
-0.703046 -0.745024 7.108043
-0.801603 -1.140553 7.720440
-0.812442 -1.211523 8.112244
-0.821546 -1.268881 8.414726
-0.788631 -1.213121 9.111800
-0.744970 -1.090104 9.457066
-0.758506 -0.549532 0.044397
-0.764466 -0.647715 0.623295
-0.834903 -1.044521 1.016017
-0.828891 -1.050676 1.320532
-0.835774 -1.173287 2.066994
-0.810310 -1.093674 2.464189
-0.823213 -1.224760 3.029345
-0.880492 -1.532637 3.223677
-0.914890 -1.779071 3.860149
-0.893340 -1.708359 4.168141
-0.831787 -1.472539 4.761914
-0.732109 -1.050790 5.386840
-0.673192 -0.808918 5.818797
-0.655153 -0.778356 6.318394
-0.658109 -0.850600 6.804407
-0.682920 -1.040079 7.362554
-0.707079 -1.204661 7.737806
-0.714739 -1.310072 8.306325
-0.686059 -1.249867 9.002536
-0.670304 -1.199233 9.236714
-0.565746 -0.773015 10.028818
-0.704013 -0.421166 -0.591123
-0.740211 -0.810824 -0.185667
-0.747417 -1.005325 0.478960
-0.761833 -1.206523 0.870202
-0.737977 -1.117615 1.441420
-0.731888 -1.126350 1.744126
-0.712659 -1.041735 2.139862
-0.664235 -0.782706 2.906987
-0.706481 -1.198595 3.186080
-0.768906 -1.834982 3.707520
-0.762656 -1.876328 4.179963
-0.734394 -1.716512 4.584540
-0.667542 -1.306298 5.380892
-0.594529 -0.741546 5.667723
-0.565101 -0.647627 6.451000
-0.562300 -0.721170 6.937407
-0.585436 -0.937205 7.031687
-0.606730 -1.244277 7.658953
-0.605747 -1.331882 8.138247
-0.593563 -1.327737 8.636048
-0.570179 -1.232544 9.155748
-0.547489 -1.143942 9.678856
-0.686388 -0.678552 -0.843516
-0.687366 -0.965496 -0.347106
-0.682178 -1.059368 0.051063
-0.666592 -1.057873 0.715443
-0.661935 -1.161994 1.110093
-0.651077 -1.172371 1.594348
-0.634079 -1.092252 2.171624
-0.617382 -1.020301 2.751376
-0.620907 -1.349152 3.217363
-0.630131 -1.663170 3.411624
-0.631448 -1.892536 3.785551
-0.518527 -0.668950 6.323713
-0.507092 -0.628421 6.737154
-0.513117 -1.001073 7.178316
-0.522330 -1.347586 7.434004
-0.507395 -1.367248 8.110163
-0.502855 -1.425266 8.413341
-0.486363 -1.326224 8.933477
-0.467656 -1.273377 9.635096
-0.633832 -0.528694 -0.731064
-0.603686 -1.015969 -0.230875
-0.581191 -1.309346 0.256333
-0.570352 -1.408193 0.560035
-0.564402 -1.212431 1.132392
-0.552757 -1.222115 1.615248
-0.544593 -1.137642 2.101816
-0.536160 -1.058970 2.590522
-0.512921 -1.385098 3.056406
-0.495566 -1.610429 3.433950
-0.475850 -1.846433 3.895198
-0.458410 -1.905729 4.545730
-0.464000 -1.369762 5.175847
-0.471383 -0.832269 5.731725
-0.464445 -0.698282 6.246115
-0.459008 -0.642914 6.568712
-0.429389 -1.041516 7.190210
-0.407666 -1.402768 7.534235
-0.393828 -1.406145 8.121258
-0.376387 -1.515975 8.689803
-0.376225 -1.363623 8.943890
-0.365081 -1.211994 9.667012
-0.551758 -0.874417 -0.666489
-0.519757 -1.062385 -0.263434
-0.517086 -0.954034 0.402602
-0.523981 -0.854109 0.618721
-0.472132 -1.157061 1.279887
-0.447709 -1.266723 1.759800
-0.453713 -1.173916 1.977547
-0.458473 -1.002460 2.649201
-0.417699 -1.232608 3.210382
-0.370222 -1.556163 3.580498
-0.322492 -1.883022 3.944586
-0.303309 -1.932901 4.506342
-0.367404 -1.290064 5.057072
-0.407187 -0.851785 5.599135
-0.414951 -0.704125 6.021673
-0.403360 -0.684614 6.614275
-0.348994 -1.051778 7.055139
-0.298120 -1.408766 7.399311
-0.269046 -1.522589 8.055847
-0.266518 -1.480900 8.375944
-0.253646 -1.434319 9.161036
-0.267832 -1.226609 9.616493
-0.504990 -0.703061 0.052446
-0.494277 -0.698228 0.543547
-0.378183 -1.190766 1.207242
-0.364887 -1.199324 1.692307
-0.355904 -1.207627 1.998492
-0.340746 -1.225365 2.483254
-0.374219 -0.970645 3.255365
-0.346490 -1.082169 3.466198
-0.213157 -1.696327 3.814017
-0.209822 -1.645291 4.390322
-0.302713 -1.115034 5.023204
-0.343208 -0.865651 5.454880
-0.330340 -0.849091 6.136672
-0.329480 -0.805125 6.548631
-0.255000 -1.096524 7.184613
-0.169851 -1.464091 7.617440
-0.162572 -1.485166 7.742885
-0.136834 -1.522169 8.507152
-0.155999 -1.388002 8.849463
-0.169950 -1.234933 9.572233
-0.332485 -1.125025 0.125557
-0.322109 -1.120170 0.610527
-0.282246 -1.216836 1.094078
-0.268707 -1.222962 1.577776
-0.253578 -1.234572 2.061325
-0.261365 -1.159496 2.639131
-0.294534 -0.996393 3.225873
-0.277842 -1.020671 3.622144
-0.153639 -1.424947 3.895331
-0.172780 -1.294995 4.662560
-0.262322 -0.950528 5.099848
-0.295493 -0.801310 5.520364
-0.267255 -0.857613 6.008505
-0.198712 -1.038775 6.661076
-0.102929 -1.353918 6.831406
-0.051902 -1.466907 7.578962
-0.030135 -1.516477 7.881418
-0.007661 -1.537322 8.556636
-0.037675 -1.405513 8.898765
-0.071438 -1.236470 9.532147
-0.342542 -0.866304 0.273655
-0.367659 -0.768849 0.763467
-0.176135 -1.237044 1.244962
-0.167126 -1.240622 1.550538
-0.148008 -1.253090 2.124155
-0.133249 -1.265969 2.517097
-0.140967 -1.202344 3.184105
-0.126861 -1.219323 3.488029
-0.093376 -1.263567 4.149088
-0.107079 -1.201589 4.551447
-0.179010 -0.974490 5.156772
-0.230192 -0.819506 5.486150
-0.191333 -0.883228 6.063440
-0.114527 -1.046963 6.624968
0.006952 -1.352786 6.794544
0.101758 -1.552515 7.524164
0.092471 -1.507523 7.842637
0.116271 -1.525647 8.516842
0.083686 -1.412624 8.946666
0.027187 -1.229823 9.489960
-0.454762 -0.534026 -0.097984
-0.272398 -0.885336 0.576993
-0.048196 -1.336352 1.058874
-0.076511 -1.249415 1.543903
-0.066342 -1.254332 1.848726
-0.083280 -1.181638 2.515679
-0.061807 -1.200777 2.999931
0.004328 -1.315445 3.476620
0.025544 -1.339036 3.869821
-0.030482 -1.192230 4.370456
-0.077822 -1.058761 4.965037
-0.127929 -0.924089 5.474235
-0.140330 -0.875169 5.884161
-0.045294 -1.041697 6.537309
0.071836 -1.271113 6.902111
0.182142 -1.491105 7.173857
0.235402 -1.573353 7.741633
0.259820 -1.588361 8.415338
0.177397 -1.388189 8.864047
0.128290 -1.264749 9.207468
-0.662759 -0.148150 -0.520070
-0.310757 -0.745554 -0.193911
-0.054440 -1.168588 0.299233
0.104914 -1.423343 0.781912
0.070512 -1.336662 1.353977
0.033680 -1.254002 1.749919
0.009991 -1.181547 2.416345
0.032368 -1.197821 2.900310
0.062556 -1.223516 3.473360
0.135113 -1.331739 3.859029
0.104752 -1.264257 4.171410
-0.004273 -1.046265 4.773871
-0.024205 -0.992513 5.180663
-0.034717 -0.950870 5.678977
0.023003 -1.020129 6.345066
0.166363 -1.248344 6.799981
0.321251 -1.492731 7.337997
0.353171 -1.534156 7.639665
0.298883 -1.419700 8.065777
0.327162 -1.437234 8.742122
0.290037 -1.348205 9.263116
0.160033 -1.095282 9.831753
-0.245095 -0.758436 0.217897
-0.128287 -0.919629 0.436258
0.162848 -1.327600 0.829949
0.122034 -1.244488 1.403169
0.142312 -1.250429 1.975452
0.102435 -1.175915 2.373319
0.135179 -1.196295 3.035931
0.213825 -1.294940 3.422616
0.232506 -1.309647 3.726018
0.227949 -1.271736 4.484152
0.089949 -1.053151 4.908574
0.010529 -0.920180 5.326758
0.061924 -0.971289 5.903273
0.126998 -1.038668 6.568519
0.260716 -1.225859 6.753958
0.434261 -1.456540 7.291952
0.413742 -1.413503 7.610508
0.328542 -1.259982 8.322718
0.348429 -1.264627 8.912649
0.335226 -1.232036 9.236379
-0.440995 -0.493428 -0.735915
0.002523 -1.019590 -0.229943
0.008890 -1.006144 0.345321
-0.044917 -0.922073 0.831300
0.220348 -1.230261 1.309923
0.240167 -1.233500 1.880845
0.185849 -1.158742 2.097982
0.217271 -1.172890 2.759418
0.244421 -1.188425 3.241408
0.337936 -1.285791 3.715223
0.296279 -1.223141 4.025598
0.159408 -1.029494 4.715275
0.146743 -0.992314 5.300096
0.130403 -0.953877 5.796770
0.108349 -0.911693 6.204959
0.347629 -1.189364 6.645493
0.506559 -1.374586 6.916696
0.586866 -1.449033 7.571547
0.587872 -1.431979 8.066226
0.580086 -1.407354 8.473579
0.553462 -1.348948 9.168663
0.336525 -1.057419 9.845394
0.095642 -0.997618 0.605702
0.319383 -1.208127 1.269759
0.326213 -1.207907 1.487332
0.351889 -1.212356 2.148588
0.306184 -1.148364 2.635984
0.339085 -1.163320 3.208564
0.358808 -1.173610 3.512476
0.393342 -1.193303 3.994896
0.301800 -1.078118 4.585749
0.156269 -0.903161 5.282750
0.118134 -0.852743 5.601125
0.179818 -0.897505 6.178209
0.441013 -1.154486 6.620027
0.625825 -1.334681 6.981184
0.688591 -1.383886 7.459817
0.700202 -1.376288 8.044085
0.677003 -1.341371 8.363823
0.659016 -1.296213 9.148555
0.522473 -1.138763 9.603599
0.235373 -1.075347 -0.288146
0.237223 -1.064491 0.110914
0.245021 -1.053338 0.689732
0.407633 -1.181251 1.264869
0.423971 -1.180660 1.751315
0.436521 -1.182278 2.058882
0.385617 -1.121189 2.549954
0.424587 -1.135281 3.215902
0.451675 -1.147138 3.613045
0.496040 -1.168910 4.188499
0.382327 -1.053797 4.604657
0.224901 -0.890517 5.305635
0.257362 -0.909928 5.615668
0.291551 -0.930900 5.925413
0.496023 -1.099971 6.386189
0.727803 -1.288159 7.018968
0.782258 -1.324684 7.412758
0.793036 -1.315980 7.998758
0.781455 -1.292725 8.408840
0.745726 -1.238773 9.106599
0.630335 -1.115292 9.741545
-0.233373 -0.639402 -0.604113
0.243309 -0.988974 -0.190188
0.484030 -1.159905 0.209993
0.651202 -1.269976 0.782607
0.583147 -1.204160 1.266530
0.519711 -1.141781 1.752712
0.465261 -1.083533 2.330642
0.491467 -1.089206 2.815708
0.528413 -1.100418 3.389882
0.643862 -1.174071 3.865992
0.589740 -1.123820 4.179432
0.413353 -0.969666 4.872798
0.315430 -0.877794 5.472475
0.339788 -0.889897 5.690231
0.251462 -0.805154 6.295145
0.550731 -1.019232 6.738960
0.840861 -1.229205 7.086202
0.939080 -1.284479 7.743360
0.938157 -1.269203 8.240853
0.818278 -1.170848 8.493143
0.779404 -1.120859 9.192586
0.577954 -0.948702 9.851340
0.320316 -0.991754 -0.878209
0.565939 -1.132713 -0.204606
0.566270 -1.124410 0.101361
0.488231 -1.057668 0.676007
0.579970 -1.106323 1.071026
0.600434 -1.101157 1.734556
0.616906 -1.100866 2.129740
0.479221 -0.995072 2.714049
0.676759 -1.110340 3.187377
0.775355 -1.168630 3.396413
0.751620 -1.132102 4.154169
0.577071 -0.995833 4.972135
0.380516 -0.853538 5.492533
0.449629 -0.882407 6.069811
0.703338 -1.029669 6.705834
0.899144 -1.151852 6.890341
0.984502 -1.191520 7.459125
1.047108 -1.221353 7.849772
0.979609 -1.160627 8.454540
0.903048 -1.096370 8.974430
0.732973 -0.973100 9.429975
0.305614 -0.891508 -0.176384
0.571256 -1.019001 0.402880
0.839084 -1.154965 0.706830
0.768429 -1.097090 1.457097
0.694402 -1.046785 1.853264
0.535836 -0.950862 2.255447
0.732399 -1.046353 2.640597
0.979669 -1.151794 3.679177
0.932688 -1.113591 4.167512
0.899931 -1.080629 4.746644
0.699787 -0.956987 5.351138
0.485069 -0.830082 5.783059
0.472773 -0.807832 6.373145
0.689388 -0.916971 6.650154
1.021281 -1.083894 7.085856
1.111927 -1.117594 7.653494
1.123224 -1.108168 8.238434
1.108427 -1.089368 8.647614
0.960654 -0.993227 9.277010
0.735924 -0.854941 9.935261
0.290774 -0.837322 -0.631224
0.837659 -1.070108 -0.397943
1.018236 -1.134287 0.177221
1.024238 -1.120111 0.836743
0.851512 -1.032419 1.319487
0.867252 -1.027039 1.800550
0.601242 -0.905203 2.025010
0.807635 -0.983211 2.499652
1.073351 -1.068263 3.714525
1.007658 -1.031702 4.024150
1.334740 -1.160777 4.562230
0.930504 -0.970805 5.092917
0.521773 -0.780882 5.544607
0.607253 -0.801253 6.209928
0.753231 -0.855296 6.590001
1.006558 -0.954394 7.041002
1.189054 -1.020026 7.591950
1.240907 -1.035014 7.892253
1.237703 -1.020998 8.387706
1.186058 -0.980778 9.081800
0.947700 -0.860087 9.735277
0.733642 -0.934975 -0.451079
0.634318 -0.884595 0.212354
0.825549 -0.940316 0.608205
1.018757 -0.999005 0.911218
1.032054 -0.989489 1.481558
0.773325 -0.884333 2.152566
1.067060 -0.979930 2.354911
1.509918 -1.106381 3.376668
1.283972 -0.988452 5.020482
0.695146 -0.770687 5.673937
0.559583 -0.713838 6.096537
0.581034 -0.701221 6.905734
1.124640 -0.877412 7.309783
1.238432 -0.900176 7.966573
1.252263 -0.890459 8.552484
1.201693 -0.867402 8.785090
1.023231 -0.792921 9.326912
0.228095 -0.727652 -0.563600
0.609944 -0.814441 -0.156061
0.899276 -0.871566 0.511446
1.098610 -0.910403 0.992901
1.109562 -0.901585 1.474260
0.928817 -0.846256 1.873164
1.769724 -1.029625 3.092900
1.335950 -0.903322 3.781007
0.976219 -0.804211 4.117695
1.234356 -0.854096 4.758164
1.085472 -0.806470 5.171901
0.699083 -0.689126 5.985851
0.754223 -0.693532 6.382261
1.032328 -0.750784 6.926505
1.287277 -0.806609 7.286758
1.243525 -0.787855 7.606001
1.330150 -0.798223 8.085597
1.344942 -0.787843 8.672168
1.140862 -0.725334 9.124117
0.792493 -0.620842 9.803731
0.285261 -0.704022 -0.474098
0.674824 -0.761615 -0.157820
0.967611 -0.796854 0.419926
1.267024 -0.835498 0.900544
1.177516 -0.809141 1.382515
0.991937 -0.768719 1.780644
1.927613 -0.901258 2.785031
1.848065 -0.880781 3.088799
1.412674 -0.789698 3.864299
1.388313 -0.766989 4.652016
1.168165 -0.713894 5.341640
0.716650 -0.629837 5.706407
0.794290 -0.629189 6.281892
1.047230 -0.662798 6.647237
1.332317 -0.697682 7.185634
1.383354 -0.699081 7.486803
1.372010 -0.685457 7.982493
1.401986 -0.674513 8.656606
1.231114 -0.631090 9.285346
1.131704 -0.752907 -0.407697
1.124707 -0.740976 0.073804
1.322514 -0.747927 0.555181
1.326794 -0.737090 1.034383
2.095814 -0.764064 2.907977
1.836245 -0.726565 3.487051
1.775674 -0.709695 3.968593
1.681748 -0.676271 5.025223
1.024820 -0.606766 5.407045
0.826667 -0.569953 6.198342
0.660216 -0.548894 6.442187
0.930350 -0.563105 6.898284
1.386917 -0.597482 7.227197
1.501461 -0.592688 7.882238
1.459803 -0.581374 8.201099
1.432202 -0.558406 9.072459
1.244958 -0.528423 9.615285
0.600547 -0.660027 -0.791675
1.186253 -0.651250 -0.198664
1.480728 -0.642493 0.285630
1.481570 -0.629252 0.853253
1.386779 -0.619276 1.245532
1.495706 -0.611147 1.634167
2.165361 -0.582276 3.119196
1.707358 -0.564375 3.716472
1.984325 -0.547074 4.560356
1.727001 -0.535082 4.978811
1.110164 -0.512482 5.718558
0.864979 -0.500221 6.153046
0.961624 -0.485527 6.818421
1.192890 -0.483214 7.003156
1.500220 -0.471274 7.628602
1.488814 -0.459580 8.125373
1.465888 -0.449825 8.534837
1.367739 -0.436845 9.054574
1.143939 -0.578776 -0.695249
1.235323 -0.565555 -0.386795
1.426313 -0.541633 0.099204
1.623048 -0.517444 0.580529
1.426336 -0.519101 1.062468
2.186859 -0.427115 2.857969
1.868603 -0.421070 4.010772
2.119156 -0.391886 4.554413
1.852271 -0.401684 4.885503
1.245017 -0.422245 5.712929
1.011622 -0.425373 6.235118
0.857095 -0.427728 6.568653
1.028914 -0.405449 7.038338
1.516278 -0.361614 7.542841
1.553200 -0.354222 7.755110
1.593289 -0.333786 8.516161
1.573429 -0.325534 8.924792
1.362606 -0.328814 9.377018
1.191116 -0.485785 -0.808023
1.271825 -0.458128 -0.142918
1.367107 -0.438881 0.074193
1.561244 -0.400813 0.467920
1.564570 -0.382725 1.213655
2.235612 -0.235973 3.217468
1.894518 -0.268441 3.984368
2.043016 -0.233370 4.537809
1.885188 -0.247130 4.946216
1.348786 -0.313705 5.494612
1.137463 -0.328493 6.195488
0.873095 -0.361565 6.454740
1.069006 -0.317152 7.106237
1.537444 -0.237868 7.523472
1.620609 -0.214224 8.003080
1.595431 -0.208295 8.412575
1.592067 -0.197018 8.911667
0.736303 -0.497581 -0.694134
1.400323 -0.325560 -0.013398
1.589801 -0.271681 0.380753
1.685631 -0.239839 0.771686
1.687773 -0.229974 1.162259
1.919818 -0.105049 4.103692
2.058127 -0.061490 4.567871
1.902145 -0.088305 4.975025
1.394045 -0.190059 5.700318
1.187934 -0.221595 6.400854
1.050130 -0.243747 6.824726
1.178015 -0.208965 7.024758
1.599727 -0.091229 7.811082
1.525179 -0.105298 7.953421
1.773164 -0.027688 8.765221
1.754819 -0.022197 9.173720
1.326568 -0.241578 0.002026
1.701583 -0.111197 0.398342
1.794686 -0.071663 0.788957
1.701836 -0.089764 1.269209
1.938459 0.060893 4.308663
1.964392 0.076611 4.609427
1.848045 0.057861 5.371566
1.429763 -0.063419 5.914224
1.089633 -0.164029 6.274338
1.084709 -0.148925 6.955015
1.236955 -0.090613 7.335352
1.500794 0.005290 7.784454
1.675373 0.072751 8.244909
1.854921 0.141728 8.701971
1.759768 0.123784 9.218785
1.622809 -0.032340 -0.174043
1.892900 0.087193 0.218332
1.888560 0.095187 0.605625
1.702632 0.031745 1.083596
1.707238 0.045642 1.561051
1.839703 0.195664 5.381868
1.513406 0.074252 5.820744
1.121666 -0.068685 6.459859
1.105677 -0.060340 7.048839
1.554736 0.134688 7.553909
1.630070 0.177316 8.032073
1.710635 0.222041 8.509191
1.780158 0.260041 8.897237
1.688832 0.236014 9.415273
1.348047 -0.031198 0.000981
1.696078 0.159807 0.572938
1.783386 0.216453 1.050191
1.786496 0.230510 1.527506
1.975681 0.421153 5.157599
1.141861 0.037431 6.612385
1.091716 0.020433 6.932254
1.332992 0.154266 7.382933
1.490687 0.246138 7.845754
1.638932 0.330834 8.216980
1.850728 0.456797 8.936885
1.713460 0.393971 9.189545
0.860991 -0.241266 -0.837969
1.608043 0.233359 -0.242521
1.849803 0.399629 0.413008
1.760570 0.355480 0.799971
1.675160 0.318565 1.365460
1.763040 0.380610 1.662384
1.854479 0.447202 2.045603
2.361193 0.811110 3.982538
2.174163 0.722792 4.947638
1.876259 0.554196 5.465106
1.138653 0.133966 6.644559
1.027980 0.080152 7.158905
1.427912 0.336891 7.574455
1.566494 0.432088 7.946120
1.735177 0.550500 8.491167
1.782825 0.587900 8.789454
1.727633 0.494514 0.576243
1.723684 0.508015 1.142771
1.725314 0.522955 1.617655
2.359522 1.052422 3.842065
2.386849 1.085917 4.306950
2.239642 0.984510 4.533080
2.039477 0.854719 5.120338
1.330999 0.368871 6.284860
1.061702 0.187012 6.824726
1.276728 0.357732 7.275081
1.507297 0.542250 7.808319
1.468633 0.416813 0.051008
1.614513 0.550370 0.353486
1.684982 0.622302 0.741458
1.681924 0.634280 1.217108
1.683132 0.649891 1.692661
1.688607 0.669131 2.168051
2.346432 1.276657 3.703901
2.294123 1.246618 4.177640
2.230083 1.198696 4.394122
2.120384 1.125516 5.055456
1.777542 0.849687 5.585632
1.531720 0.661849 6.289784
1.192040 0.386669 6.753260
1.148106 0.359020 7.072244
1.437995 0.621947 7.592642
1.646660 0.813254 8.034057
1.709111 0.881014 8.508772
1.652144 0.853657 9.199432
0.892285 -0.031580 -0.804397
1.577118 0.677140 -0.208220
1.917619 1.035569 0.270995
1.766789 0.905238 0.917756
1.693906 0.844721 1.304631
1.694557 0.861058 1.778296
2.226053 1.453758 3.529672
2.178907 1.424835 4.088717
2.048340 1.300930 4.313858
1.949553 1.226338 5.062727
1.758612 1.045189 5.393443
1.456728 0.765119 6.107583
1.147372 0.472102 6.657702
1.599365 0.958717 7.620751
1.642267 1.014638 8.006132
1.698513 1.086859 8.478344
1.608528 1.010385 8.902952
1.395425 0.814487 9.461625
1.459187 0.715575 -0.254280
1.704887 1.022788 0.318396
1.693818 1.036430 1.058855
1.691560 1.047771 1.448548
1.626403 0.982689 1.753586
1.911186 1.371674 3.334839
2.115450 1.619885 3.610403
2.075160 1.596131 4.258800
2.023930 1.547310 4.564172
1.854047 1.367111 5.066461
1.629132 1.126525 5.675312
1.461784 0.946642 6.103901
1.584488 1.115854 6.830129
1.618510 1.169459 7.217946
1.599189 1.164570 7.710162
1.574479 1.150296 8.116067
1.582427 1.183600 8.786092
1.426044 1.014140 9.148603
0.945197 0.189883 -0.816019
1.729958 1.323963 0.350057
1.667246 1.245498 0.561799
1.599915 1.178160 1.212960
1.539055 1.109398 1.603606
1.598643 1.217824 2.251588
1.601206 1.233345 2.551626
1.549437 1.180794 3.032831
1.672419 1.362655 3.319312
1.862504 1.647433 3.854494
1.881651 1.696125 4.409983
1.788649 1.590255 4.987054
1.637448 1.400939 5.494171
1.495325 1.227956 6.095361
1.468476 1.210308 6.585771
1.483575 1.239722 6.798612
1.541161 1.348960 7.536495
1.516722 1.331239 7.941342
1.503051 1.331981 8.434932
1.435259 1.258585 8.950251
1.256202 1.032859 9.512371
1.474605 1.201296 -0.151769
1.619632 1.458793 0.242369
1.506437 1.292981 0.714662
1.498684 1.305475 1.275968
1.495302 1.321235 1.749492
1.443565 1.265169 2.402706
1.549008 1.452442 2.690541
1.450728 1.311849 3.175368
1.560727 1.510397 3.546244
1.778197 1.889529 3.982256
1.742531 1.855916 4.544269
1.652583 1.725366 4.946413
1.469114 1.449354 5.550920
1.440295 1.423612 6.036504
1.414495 1.402932 6.523656
1.437628 1.458540 6.908915
1.423366 1.460954 7.485256
1.348749 1.356589 7.906080
1.393010 1.455046 8.467064
1.331407 1.376365 8.980407
1.171216 1.136835 9.540672
1.277515 1.137265 0.059166
1.404157 1.406781 0.362920
1.436492 1.505497 1.012756
1.432391 1.512935 1.312339
1.427944 1.528814 1.786722
1.381211 1.469371 2.440450
1.426292 1.570483 2.647556
1.431451 1.619243 3.383039
1.436587 1.649696 3.768992
1.491685 1.788802 4.319302
1.500894 1.827319 4.703487
1.333303 1.514099 5.132980
1.307670 1.492794 5.707823
1.326461 1.555246 6.182771
1.351901 1.635444 6.742517
1.322437 1.592797 7.055754
1.314144 1.610886 7.719837
1.288054 1.575131 8.035659
1.280869 1.591012 8.615014
0.984780 0.691322 -0.854302
1.187480 1.238304 -0.181310
1.326242 1.608400 0.209909
1.313984 1.612902 0.769175
1.307246 1.620194 1.153500
1.262588 1.544182 1.715601
1.259217 1.559907 2.100676
1.257557 1.574398 2.398028
1.293989 1.699820 2.951807
1.333331 1.832285 3.502329
1.335583 1.856386 3.797566
1.304751 1.815005 4.362815
1.236330 1.669875 4.766295
1.206620 1.620651 5.161702
1.257339 1.781191 5.708070
1.279437 1.882000 6.438863
1.249505 1.821442 6.662178
1.233749 1.818086 7.235044
1.225110 1.837998 7.896447
1.198157 1.785097 8.123539
1.148476 1.693284 8.633116
1.079968 1.572614 9.430556
1.108219 1.425953 -0.056377
1.214525 1.807619 0.421623
1.178456 1.714515 0.719979
1.167944 1.724841 1.280913
1.132474 1.640823 1.669726
1.124283 1.672585 2.406923
1.150747 1.795189 2.875075
1.149417 1.821093 3.257281
1.149172 1.850483 3.639238
1.179625 1.978471 4.012172
1.123563 1.842495 4.586444
1.097473 1.789143 4.979289
1.135442 1.961861 5.610607
1.141867 2.012721 5.991211
1.121703 1.985555 6.472823
1.101049 1.950042 6.868932
1.086458 1.948008 7.440477
1.044821 1.860054 8.031886
1.028652 1.839443 8.432965
0.987725 1.747360 8.943066
0.868480 1.421297 9.698318
1.004770 1.504150 -0.183026
1.058105 1.793727 0.381753
1.068353 1.896051 0.940301
1.036845 1.808680 1.413443
1.007891 1.723508 1.801184
1.002315 1.739339 2.186572
1.018285 1.866059 2.741369
1.037369 1.987866 3.118856
1.034203 2.022891 3.588642
1.032075 2.071380 4.144893
0.986484 1.933734 4.721352
0.964191 1.860015 4.941409
1.012484 2.142547 5.648767
0.991319 2.073840 5.870055
0.974739 2.070201 6.527150
0.959290 2.062612 7.098949
0.942673 2.032072 7.498265
0.926929 2.005440 7.898828
0.912062 1.982736 8.300599
0.884100 1.941746 9.072845
0.804469 1.645706 9.543546
0.875270 1.581240 -0.117637
0.902565 1.875378 0.535151
0.908333 1.977631 0.919854
0.885863 1.885648 1.306532
0.875067 1.902330 1.866965
0.869784 1.914365 2.165011
0.862062 1.937961 2.637662
0.867285 2.077940 3.277648
0.863540 2.100356 3.574370
0.843747 2.041850 4.053580
0.808758 1.908988 4.719516
0.806526 1.942031 5.017505
0.832287 2.206352 5.551845
0.815581 2.183806 6.121475
0.800347 2.129318 6.432071
0.785384 2.119294 7.004861
0.771789 2.133074 7.666106
0.757887 2.074276 7.893726
0.746351 2.102691 8.557742
0.719815 1.988882 8.982526
0.651889 1.629563 9.651427
0.713906 0.959616 -0.669856
0.754175 1.748967 -0.258876
0.753196 1.942490 0.305909
0.744192 1.942881 0.691965
0.733470 1.948427 1.165456
0.724990 1.957080 1.551427
0.713091 1.976265 2.112100
0.705193 1.994017 2.497772
0.702269 2.120456 2.964445
0.693291 2.152781 3.435716
0.683120 2.198265 3.993500
0.652459 1.962777 4.668291
0.648958 1.985465 4.879293
0.651773 2.259964 5.500662
0.647301 2.298418 5.795785
0.631491 2.290941 6.451610
0.610846 2.181434 7.038492
0.601566 2.118025 7.263966
0.589188 2.102685 7.751840
0.583789 2.191262 8.222051
0.572117 2.187638 8.711325
0.538375 1.955975 9.528194
0.618191 1.408311 -0.400400
0.597192 1.799108 0.170952
0.586324 1.997471 0.469897
0.577320 1.998684 0.854584
0.566171 2.005219 1.326685
0.550720 2.023207 1.973493
0.545668 2.031279 2.183103
0.528136 2.162904 2.823607
0.514429 2.198733 3.380652
0.502757 2.235008 3.850208
0.490520 2.185650 4.415862
0.484737 2.116080 4.722033
0.474964 2.158094 5.105367
0.454499 2.347634 5.822878
0.446182 2.301226 6.218116
0.438453 2.344454 6.512915
0.424601 2.248881 7.186549
0.415921 2.216087 7.585938
0.405636 2.285581 7.968169
0.393495 2.197184 8.562501
0.383491 2.098938 9.073527
0.557507 1.063017 -0.782557
0.468286 1.842289 -0.103020
0.438845 2.035852 0.376287
0.422481 2.134825 0.677217
0.418156 2.040222 1.241289
0.408290 2.048241 1.629977
0.391037 2.069993 2.278676
0.368598 2.191913 2.746712
0.352313 2.225696 3.305865
0.345984 2.240463 3.516602
0.340571 2.178335 3.996745
0.352751 1.923779 4.498464
0.310065 2.199571 5.212872
0.281751 2.432569 5.485868
0.286137 2.283914 5.895172
0.271434 2.275950 6.554309
0.265757 2.236630 6.954236
0.249335 2.246160 7.616514
0.239029 2.233686 8.106210
0.239071 2.175964 8.335992
0.220400 2.208409 9.002294
0.225662 2.018570 9.539468
0.241648 2.265532 0.063576
0.244647 2.162350 0.711636
0.250321 2.067007 1.188001
0.257383 1.975241 1.578999
0.248858 1.982972 1.880600
0.211689 2.105661 2.527458
0.193122 2.135071 3.089903
0.176367 2.165979 3.564639
0.165266 2.188392 3.864668
0.187972 1.958811 4.630314
0.158268 2.087010 4.920932
0.107302 2.324901 5.284989
0.099090 2.294829 5.857155
0.080832 2.346046 6.242864
0.061285 2.356289 6.990498
0.070216 2.238694 7.496566
0.044336 2.321117 7.969525
0.044346 2.279006 8.285210
0.028478 2.291236 8.862750
0.055106 2.081956 9.310540
0.101876 2.081572 0.253980
0.089166 2.078456 0.814613
0.076879 2.081727 1.287745
0.065810 2.088388 1.673348
0.045081 2.107660 2.320998
0.002880 2.224683 2.787882
-0.018826 2.255834 3.345979
-0.009622 2.185234 3.737663
0.002523 2.111340 4.043634
0.022384 1.975229 4.711115
-0.017760 2.100841 4.998738
-0.092812 2.343911 5.446418
-0.104014 2.326338 6.102821
-0.112611 2.306684 6.674115
-0.131281 2.350280 6.970164
-0.137251 2.328469 7.456277
-0.157069 2.343069 8.117346
-0.166693 2.334838 8.606131
-0.146643 2.220248 9.030172
-0.103363 2.015505 9.478992
-0.086943 2.175422 0.493190
-0.063507 2.079460 0.879865
-0.078832 2.083725 1.441450
-0.090869 2.090988 1.828039
-0.110504 2.107820 2.389254
-0.161382 2.222275 2.856948
-0.177821 2.242461 3.241949
-0.167396 2.177679 3.721658
-0.103819 1.944187 4.397065
-0.120164 1.970275 4.696052
-0.254168 2.316170 5.309073
-0.283817 2.368730 5.778513
-0.271540 2.310792 6.087897
-0.284923 2.302470 6.746040
-0.288402 2.277694 7.232035
-0.293843 2.258527 7.719421
-0.318160 2.308009 8.015646
-0.342038 2.329927 8.677978
-0.263885 2.160969 0.512615
-0.237355 2.067641 1.073905
-0.251245 2.071802 1.547670
-0.267376 2.081097 2.021290
-0.282188 2.092473 2.407342
-0.342269 2.202594 2.874639
-0.373464 2.236301 3.520340
-0.319398 2.084271 4.008833
-0.267830 1.937704 4.501547
-0.281012 1.955494 4.713511
-0.442838 2.289667 5.327050
-0.476796 2.339914 5.797140
-0.480538 2.315251 6.367588
-0.426243 2.172106 6.694494
-0.474422 2.249727 7.252738
-0.517509 2.320833 7.722976
-0.532478 2.321570 8.297911
-0.523663 2.283019 8.613927
-0.390429 2.044217 0.550525
-0.395132 2.042524 0.762343
-0.410165 2.042811 1.323952
-0.425694 2.048423 1.796283
-0.443854 2.058941 2.268436
-0.464642 2.074364 2.740346
-0.497390 2.103458 3.386447
-0.519200 2.125123 3.770354
-0.407551 1.892707 4.268910
-0.445753 1.936135 4.830230
-0.614457 2.232878 5.180833
-0.665772 2.296716 5.823216
-0.644420 2.241744 6.131988
-0.686688 2.297312 6.600614
-0.693804 2.282408 7.171396
-0.704837 2.274725 7.743635
-0.710012 2.260345 8.230514
-0.697710 2.221931 8.545108
-0.661743 2.129817 9.055327
-0.560101 1.904466 9.788318
-0.551612 2.007634 0.436074
-0.557733 2.004280 0.734328
-0.572497 2.003021 1.294918
-0.598315 2.011361 2.030167
-0.614777 2.020266 2.415532
-0.628883 2.029289 2.713397
-0.658646 2.051291 3.272960
-0.687063 2.074980 3.744815
-0.556928 1.852092 4.243891
-0.598368 1.892061 4.805931
-0.804972 2.189256 5.331120
-0.823111 2.208334 5.540321
-0.820778 2.180225 6.109943
-0.876242 2.242160 6.665946
-0.854208 2.194664 6.977281
-0.883411 2.207765 7.723654
-0.887235 2.192759 8.210189
-0.871748 2.155272 8.524423
-0.852075 2.095413 9.208222
-0.695942 1.833494 9.679183
-0.715492 1.955650 0.394736
-0.723027 1.950693 0.780108
-0.740786 1.948973 1.427788
-0.757782 1.952954 1.900427
-0.778177 1.961353 2.372873
-0.797312 1.971466 2.757743
-0.829155 1.991402 3.316926
-0.859730 2.013048 3.788401
-0.772479 1.881118 4.278084
-0.749495 1.832815 4.761435
-0.979652 2.111360 5.286685
-1.024362 2.151435 5.755820
-1.012275 2.117299 6.238457
-0.974703 2.060004 6.461956
-1.038093 2.120982 7.018285
-1.046424 2.109901 7.590852
-1.036470 2.081678 7.991230
-1.029001 2.056633 8.392806
-1.062448 2.074670 9.056100
-0.884133 1.825350 9.525803
-0.858614 1.896319 0.482538
-0.862513 1.893323 0.692648
-0.879145 1.889250 1.340006
-0.899152 1.892012 1.899744
-0.911905 1.895853 2.197098
-0.944730 1.909895 2.843697
-0.967549 1.921939 3.227968
-0.998910 1.940483 3.699181
-0.901442 1.814491 4.188169
-0.866711 1.761863 4.583401
-1.107045 2.014944 5.023350
-1.179333 2.070160 5.753110
-1.135819 2.013776 5.975264
-1.123060 1.982588 6.459240
-1.190733 2.038717 7.015574
-1.186465 2.016949 7.501370
-1.198631 2.010456 8.075316
-1.189909 1.986659 8.476943
-1.197657 1.978181 8.966573
-1.015360 1.755065 9.523070
-1.154827 1.960477 0.268212
-1.086370 1.886234 0.562370
-1.023678 1.811780 1.032912
-1.047143 1.810444 1.765550
-0.983053 1.742989 1.977124
-1.077534 1.817421 2.443515
-1.186543 1.900090 3.081447
-1.139461 1.843046 3.469929
-1.101927 1.792179 3.947413
-0.988894 1.672305 4.348754
-1.039428 1.702163 4.907909
-1.302144 1.936834 5.342651
-1.343048 1.963336 5.722624
-1.346298 1.945403 6.376398
-1.262770 1.850358 6.874030
-1.314317 1.886908 7.254774
-1.336013 1.886283 7.913218
-1.310108 1.851732 8.225448
-1.300173 1.829467 8.625714
-1.298800 1.800597 9.483667
-1.160752 1.728546 0.426850
-1.173211 1.719056 1.077663
-1.184581 1.716536 1.466042
-1.210047 1.717556 2.112782
-1.233774 1.722416 2.584439
-1.328853 1.789656 2.875319
-1.281725 1.737772 3.352369
-1.239091 1.689418 3.831375
-1.115632 1.578801 4.233952
-1.253585 1.669917 4.871783
-1.457513 1.819405 5.319249
-1.510695 1.847884 5.787657
-1.469197 1.805534 6.096037
-1.564913 1.860219 6.824297
-1.529757 1.822869 7.134821
-1.522970 1.802958 7.619994
-1.520836 1.786723 8.106500
-1.553746 1.793254 8.767750
-1.438697 1.693925 9.017253
-0.706320 1.266342 -0.469378
-1.200718 1.592612 -0.064837
-1.287255 1.635740 0.500645
-1.297763 1.626975 1.064682
-1.311748 1.623060 1.541181
-1.326636 1.622235 1.930132
-1.349114 1.624130 2.406318
-1.376264 1.629223 2.882237
-1.408081 1.637514 3.357822
-1.369596 1.595092 3.928644
-1.255843 1.500918 4.511480
-1.285588 1.512691 4.813803
-1.591680 1.706833 5.342312
-1.636994 1.726873 5.728383
-1.638273 1.709095 6.388257
-1.635804 1.691162 6.963047
-1.599544 1.657468 7.278868
-1.607323 1.646530 7.853841
-1.621986 1.640258 8.430129
-1.594938 1.612826 8.746985
-1.557123 1.567567 9.434363
-0.635444 1.113353 -0.692805
-0.979641 1.301141 -0.378779
-1.325821 1.487863 0.017012
-1.502357 1.575749 0.491826
-1.421345 1.519195 0.877815
-1.435620 1.512264 1.438718
-1.456714 1.509225 1.999440
-1.479821 1.509689 2.472520
-1.502251 1.512119 2.858022
-1.447583 1.468070 3.337574
-1.499268 1.480124 3.985631
-1.370072 1.393244 4.477912
-1.418642 1.408187 4.952387
-1.730341 1.574134 5.389791
-1.777144 1.590527 5.772755
-1.765060 1.568322 6.342851
-1.734180 1.540022 6.740951
-1.748203 1.530284 7.401000
-1.726587 1.507189 7.801916
-1.708495 1.486072 8.204051
-1.795240 1.522892 8.674251
-1.615460 1.408429 9.119862
-0.726392 1.061263 -0.799993
-0.990882 1.169619 -0.220124
-1.352550 1.332528 0.000318
-1.628083 1.444181 0.651998
-1.548277 1.392501 1.214304
-1.562979 1.387138 1.688715
-1.571198 1.385509 1.900768
-1.602680 1.383475 2.549636
-1.615028 1.383775 2.761495
-1.562299 1.344573 3.329374
-1.592311 1.348633 3.714968
-1.560175 1.316742 4.371741
-1.518609 1.284908 4.855555
-1.762398 1.384721 5.392423
-1.911423 1.442413 5.849629
-1.886070 1.418156 6.332685
-1.852833 1.392421 6.730435
-1.865798 1.381476 7.390146
-1.916070 1.397290 7.686057
-1.895182 1.377233 8.086841
-1.928609 1.375760 8.749122
-1.458018 1.225751 -0.265055
-1.738202 1.311220 0.474105
-1.740208 1.306738 0.684032
-1.654746 1.263277 1.157257
-1.674602 1.254519 1.804820
-1.691070 1.251037 2.189930
-1.706178 1.249230 2.487535
-1.752332 1.248071 3.221491
-1.788679 1.249807 3.693051
-1.838494 1.254379 4.251258
-1.690627 1.189506 4.655313
-1.732794 1.195553 5.040364
-1.997249 1.278142 5.660965
-1.967813 1.255218 6.143518
-1.930773 1.231599 6.540730
-1.989908 1.243997 6.923389
-1.974916 1.226348 7.409139
-1.889390 1.179897 8.001525
-1.995662 1.205433 8.558331
-1.907985 1.160221 9.068922
-1.735205 1.082824 9.605047
-1.268942 1.029686 -0.552026
-1.551387 1.097061 -0.067315
-1.743431 1.137234 0.494837
-1.748819 1.127308 0.966638
-1.757161 1.120330 1.350936
-1.782956 1.109769 2.084789
-1.792687 1.107423 2.294035
-1.823828 1.102609 2.852565
-1.855932 1.100191 3.323401
-1.893368 1.099275 3.793849
-1.831970 1.072573 4.185882
-1.802378 1.048387 4.841744
-1.867752 1.053166 5.400119
-2.012408 1.084719 5.770241
-2.052785 1.088881 6.065170
-1.957917 1.046013 6.737350
-2.005198 1.052099 7.032718
-2.115470 1.067425 7.674879
-1.996754 1.024035 8.092958
-1.993979 1.011416 8.581535
-2.015596 1.003492 9.158290
-0.755019 0.817954 -0.660113
-1.338486 0.930704 -0.430651
-1.625609 0.971134 0.314468
-1.824210 1.000104 0.787624
-1.827106 0.995696 0.997384
-1.840096 0.985003 1.556891
-1.850107 0.979957 1.853990
-1.781503 0.950543 2.505447
-1.912919 0.963982 3.059218
-1.849473 0.939732 3.537745
-1.881476 0.937061 3.922160
-2.006227 0.955488 4.209756
-2.082501 0.953540 4.940507
-1.825274 0.893551 5.271098
-1.896749 0.894711 5.830497
-1.963048 0.896915 6.302009
-2.062724 0.901756 6.946761
-2.045412 0.886662 7.433338
-2.033933 0.872716 7.921276
-2.028316 0.859928 8.410503
-1.992293 0.845100 8.726691
-1.881748 0.812570 9.152164
-1.410311 0.820451 -0.473531
-1.701650 0.845970 -0.078645
-1.897431 0.856110 0.484929
-1.902424 0.843528 1.045552
-1.912698 0.833635 1.518639
-1.925175 0.826063 1.904183
-1.846337 0.805424 2.381606
-1.976778 0.807955 2.936803
-1.811184 0.776738 3.423359
-1.849341 0.770153 3.897443
-2.279889 0.813385 4.246173
-2.228930 0.796039 4.725177
-1.877602 0.744004 5.153496
-1.924816 0.740575 5.539308
-2.098312 0.748463 6.085431
-2.082969 0.733169 6.658096
-2.090692 0.718547 7.319416
-2.060919 0.705555 7.720865
-2.116067 0.705162 8.017843
-2.031133 0.680988 8.614636
-1.974262 0.658022 9.302692
-1.597994 0.599329 9.887515
-1.867069 0.708658 -0.176134
-2.161881 0.708230 0.300505
-2.062571 0.693598 0.772637
-1.970623 0.677136 1.334541
-1.978081 0.670427 1.633392
-1.902094 0.652423 2.286147
-2.190052 0.630142 3.687849
-2.413936 0.631791 3.965310
-2.366886 0.616949 4.527669
-2.218581 0.600146 5.016560
-1.889117 0.574045 5.621918
-1.853330 0.561401 6.107695
-2.231919 0.563131 6.622194
-2.081094 0.550037 6.948367
-2.061397 0.537955 7.435077
-2.047632 0.526056 7.923146
-2.137854 0.518355 8.393154
-2.056467 0.501452 8.990366
-1.906568 0.479410 9.701084
-1.519561 0.573449 -0.214854
-1.814593 0.553003 0.090612
-1.812275 0.537883 0.742277
-1.913687 0.528376 0.953374
-2.021009 0.512499 1.425739
-1.943823 0.498701 2.165355
-1.956887 0.491125 2.464396
-1.788026 0.485332 3.038385
-1.919719 0.468445 3.506911
-2.440636 0.438909 3.765282
-2.381769 0.430409 4.242789
-2.247876 0.420941 4.906550
-2.192353 0.414207 5.301979
-1.866466 0.414633 5.913029
-1.820948 0.407308 6.314419
-2.116526 0.379513 6.933377
-2.081215 0.371727 7.334847
-2.081611 0.358219 7.912235
-2.073147 0.347120 8.403637
-2.052638 0.338576 8.808923
-1.976646 0.327939 9.410974
-1.376374 0.482776 -0.716087
-1.367377 0.476680 -0.408215
-1.655494 0.428527 0.076417
-1.949221 0.377761 0.641711
-1.851919 0.381044 1.029646
-1.861271 0.366597 1.592966
-1.776112 0.366186 2.072095
-1.993873 0.327441 2.538285
-1.716761 0.353281 2.942337
-2.481061 0.232701 3.923757
-2.431803 0.225714 4.487757
-2.362671 0.227335 4.793629
-2.197297 0.240934 5.112172
-1.968031 0.256147 5.708507
-1.845836 0.257864 6.297944
-2.012976 0.225731 6.757546
-2.101798 0.201220 7.317797
-2.054499 0.199842 7.632794
-2.041690 0.189923 8.123787
-2.052222 0.174941 8.703458
-1.687850 0.312188 -0.213740
-2.167956 0.197112 0.531358
-2.069589 0.211976 0.744577
-1.876792 0.239654 1.223615
-1.789813 0.243741 1.792433
-1.805204 0.229219 2.271219
-1.835272 0.207537 2.925698
-2.135811 0.144046 3.033304
-2.477603 0.057806 3.745004
-2.515691 0.038886 4.215221
-2.470359 0.034581 4.781924
-2.413481 0.036695 5.177327
-2.155531 0.081014 5.512228
-1.666106 0.160758 6.330143
-1.611229 0.164360 6.646043
-1.973091 0.080769 7.075623
-2.049520 0.053999 7.549132
-2.066757 0.034648 8.214950
-2.009765 0.040727 8.444845
