0.278445 -1.196802 0.458998
0.263655 -1.133234 0.996276
0.208496 -0.896150 1.884456
0.325419 -1.398705 2.962487
0.375566 -1.614242 3.522858
0.268798 -1.155339 4.349022
0.115357 -0.495822 5.415653
0.091901 -0.395006 6.442931
0.138478 -0.595201 7.071823
0.190651 -0.819449 8.162720
0.193891 -0.833374 8.954982
0.064061 -0.448603 2.509551
0.240816 -1.686372 4.249245
0.173447 -1.214603 5.120296
0.111081 -0.777874 6.757234
0.102144 -0.715290 7.818796
0.128242 -0.898044 8.482439
0.077122 -0.540066 9.397464
0.065223 -1.101482 0.427543
0.066158 -1.117267 1.205733
0.053420 -0.902144 2.061908
0.086846 -1.466646 3.069270
0.101841 -1.719875 3.691159
0.019510 -0.329488 7.489574
0.041831 -0.706440 8.132098
0.050914 -0.859827 9.208576
-0.014401 -0.458728 2.173955
-0.050874 -1.620559 3.940898
-0.040187 -1.280117 4.947125
-0.012480 -0.397537 7.580998
-0.025321 -0.806574 8.491947
-0.024443 -0.778604 9.297095
-0.053033 -0.452979 0.634961
-0.108258 -0.924685 1.553069
-0.054148 -0.462501 2.296463
-0.190059 -1.623379 4.070728
-0.133720 -1.142162 4.907717
-0.070351 -0.600904 6.582224
-0.050141 -0.428276 7.759400
-0.090630 -0.774112 8.359385
-0.074627 -0.637420 9.480434
-0.209846 -1.015502 0.933497
-0.168531 -0.815566 1.601059
-0.083167 -0.402466 2.635291
-0.351414 -1.700586 4.322112
-0.254727 -1.232694 5.171732
-0.135187 -0.654205 6.811043
-0.075184 -0.363837 7.712924
-0.153982 -0.745159 8.755852
-0.249119 -0.852108 0.970037
-0.420312 -1.437668 3.701198
-0.514849 -1.761033 4.300490
-0.129843 -0.444126 8.053824
-0.215707 -0.737823 8.673215
-0.274883 -0.701497 0.431265
-0.364278 -0.929630 1.341379
-0.512513 -1.307923 2.069062
-0.688247 -1.756395 2.950636
-0.685454 -1.749267 4.002206
-0.642368 -1.639313 4.537838
-0.206243 -0.526329 8.310941
-0.285535 -0.728680 9.087130
-0.170345 -0.343227 0.758875
-0.380570 -0.766810 1.555953
-0.407305 -0.820679 2.293223
-0.680652 -1.371444 3.217290
-0.837673 -1.687826 4.055956
-0.106816 -0.215222 7.691286
-0.371200 -0.747930 8.624418
-0.273882 -0.551844 9.369518
-0.555145 -0.922340 0.175514
-0.612748 -1.018044 0.984717
-0.720030 -1.196287 3.688693
-0.918855 -1.526623 4.502658
-0.206364 -0.342861 8.124113
-0.397218 -0.659954 9.031873
-0.311889 -0.428058 0.533728
-0.558114 -0.765995 1.321033
-0.736677 -1.011066 2.449573
-0.932515 -1.279849 3.245754
-0.936367 -1.285135 3.878397
-0.980971 -1.346353 4.800787
-0.480121 -0.658952 8.409546
-0.436534 -0.599130 9.131257
-0.479339 -0.556396 0.818763
-0.542997 -0.630287 1.578986
-0.540515 -0.627406 2.497593
-0.856108 -0.993732 3.586555
-1.035800 -1.202310 4.097494
-0.960859 -1.115322 5.066889
-0.131625 -0.152785 7.756540
-0.532104 -0.617643 8.651712
-0.681805 -0.664038 0.220074
-0.765986 -0.746025 1.207232
-0.595382 -0.579867 2.109878
-0.398995 -0.388597 2.938449
-0.698545 -0.680341 3.749807
-1.101178 -1.072482 4.563492
-0.916088 -0.892215 5.324572
-0.467937 -0.455743 7.167329
-0.563032 -0.548359 8.013040
-0.616632 -0.600563 9.092775
-0.546645 -0.443101 0.453940
-0.755948 -0.612758 1.331213
-0.651165 -0.527823 2.242305
-0.352096 -0.285403 2.889947
-0.612550 -0.496522 3.900922
-1.139842 -0.923935 4.824836
-0.974207 -0.789674 5.695086
-0.775479 -0.628590 6.349556
-0.780064 -0.632306 7.423148
-0.715886 -0.580285 8.180926
-0.623454 -0.505360 9.175506
-0.821812 -0.565129 1.308406
-0.723481 -0.497511 2.494514
-0.572505 -0.393690 3.106665
-0.790707 -0.543740 4.106634
-1.077677 -0.741078 4.755632
-0.918704 -0.631759 5.781968
-0.825804 -0.567875 6.687252
-0.839295 -0.577152 7.636500
-0.815586 -0.560848 8.511004
-0.422277 -0.290385 9.252918
-0.798100 -0.451105 1.123629
-0.792171 -0.447753 1.653170
-0.860426 -0.486333 2.653280
-0.885194 -0.500332 3.369494
-0.943013 -0.533013 4.326899
-0.962613 -0.544092 5.158063
-0.928351 -0.524726 5.968262
-0.974201 -0.550642 7.073888
-0.853084 -0.482183 7.700800
-0.811326 -0.458580 8.718907
-0.912676 -0.413841 2.475825
-0.974860 -0.442037 3.100001
-1.023320 -0.464011 4.233907
-0.945437 -0.428696 5.021718
-1.054804 -0.478287 5.731061
-1.071199 -0.485721 6.512301
-0.961098 -0.435797 7.561346
-0.902442 -0.324830 2.588916
-0.956719 -0.344367 3.369494
-1.114982 -0.401333 4.338083
-1.000085 -0.359976 5.018624
-1.108747 -0.399089 6.041138
-1.192234 -0.429140 6.755527
-1.081784 -0.389383 7.657021
-0.980047 -0.352764 8.752700
-1.133683 -0.299723 1.313671
-0.900596 -0.238100 2.115681
-0.973152 -0.257282 2.917068
-1.098118 -0.290321 3.856423
-1.032298 -0.272919 4.639594
-1.167723 -0.308723 5.545575
-1.343323 -0.355148 6.421840
-1.195842 -0.316157 7.165835
-1.132248 -0.299344 8.278569
-0.910705 -0.240772 9.224946
-0.926582 -0.159814 1.067901
-0.954412 -0.164614 1.849129
-1.003622 -0.173101 2.728541
-1.122743 -0.193647 3.624093
-1.164285 -0.200812 4.305261
-1.342053 -0.231473 5.380039
-1.412959 -0.243703 6.058282
-1.349184 -0.232703 7.052324
-1.208366 -0.208415 7.789777
-1.041140 -0.179572 8.703494
-0.698974 -0.062953 0.232509
-1.041384 -0.093793 1.251895
-1.049841 -0.094554 2.065238
-1.073893 -0.096721 2.867778
-1.150857 -0.103652 3.799297
-1.124011 -0.101234 4.510514
-1.326296 -0.119453 5.528448
-1.514144 -0.136372 6.289550
-1.426982 -0.128522 7.265531
-1.272897 -0.114644 8.051898
-1.170649 -0.105435 9.010539
-1.011951 -0.005157 0.934077
-1.048594 -0.005344 1.955473
-1.036798 -0.005284 2.628036
-1.153520 -0.005879 3.501428
-1.218200 -0.006208 4.411919
-1.348767 -0.006874 5.281997
-1.461827 -0.007450 6.076256
-1.391785 -0.007093 7.037092
-1.328597 -0.006771 7.792499
-1.285878 -0.006553 8.699588
-1.079793 0.093879 2.580911
-1.174964 0.102153 3.510198
-1.187987 0.103285 4.171361
-1.259651 0.109516 5.215408
-1.343093 0.116770 5.993292
-1.411054 0.122679 6.887054
-1.382239 0.120174 7.701969
-1.329552 0.115593 8.449601
-0.741633 0.126864 0.320687
-1.074035 0.183725 1.042002
-1.050660 0.179726 1.789689
-1.081313 0.184970 2.778295
-1.157433 0.197991 3.731289
-1.108779 0.189668 4.477646
-1.282265 0.219344 5.488243
-1.480957 0.253333 6.336871
-1.368099 0.234027 7.015324
-1.393541 0.238379 8.092521
-1.322193 0.226175 8.835998
-1.024834 0.267937 2.164012
-1.057265 0.276416 3.065186
-1.131215 0.295750 3.941597
-1.036664 0.271030 4.883905
-1.202981 0.314513 5.796940
-1.494348 0.390689 6.441383
-1.433157 0.374691 7.391398
-1.402337 0.366634 8.266485
-1.241468 0.324575 9.146957
-1.023973 0.368150 2.646713
-1.109845 0.399023 3.510198
-1.144117 0.411345 4.390057
-1.275193 0.458471 5.137136
-1.364792 0.490684 6.000193
-1.361345 0.489445 6.915408
-1.328344 0.477580 7.561998
-1.295414 0.465741 8.406598
-0.904187 0.325083 9.417636
-1.014366 0.459062 2.238048
-1.008639 0.456471 2.920809
-1.052728 0.476424 3.799297
-0.898026 0.406412 4.582226
-1.066898 0.482836 5.461463
-1.433159 0.648592 6.303411
-1.380618 0.624814 7.160821
-1.399532 0.633374 8.191961
-1.288793 0.583257 8.819805
-0.850417 0.479890 0.164954
-0.881774 0.497584 0.956051
-0.884390 0.499061 1.780924
-0.919183 0.518694 2.527638
-1.011355 0.570707 3.589008
-1.033064 0.582958 4.349022
-1.147691 0.647641 5.042206
-1.340728 0.756572 5.920253
-1.444674 0.815229 6.967719
-1.325721 0.748104 7.608471
-0.929942 0.630543 2.413378
-0.931443 0.631561 3.161902
-0.991921 0.672567 3.982901
-1.032852 0.700320 4.884661
-1.202151 0.815113 5.844375
-1.333906 0.904449 6.541647
-1.287096 0.872709 7.377710
-1.305142 0.884946 8.387057
-1.215248 0.823993 9.058947
-0.885175 0.721038 1.117371
-0.879355 0.716297 2.159985
-0.942627 0.767837 3.033822
-0.959802 0.781827 3.604180
-0.820095 0.668026 4.551808
-0.962132 0.783726 5.418576
-1.237474 1.008011 6.288665
-1.220160 0.993908 7.060880
-1.207163 0.983320 7.916874
-1.193291 0.972021 8.803660
-0.890681 0.866620 1.825610
-0.863258 0.839937 2.507301
-0.859747 0.836521 3.453342
-0.906168 0.881689 4.373695
-1.000798 0.973762 5.065471
-1.141699 1.110857 5.768470
-1.188251 1.156151 6.667349
-1.176354 1.144575 7.697868
-1.133461 1.102841 8.408722
-0.962384 0.936386 9.294011
-0.843052 0.963048 2.075536
-0.862197 0.984918 2.939033
-0.890230 1.016941 3.747771
-0.815861 0.931986 4.808193
-0.921137 1.052247 5.463768
-1.135997 1.297689 6.301492
-1.138937 1.301048 7.356564
-1.089555 1.244637 8.145116
-1.044383 1.193035 9.123438
-0.547390 0.747326 0.132127
-0.761362 1.039452 0.993174
-0.765945 1.045709 1.899705
-0.792975 1.082612 2.695680
-0.826019 1.127726 3.425301
-0.834510 1.139317 4.346528
-0.927126 1.265761 5.230837
-1.032294 1.409343 6.121101
-1.017165 1.388688 6.889982
-1.028346 1.403952 7.813082
-0.992833 1.355468 8.512081
-0.838122 1.144249 9.506015
-0.657684 1.081795 1.092059
-0.756872 1.244945 2.109937
-0.743523 1.222988 2.897254
-0.742552 1.221390 3.499282
-0.724374 1.191490 4.635013
-0.815066 1.340664 5.230837
-0.988394 1.625765 6.306209
-0.910036 1.496876 7.062616
-0.876727 1.442088 8.059449
-0.860447 1.415311 8.755017
-0.662080 1.343833 1.933638
-0.682742 1.385772 3.074350
-0.660639 1.340910 3.931541
-0.615703 1.249702 4.624130
-0.706944 1.434896 5.458291
-0.830728 1.686141 6.320911
-0.786794 1.596967 7.079777
-0.774352 1.571715 8.124992
-0.731860 1.485468 8.868556
-0.586669 1.502783 2.221069
-0.567570 1.453858 2.953223
-0.580966 1.488175 3.954196
-0.552701 1.415772 4.631441
-0.632135 1.619245 5.725329
-0.672084 1.721578 6.281836
-0.638025 1.634335 7.218048
-0.619362 1.586528 8.135054
-0.581786 1.490276 8.960733
-0.467994 1.579748 2.381899
-0.462213 1.560233 3.165951
-0.462074 1.559763 3.994999
-0.465519 1.571394 4.990727
-0.494647 1.669718 5.570754
-0.527838 1.781755 6.500990
-0.523052 1.765600 7.547415
-0.492029 1.660879 8.275386
-0.463686 1.565207 9.215230
-0.338737 1.623826 0.778476
-0.345673 1.657072 1.815925
-0.327901 1.571881 2.514814
-0.332581 1.594312 3.481797
-0.313685 1.503734 4.091781
-0.358593 1.719009 5.118470
-0.401137 1.922955 6.054511
-0.370994 1.778458 6.707086
-0.353934 1.696675 7.646445
-0.349999 1.677811 8.550018
-0.336448 1.612850 9.497108
-0.163755 1.369805 0.522602
-0.201605 1.686419 1.328894
-0.198571 1.661045 1.925146
-0.180724 1.511750 2.770692
-0.170357 1.425030 3.564517
-0.214016 1.790241 4.467515
-0.258189 2.159748 5.422658
-0.237973 1.990644 6.311838
-0.218772 1.830023 7.146297
-0.211961 1.773049 8.039512
-0.051903 1.689491 1.058866
-0.051760 1.684851 1.653888
-0.049140 1.599571 2.428206
-0.046363 1.509167 3.557838
-0.059829 1.947491 4.418462
-0.069748 2.270387 5.203338
-0.056021 1.823528 5.965892
-0.052390 1.705363 6.948266
-0.056450 1.837519 7.793706
-0.054880 1.786394 8.534185
-0.047961 1.561173 9.243039
0.090477 1.628067 2.079046
0.097983 1.763128 3.013878
0.126032 2.267860 3.908590
0.134559 2.421287 4.622793
0.118676 2.135492 5.700081
0.104089 1.873009 6.453922
0.098562 1.773553 7.336647
0.097851 1.760761 8.302617
0.091792 1.651738 9.198761
0.254371 1.835605 0.398051
0.270036 1.948647 1.126606
0.236057 1.703442 1.857958
0.229322 1.654838 2.738654
0.285736 2.061935 3.495935
0.330152 2.382455 4.453121
0.303359 2.189109 5.309209
0.240245 1.733663 5.977099
0.220416 1.590575 6.954725
0.237867 1.716502 7.904269
0.230054 1.660125 8.728015
0.183127 1.321490 9.583705
0.377262 1.616134 2.153415
0.323615 1.386319 3.127489
0.419066 1.795218 4.147167
0.541113 2.318045 4.875866
0.478813 2.051162 5.650244
0.400004 1.713559 6.517253
0.395340 1.693576 7.544625
0.406582 1.741736 8.421184
0.374350 1.603660 9.166322
0.543813 1.677084 0.970606
0.519254 1.601345 1.599869
0.512395 1.580193 2.598139
0.618160 1.906365 3.470445
0.692715 2.136288 4.147961
0.660664 2.037446 5.177143
0.676111 2.085081 5.888527
0.586311 1.808144 6.604397
0.518381 1.598653 7.768753
0.538019 1.659215 8.453183
0.467499 1.441736 9.482829
0.745739 1.750019 0.300848
0.759043 1.781240 0.891167
0.672998 1.579318 1.793190
0.853126 2.002023 2.800219
1.003385 2.354634 3.506591
0.954071 2.238909 4.482077
0.799143 1.875341 5.158130
0.725553 1.702649 6.138085
0.681532 1.599345 6.842543
0.634629 1.489278 7.713454
0.680842 1.597725 8.771215
0.517307 1.213959 9.414406
0.776136 1.487768 0.389011
0.817730 1.567498 1.153894
0.784570 1.503935 1.891532
0.837925 1.606210 2.956235
1.007368 1.931013 3.724064
0.682696 1.308653 7.223987
0.769493 1.475033 7.940581
0.961066 1.499137 0.603588
0.998745 1.557911 1.388416
0.870011 1.357103 2.199423
0.602338 0.939569 3.041369
0.797942 1.244685 8.034173
0.848936 1.324228 8.955404
1.088403 1.413752 0.797575
0.983696 1.277746 1.700311
1.004694 1.305020 2.371085
1.220823 1.585755 3.438294
1.259030 1.635383 4.091548
0.955639 1.241302 4.812811
0.695252 0.903079 5.778407
0.606427 0.787702 6.790293
0.724018 0.940444 7.717985
0.871587 1.132125 8.531975
0.823768 1.070011 9.326699
1.129961 1.239047 0.248537
1.104528 1.211158 1.016938
1.063953 1.166667 2.049166
1.197042 1.312604 2.817996
1.407878 1.543794 3.581490
1.254817 1.375956 6.048213
0.807726 0.885704 7.093696
0.840244 0.921361 8.024063
1.035285 1.135230 8.906689
0.729852 0.800311 9.609100
1.386564 1.280647 0.946041
1.124359 1.038471 1.530004
1.159741 1.071151 2.483897
1.382286 1.276696 3.210569
1.415732 1.307587 4.225238
1.115858 1.030619 5.038882
0.850103 0.785165 5.898857
0.627090 0.579188 6.859337
0.689542 0.636869 7.617451
0.995706 0.919646 8.547668
0.989139 0.913580 9.419572
1.341266 1.050783 0.464356
1.272024 0.996537 1.082515
1.126357 0.882418 2.089513
1.117616 0.875570 2.734138
1.404943 1.100669 3.544124
1.067362 0.836199 8.901370
1.255671 0.815241 1.292183
1.118280 0.726041 2.138346
0.813441 0.528125 3.096686
1.489286 0.966915 4.875005
1.154899 0.749816 7.376988
0.944794 0.613405 8.185042
1.018697 0.661387 9.070665
1.658680 0.878258 0.236532
1.404459 0.743650 1.018220
1.203950 0.637482 1.700120
1.416069 0.749798 2.460685
1.692821 0.896336 3.315959
1.725143 0.913450 4.222570
1.357177 0.718615 5.169041
0.823116 0.435834 5.909550
0.536660 0.284157 7.049629
0.715970 0.379101 7.744672
1.036324 0.548725 8.529577
0.922790 0.488610 9.444504
1.333937 0.575663 0.369486
1.233219 0.532198 1.166294
1.193027 0.514853 1.965160
1.130973 0.488073 2.911749
1.497952 0.646444 3.787000
1.847537 0.797308 4.313678
1.434051 0.618867 5.176656
1.267745 0.547098 6.367413
1.070902 0.462150 7.054274
0.944795 0.407728 7.953553
1.162154 0.501530 8.841273
1.286095 0.425197 0.522929
1.328253 0.439135 1.349837
1.543193 0.510196 3.722085
1.602119 0.529678 4.557193
1.176813 0.389067 5.407652
0.592769 0.195976 6.385731
0.651000 0.215228 7.207296
1.196864 0.395696 7.964562
1.178484 0.389620 8.961335
1.123666 0.264757 0.514599
1.308939 0.308411 1.220777
1.149713 0.270894 2.102597
1.075301 0.253361 2.887924
1.389719 0.327444 4.015037
1.672687 0.394117 4.608312
1.234221 0.290806 5.615155
0.515069 0.121360 6.583080
0.720105 0.169670 7.506154
1.246124 0.293610 8.062813
1.170544 0.275802 9.130866
0.726292 0.110331 0.829826
1.066985 0.162086 1.503429
0.992093 0.150709 2.497804
1.185676 0.180116 3.145081
1.555571 0.236307 4.208416
1.410748 0.214307 4.906975
0.886383 0.134650 6.015978
0.438098 0.066551 6.677028
0.863077 0.131110 7.538541
1.389703 0.211110 8.423208
1.124071 0.170758 9.180381
1.050434 0.058701 0.274410
1.037194 0.057961 1.010358
1.011986 0.056552 1.736979
0.932719 0.052122 2.590517
1.189242 0.066457 3.641477
1.491634 0.083356 4.403544
1.169143 0.065334 5.272104
0.549511 0.030708 6.067523
0.854674 0.047761 7.165690
1.288204 0.071988 7.856630
1.278557 0.071449 8.792232
0.911009 0.050909 9.754735
1.053863 -0.025364 0.493929
1.195866 -0.028781 1.269106
1.043209 -0.025107 2.330052
0.839942 -0.020215 3.040055
0.979755 -0.023580 4.060121
1.187340 -0.028576 4.803212
0.826799 -0.019899 5.710777
0.416032 -0.010013 6.509838
0.725872 -0.017470 7.291466
1.324269 -0.031872 8.156017
1.165245 -0.028044 8.966763
0.846500 -0.096060 0.253712
0.830440 -0.094237 0.882957
1.009007 -0.114501 1.780924
1.068279 -0.121227 2.823900
1.000569 -0.113543 3.547427
0.936440 -0.106266 4.419995
0.888280 -0.100801 5.274868
0.401675 -0.045582 6.271800
0.637433 -0.072335 7.100809
1.246222 -0.141419 7.671054
1.242667 -0.141016 8.535829
0.898696 -0.101983 9.721689
0.912797 -0.185040 0.649596
1.026117 -0.208011 1.295806
0.889638 -0.180345 2.139021
0.864698 -0.175289 3.258680
0.878763 -0.178140 3.979496
0.864367 -0.175222 4.772750
0.643794 -0.130508 5.757395
0.686192 -0.139103 6.544114
1.133193 -0.229718 7.281993
1.163363 -0.235834 8.355160
0.846035 -0.171506 9.103803
0.361452 -0.104274 0.066963
0.523470 -0.151014 1.234093
0.906076 -0.261391 1.839268
0.833312 -0.240400 2.716625
0.822106 -0.237167 3.538523
0.840903 -0.242590 4.494313
0.707668 -0.204153 5.419230
0.197789 -0.057060 6.130274
1.290217 -0.372211 7.993523
1.167378 -0.336774 8.726454
0.591347 -0.170596 9.802978
1.032350 -0.397798 0.646780
0.890875 -0.343283 1.519100
0.808340 -0.311479 2.296058
0.772659 -0.297730 3.207514
0.809425 -0.311898 3.937842
0.730784 -0.281594 4.997416
0.338745 -0.130529 5.821800
0.587575 -0.226411 6.578232
1.147231 -0.442065 7.404243
1.161832 -0.447691 8.388664
0.878996 -0.338705 9.224946
0.406408 -0.196200 0.111401
0.532751 -0.257194 1.121566
0.780871 -0.376978 1.820630
0.734786 -0.354729 2.697896
0.791236 -0.381981 3.514298
0.761385 -0.367570 4.452948
0.479605 -0.231537 5.209014
0.047258 -0.022815 6.118661
0.412020 -0.198909 7.064095
1.046718 -0.505319 7.722709
1.059337 -0.511411 8.666129
0.578549 -0.279304 9.808210
0.642353 -0.385131 1.970030
0.632236 -0.379065 3.003301
0.655845 -0.393221 3.914373
0.553673 -0.331962 4.688281
0.373546 -0.223965 5.618328
0.223977 -0.134289 6.328116
0.683830 -0.409999 7.404159
1.103663 -0.661716 8.220581
0.926513 -0.555503 9.043417
-0.058176 0.042006 0.417474
0.094919 -0.068536 1.145879
0.589632 -0.425742 2.037635
0.569011 -0.410852 2.861232
0.586633 -0.423577 4.007715
0.473491 -0.341883 4.807930
0.235514 -0.170052 5.478819
0.411737 -0.297293 6.449619
0.780178 -0.563325 7.192252
0.891600 -0.643777 8.179070
0.777374 -0.561301 9.186373
0.704773 -0.610585 0.715650
0.646059 -0.559718 1.522863
0.558530 -0.483887 2.258899
0.620618 -0.537677 3.119208
0.580389 -0.502825 3.947536
0.401288 -0.347658 4.994665
0.160713 -0.139235 5.648973
0.375886 -0.325651 6.542559
0.800712 -0.693703 7.583295
0.871787 -0.755279 8.316469
0.645316 -0.559074 9.175488
0.617011 -0.636181 0.903910
0.524970 -0.541280 1.504511
0.344227 -0.354921 2.361832
0.653964 -0.674282 3.342726
0.909083 -0.937328 4.291924
0.449460 -0.463424 4.901865
-0.127479 0.131440 5.887924
0.706661 -0.728616 7.751049
0.764637 -0.788394 8.419411
0.521845 -0.538058 9.280570
0.032570 -0.039496 0.067495
0.120842 -0.146539 1.065316
0.430226 -0.521717 2.017985
0.710016 -0.861005 2.688907
1.035558 -1.255776 3.470977
0.837525 -1.015630 4.390074
0.398979 -0.483824 5.354837
0.178162 -0.216050 6.119209
0.476990 -0.578425 7.138905
0.690532 -0.837378 7.851303
0.258458 -0.375154 0.601544
0.485430 -0.704603 1.544923
0.437360 -0.634830 2.379102
0.743912 -1.079792 3.289964
0.487184 -0.707150 7.598275
0.600131 -0.871093 8.347728
0.507329 -0.736391 9.351885
0.418410 -0.730447 1.125715
0.342875 -0.598580 1.773128
0.566374 -0.988758 2.665334
0.831607 -1.451794 3.695802
0.561952 -0.981039 4.299641
0.204500 -0.357011 5.247159
0.234063 -0.408621 6.375592
0.378154 -0.660170 7.057194
0.460982 -0.804768 7.825001
0.478714 -0.835725 8.861969
0.471760 -1.026371 2.511981
0.709802 -1.544262 3.432043
0.671367 -1.460643 4.292390
0.410540 -0.893182 4.983929
0.297104 -0.646386 6.917627
0.337462 -0.734190 7.733629
0.393491 -0.856089 8.647604
0.182862 -0.397838 9.375363
0.188163 -0.524017 0.677852
0.454824 -1.266644 4.861659
0.316518 -0.881473 6.596387
0.217540 -0.605828 7.397872
0.321979 -0.896682 8.208975
0.294839 -0.821100 9.368548
0.244679 -0.907272 1.045887
0.265057 -0.982835 1.835854
0.384244 -1.424781 2.817610
0.433318 -1.606748 3.598529
0.339460 -1.258724 4.501896
0.191780 -0.711121 5.419230
0.164502 -0.609977 6.270968
0.172894 -0.641093 6.937109
0.226082 -0.838314 8.042599
0.244423 -0.906324 8.867333
0.172909 -0.963389 0.461861
0.183974 -1.025035 1.109173
0.135066 -0.752541 2.268564
0.233127 -1.298903 3.080794
0.282732 -1.575282 3.724421
0.070264 -0.391484 7.442626
0.138014 -0.768964 8.243864
0.146968 -0.818853 9.192055
0.029458 -0.314520 2.304885
0.136812 -1.460731 4.153777
0.095043 -1.014770 4.867961
0.061432 -0.655907 6.755631
0.047476 -0.506897 7.767660
0.072645 -0.775631 8.601691
0.053280 -0.568863 9.286292
0.004471 -1.253633 0.447790
0.004152 -1.164042 1.018168
0.003857 -1.081326 2.107831
0.005477 -1.535777 2.955076
0.006355 -1.781828 3.783523
0.005417 -1.518800 4.400795
0.003542 -0.993187 5.452087
0.000946 -0.265380 6.190050
0.000725 -0.203330 7.350703
0.002373 -0.665322 8.175167
0.002817 -0.789768 8.888472
-0.049492 -0.608335 0.865673
-0.075131 -0.923472 1.431961
-0.049853 -0.612776 2.276945
-0.134464 -1.652767 4.057365
-0.094295 -1.159032 4.806184
-0.043121 -0.530028 6.753893
-0.026440 -0.324988 7.605840
-0.059296 -0.728842 8.496277
-0.050694 -0.623107 9.297364
-0.146253 -0.891876 0.462720
-0.169037 -1.030821 1.218960
-0.191805 -1.169661 2.179180
-0.277288 -1.690954 2.985292
-0.294750 -1.797442 3.931898
-0.266189 -1.623268 4.836238
-0.160720 -0.980103 5.452087
-0.028260 -0.172332 6.582797
-0.023242 -0.141732 7.581665
-0.097932 -0.597209 8.129545
-0.135845 -0.828407 9.225161
-0.248911 -0.971285 0.351679
-0.270571 -1.055803 1.052968
-0.292527 -1.141479 2.047890
-0.415672 -1.622008 2.792689
-0.454694 -1.774275 3.778757
-0.444795 -1.735647 4.588865
-0.134772 -0.525897 8.072660
-0.201506 -0.786301 8.987875
-0.311826 -0.887051 1.067901
-0.472159 -1.343153 3.434037
-0.597528 -1.699788 4.227803
-0.524337 -1.491583 5.130102
-0.113242 -0.322140 7.822737
-0.256315 -0.729139 8.811122
-0.260434 -0.577087 0.754239
-0.371661 -0.823550 1.487932
-0.542172 -1.201378 2.314162
-0.763043 -1.690798 3.191084
-0.764396 -1.693796 4.047759
-0.733147 -1.624554 4.928895
-0.263946 -0.584868 8.434049
-0.294551 -0.652684 9.358144
-0.405968 -0.730004 0.860887
-0.701347 -1.261150 3.651483
-0.884250 -1.590044 4.389344
-0.775294 -1.394121 5.238402
-0.193602 -0.348132 7.985431
-0.385175 -0.692614 8.783718
-0.508134 -0.750321 0.638982
-0.599565 -0.885330 1.207232
-0.575817 -0.850262 2.022588
-0.449480 -0.663710 2.854202
-0.933355 -1.378210 4.789978
-0.344336 -0.508453 8.173933
-0.414276 -0.611728 9.120196
-0.620565 -0.759235 2.532339
-0.876000 -1.071749 3.262043
-0.987868 -1.208615 4.089222
-0.197260 -0.241339 7.932744
-0.573357 -0.701477 8.597769
-0.606528 -0.632784 0.176387
-0.719607 -0.750759 1.054277
-0.572744 -0.597538 2.043656
-0.447930 -0.467321 2.798232
-0.705686 -0.736235 3.690256
-1.029285 -1.073843 4.569193
-0.922517 -0.962453 5.539348
-0.693624 -0.723651 6.213821
-0.626400 -0.653517 7.156968
-0.668681 -0.697628 8.023089
-0.625852 -0.652945 8.944173
-0.714893 -0.628522 1.442078
-0.693381 -0.609609 2.414359
-0.593867 -0.522118 3.366154
-0.762277 -0.670182 4.156506
-1.070434 -0.941108 5.094948
-0.867885 -0.763031 5.887909
-0.716533 -0.629965 6.548347
-0.727912 -0.639969 7.509211
-0.683831 -0.506888 0.077217
-0.838393 -0.621456 1.186025
-0.697000 -0.516649 1.831656
-0.795178 -0.589423 2.675267
-0.944426 -0.700053 3.466429
-0.981580 -0.727593 4.444711
-0.951467 -0.705272 5.181339
-0.883324 -0.654761 6.187619
-0.830391 -0.615525 7.021013
-0.828419 -0.614063 7.964535
-0.761910 -0.564763 8.911357
-0.830230 -0.506896 1.320215
-0.724096 -0.442096 2.418835
-0.844236 -0.515447 3.338599
-0.951814 -0.581129 3.902651
-1.002668 -0.612178 4.904683
-1.021480 -0.623663 5.647448
-0.951177 -0.580740 6.443609
-0.829155 -0.506240 7.383689
-0.782863 -0.477976 8.285032
-0.412291 -0.251724 9.236188
-0.562327 -0.278673 0.343860
-0.777484 -0.385299 1.158099
-0.813337 -0.403067 2.139021
-0.867167 -0.429743 2.720921
-0.970950 -0.481175 3.562786
-1.052431 -0.521555 4.472108
-1.094904 -0.542603 5.276521
-1.130165 -0.560077 6.252168
-1.115324 -0.552723 7.209534
-0.997362 -0.494264 8.119295
-0.749235 -0.371299 8.866722
-0.929239 -0.369768 2.442854
-0.966204 -0.384477 3.345452
-1.060705 -0.422081 4.165582
-1.012244 -0.402798 5.227048
-1.125537 -0.447880 6.092085
-1.212930 -0.482655 6.681774
-1.162120 -0.462437 7.785007
-1.000824 -0.398253 8.561338
-1.166184 -0.352201 1.169941
-0.988463 -0.298527 2.132411
-1.009072 -0.304752 2.880532
-1.108158 -0.334677 3.821192
-1.085685 -0.327889 4.776296
-1.182868 -0.357240 5.564002
-1.358807 -0.410375 6.450499
-1.265315 -0.382140 7.353368
-1.140193 -0.344351 8.126320
-0.870702 -0.262962 9.081807
-0.869590 -0.185417 1.025141
-0.970170 -0.206863 1.815007
-1.061420 -0.226320 2.602845
-1.157235 -0.246750 3.553961
-1.160117 -0.247365 4.349022
-1.310731 -0.279479 5.216618
-1.429707 -0.304848 6.076256
-1.326068 -0.282749 6.830211
-1.303567 -0.277952 7.814300
-1.190602 -0.253865 8.737385
-1.028051 -0.124013 2.187317
-1.100355 -0.132735 3.262521
-1.161890 -0.140158 3.952541
-0.989900 -0.119411 4.681161
-1.168231 -0.140923 5.683762
-1.516364 -0.182918 6.644698
-1.391455 -0.167851 7.372446
-1.301884 -0.157046 8.215550
-0.951429 -0.114771 9.070838
-1.019908 -0.033978 2.364452
-1.062398 -0.035394 3.321435
-1.173834 -0.039106 4.239610
-1.244092 -0.041447 5.062514
-1.371107 -0.045678 5.811706
-1.361297 -0.045351 6.717105
-1.271810 -0.042370 7.633605
-1.251285 -0.041686 8.421432
-0.825476 0.038084 0.132454
-0.917682 0.042339 1.189706
-1.012488 0.046713 1.736979
-1.086267 0.050116 2.635746
-1.181025 0.054488 3.543021
-1.214524 0.056034 4.390057
-1.350873 0.062324 5.115348
-1.478680 0.068221 6.195737
-1.424290 0.065712 6.941432
-1.393283 0.064281 7.870013
-1.366764 0.063058 8.841491
-1.259483 0.169455 1.255818
-1.010361 0.135938 1.868810
-0.986107 0.132674 2.752214
-1.127795 0.151738 3.878329
-1.045840 0.140711 4.529858
-1.224021 0.164684 5.374874
-1.479874 0.199108 6.115914
-1.485273 0.199834 7.208671
-1.378062 0.185409 7.848246
-1.363142 0.183402 8.988496
-1.236071 0.279348 1.135730
-1.033801 0.233635 2.174987
-1.035966 0.234125 2.990278
-1.119099 0.252913 3.711704
-1.049938 0.237282 4.494154
-1.216200 0.274857 5.462272
-1.471235 0.332494 6.213599
-1.479165 0.334286 7.306339
-1.401210 0.316669 7.952166
-1.346378 0.304277 9.010270
-1.018261 0.323685 2.328608
-1.049558 0.333634 3.174826
-1.114910 0.354408 4.195836
-1.158715 0.368332 5.032856
-1.324964 0.421180 5.764573
-1.512983 0.480947 6.701449
-1.466266 0.466097 7.425652
-1.375319 0.437187 8.358539
-1.157494 0.367944 9.070665
-0.649235 0.267433 0.287868
-0.874056 0.360041 1.243998
-0.989279 0.407504 1.877464
-1.063277 0.437985 2.818648
-1.110642 0.457496 3.750846
-1.040099 0.428438 4.477646
-1.218859 0.502073 5.430332
-1.437205 0.592014 6.184207
-1.418195 0.584183 6.978513
-1.386305 0.571047 7.883230
-1.346495 0.554648 8.776414
-0.971109 0.506683 2.360057
-0.985835 0.514367 2.986572
-1.060588 0.553370 3.961028
-0.982320 0.512533 4.768287
-1.180406 0.615886 5.706328
-1.436580 0.749547 6.440210
-1.420494 0.741153 7.357759
-1.389930 0.725207 8.343719
-1.295170 0.675765 9.026355
-0.615183 0.386009 0.099586
-0.819413 0.514157 1.144237
-0.908932 0.570327 1.943290
-0.967065 0.606804 2.698190
-1.026675 0.644208 3.595488
-1.018862 0.639306 4.269790
-1.155017 0.724738 5.202491
-1.383695 0.868227 6.205131
-1.403506 0.880658 6.956908
-1.301783 0.816829 7.684393
-0.983960 0.745722 2.165542
-0.963109 0.729920 2.935429
-0.953263 0.722458 3.696165
-0.893602 0.677242 4.666740
-1.064920 0.807080 5.561146
-1.270661 0.963007 6.277837
-1.319312 0.999878 7.370272
-1.323648 1.003165 8.177550
-1.179794 0.894141 8.885042
-0.969311 0.875730 2.533781
-0.916834 0.828320 3.285187
-0.909242 0.821461 4.245285
-1.020992 0.922423 4.902194
-1.223391 1.105281 5.804540
-1.269067 1.146547 6.525384
-1.222161 1.104169 7.595802
-1.212177 1.095149 8.533401
-1.090446 0.985171 9.287419
-0.896218 0.956787 1.669530
-0.889779 0.949913 2.457429
-0.900119 0.960952 3.355393
-0.967079 1.032437 4.368283
-1.032821 1.102622 4.973782
-1.167465 1.246366 5.862090
-1.244121 1.328202 6.872832
-1.194891 1.275646 7.721965
-1.136684 1.213504 8.549764
-0.937131 1.000465 9.413836
-0.323803 0.415251 0.189033
-0.683912 0.877062 0.942719
-0.859457 1.102185 1.927608
-0.876761 1.124376 2.821139
-0.867808 1.112895 3.577622
-0.859779 1.102598 4.447186
-0.976552 1.252350 5.184257
-1.099527 1.410055 6.059582
-1.038747 1.332110 6.851064
-0.992888 1.273300 7.691809
-0.999589 1.281893 8.614413
-0.763807 0.979522 9.628874
-0.191844 0.294563 0.178678
-0.676810 1.039192 1.059966
-0.806599 1.238472 2.032598
-0.787220 1.208718 2.699819
-0.805520 1.236816 3.736096
-0.800274 1.228761 4.604634
-0.882543 1.355079 5.213489
-1.036114 1.590875 6.119653
-1.018200 1.563371 7.131088
-0.956377 1.468446 8.001360
-0.930367 1.428509 8.857641
-0.714151 1.316302 1.922783
-0.717464 1.322408 2.870113
-0.734041 1.352961 3.872414
-0.708750 1.306346 4.558335
-0.804436 1.482712 5.358258
-0.928422 1.711238 6.266112
-0.862550 1.589826 7.096909
-0.801976 1.478177 7.903259
-0.777096 1.432319 8.749590
-0.637437 1.473026 2.503988
-0.627851 1.450875 3.213259
-0.645999 1.492811 4.235609
-0.613866 1.418558 4.848344
-0.707695 1.635382 5.851105
-0.768817 1.776628 6.510265
-0.739561 1.709020 7.654996
-0.700363 1.618439 8.302617
-0.624993 1.444271 9.183214
-0.538858 1.621745 2.139906
-0.519637 1.563896 2.772820
-0.506593 1.524641 3.789376
-0.476469 1.433977 4.555492
-0.458470 1.379810 5.500455
-0.532265 1.601902 6.229815
-0.586365 1.764721 6.954610
-0.556192 1.673912 7.931720
-0.391195 1.590965 0.984490
-0.420272 1.709221 1.639976
-0.390691 1.588918 2.599774
-0.383009 1.557673 3.189592
-0.381970 1.553448 3.975850
-0.435394 1.770720 5.055018
-0.457295 1.859791 5.897251
-0.434915 1.768774 6.584499
-0.438279 1.782455 7.648998
-0.426744 1.735542 8.534185
-0.387246 1.574906 9.388935
-0.211916 1.389235 0.576675
-0.263931 1.730231 1.381148
-0.257438 1.687665 2.107514
-0.244106 1.600260 3.057746
-0.209057 1.370497 3.579855
-0.266443 1.746696 4.591749
-0.320538 2.101321 5.244528
-0.296443 1.943365 6.384138
-0.279698 1.833589 7.210851
-0.267626 1.754454 7.985624
-0.261846 1.716558 8.997962
-0.104359 1.690463 2.314097
-0.107629 1.743431 3.091292
-0.135797 2.199698 3.732357
-0.148353 2.403082 4.474335
-0.130609 2.115672 5.386785
-0.114284 1.851232 6.479477
-0.106832 1.730516 7.244119
-0.106042 1.717711 8.221424
-0.096175 1.557883 9.015097
0.031448 1.681929 2.108843
0.033746 1.804849 3.195116
0.042076 2.250380 3.953681
0.046060 2.463451 4.736366
0.040282 2.154438 5.458118
0.033983 1.817556 6.562965
0.032437 1.734863 7.388936
0.033424 1.787632 8.297480
0.030459 1.629064 9.090607
0.174532 1.651567 2.175036
0.156673 1.482563 3.023925
0.203016 1.921101 4.029366
0.256213 2.424497 4.933247
0.221053 2.091786 5.803506
0.176585 1.670992 6.497037
0.174180 1.648231 7.381083
0.183433 1.735793 8.216340
0.175971 1.665177 9.285235
0.317536 1.634428 2.250704
0.247569 1.274292 3.126353
0.457690 2.355830 4.830326
0.395811 2.037326 5.611025
0.328909 1.692969 6.611743
0.320012 1.647171 7.354897
0.332456 1.711223 8.205552
0.309795 1.594581 9.068968
0.537471 1.904980 4.002829
0.561578 1.990424 4.795488
0.507296 1.798027 5.750444
0.452957 1.605434 6.576753
0.455557 1.614650 7.489167
0.480275 1.702257 8.447958
0.422581 1.497771 9.107359
0.671946 1.757331 0.645061
0.626066 1.637342 1.456646
0.593801 1.552961 2.619759
0.436917 1.142663 3.132197
0.516321 1.350327 4.188978
0.668961 1.749525 5.048668
0.556730 1.456008 5.707044
0.518426 1.355834 6.646190
0.565664 1.479373 7.664075
0.585323 1.530788 8.317490
0.526352 1.376563 9.194874
0.839810 1.734978 0.332870
0.824057 1.702434 1.096512
0.682462 1.409910 1.789143
0.875622 1.808963 2.564533
1.068457 2.207343 3.430858
0.922590 1.905993 4.356196
0.726166 1.500199 5.206976
0.757616 1.565172 5.901588
0.753263 1.556178 6.933153
0.652298 1.347593 7.872375
0.693506 1.432725 8.576407
0.548140 1.132413 9.371275
0.836947 1.424366 0.270319
0.843950 1.436282 1.081152
0.774901 1.318772 2.062588
0.789456 1.343542 2.920710
0.986324 1.678584 3.670266
0.669001 1.138544 7.207152
0.755706 1.286105 8.099322
0.913862 1.282409 2.418898
0.982566 1.378820 3.356439
1.058715 1.485679 4.203612
0.925820 1.299189 4.842291
0.706854 0.991918 5.968115
0.484167 0.679424 6.590445
0.564862 0.792663 7.531208
0.780430 1.095166 8.254109
0.787116 1.104548 9.130245
1.092080 1.276386 0.540285
1.071688 1.252553 1.330571
0.980031 1.145428 2.118145
0.883934 1.033112 2.946261
1.147915 1.341645 3.611052
0.714020 0.834523 7.100151
0.832228 0.972680 8.187841
0.927516 1.084050 8.874183
1.248193 1.242267 0.884345
1.073471 1.068374 1.747992
1.115669 1.110372 2.408064
1.292906 1.286768 3.421250
1.433203 1.426399 4.171724
1.130740 1.125372 4.842291
0.818872 0.814984 6.055808
0.481807 0.479520 6.729378
0.555318 0.552681 7.738319
0.936785 0.932338 8.509293
0.937126 0.932676 9.425309
1.268369 1.057948 0.205443
1.181374 0.985385 0.986971
1.014981 0.846597 1.909422
1.035707 0.863884 2.793747
1.329368 1.108828 3.505428
1.275489 0.887056 0.444436
1.227399 0.853611 1.227052
1.055068 0.733761 2.173756
0.730028 0.507708 3.025288
1.648619 1.146555 4.715842
1.215252 0.845164 5.507896
0.605150 0.420860 6.458734
0.512026 0.356095 7.286968
0.835401 0.580991 8.024321
0.924915 0.643245 9.021494
1.213634 0.704936 0.435233
1.249861 0.725979 1.239461
1.536681 0.892577 3.990749
1.634735 0.949532 4.784479
1.084659 0.630021 5.516883
0.344633 0.200179 6.398317
0.480319 0.278992 7.471339
0.999106 0.580328 8.201948
1.031797 0.599317 9.202056
1.114369 0.524194 0.655696
1.245341 0.585802 1.416011
1.440761 0.677727 3.900055
1.534849 0.721985 4.632805
1.029879 0.484450 5.767455
0.327418 0.154016 6.644470
0.541579 0.254756 7.566752
1.126126 0.529724 8.138241
1.107737 0.521074 8.999583
0.874547 0.317376 0.583540
1.104012 0.400650 1.368387
1.103694 0.400534 2.421323
1.353078 0.491037 3.323199
1.678856 0.609263 3.826629
1.618739 0.587446 4.848747
0.994292 0.360832 5.555152
0.301709 0.109491 6.547914
0.626364 0.227310 7.657369
1.192961 0.432930 8.258365
1.133478 0.411343 9.256736
1.377093 0.371905 -0.152239
1.072059 0.289526 0.865998
1.048601 0.283191 1.678915
0.966808 0.261101 2.464835
1.201654 0.324525 3.394437
1.720925 0.464762 4.044638
1.539606 0.415794 5.040286
0.813615 0.219729 5.821131
0.533649 0.144120 6.727583
0.917005 0.247651 7.809240
1.279533 0.345558 8.405999
1.095997 0.295991 9.284561
1.060782 0.196908 0.471685
1.101742 0.204511 1.249564
1.059287 0.196630 2.031049
1.042656 0.193543 2.968330
1.259479 0.233791 3.798434
1.302618 0.241799 4.466395
0.962465 0.178658 5.532421
0.426483 0.079166 6.461331
0.672209 0.124779 7.196220
1.307472 0.242700 7.928131
1.198867 0.222540 8.862986
1.006847 0.099085 0.923089
1.023100 0.100685 1.472348
0.947635 0.093258 2.478891
1.015602 0.099947 3.413435
1.384706 0.136271 4.150672
1.265265 0.124516 4.870718
0.723541 0.071205 5.894263
0.832481 0.081925 6.907661
1.184801 0.116598 7.603906
1.325860 0.130479 8.438701
1.155151 0.113680 9.394062
0.751291 0.009796 0.132699
0.763286 0.009952 0.995147
1.017363 0.013265 1.824868
1.053214 0.013733 2.869556
1.068517 0.013932 3.674723
1.078782 0.014066 4.516093
0.897006 0.011696 5.487528
0.295152 0.003848 6.219871
0.543848 0.007091 7.266851
1.309506 0.017074 7.954808
1.207756 0.015748 8.693656
0.542842 0.007078 9.714683
0.476937 -0.036472 0.423058
0.640625 -0.048989 1.153453
1.049351 -0.080245 2.032310
1.029314 -0.078712 2.926245
0.989030 -0.075632 3.659560
0.924644 -0.070708 4.510809
0.815899 -0.062392 5.464504
0.266294 -0.020364 6.201241
1.363367 -0.104258 7.988619
1.182349 -0.090415 8.709893
0.940212 -0.154190 0.363119
1.082503 -0.177525 1.294197
0.899870 -0.147574 2.216126
0.866389 -0.142084 2.870978
0.957406 -0.157010 3.961146
0.945740 -0.155097 4.563047
0.662279 -0.108611 5.495650
0.534233 -0.087612 6.501298
1.011185 -0.165830 7.396653
1.300682 -0.213306 8.248263
1.034653 -0.169678 8.900770
0.924281 -0.230082 0.330109
1.059967 -0.263858 1.140692
0.881990 -0.219554 2.161052
0.872702 -0.217242 3.157520
0.925064 -0.230277 3.785132
0.957262 -0.238292 4.805002
0.628667 -0.156494 5.510087
0.634988 -0.158068 6.574240
1.055113 -0.262650 7.181278
1.244469 -0.309786 8.073726
1.103297 -0.274644 9.180381
0.833266 -0.285085 0.606309
0.995574 -0.340616 1.449483
0.832512 -0.284827 2.085229
0.800507 -0.273878 3.117288
0.808745 -0.276696 3.805503
0.741734 -0.253770 4.795526
0.415233 -0.142064 5.822385
0.661305 -0.226252 6.692076
1.120569 -0.383380 7.435209
1.078463 -0.368975 8.125297
0.860572 -0.294428 9.081807
0.780917 -0.349018 0.584624
0.918009 -0.410289 1.539197
0.757720 -0.338651 2.087805
0.739066 -0.330314 2.964637
0.802893 -0.358840 4.059117
0.675187 -0.301764 4.845651
0.365129 -0.163189 5.725542
0.631464 -0.282223 6.647782
1.059242 -0.473411 7.303888
1.075416 -0.480640 8.311398
0.858554 -0.383717 9.329604
0.703877 -0.386044 1.469525
0.632154 -0.346708 2.382032
0.611436 -0.335345 3.139885
0.606482 -0.332628 4.189861
0.451383 -0.247563 4.861218
0.173409 -0.095107 5.902491
0.480899 -0.263751 6.853935
0.961343 -0.527253 7.644461
0.991406 -0.543741 8.572840
0.732408 -0.401693 9.319023
0.271108 -0.181466 -0.089394
0.382982 -0.256350 0.891138
0.616809 -0.412862 1.826252
0.509177 -0.340818 2.655717
0.553608 -0.370558 3.376505
0.626739 -0.419508 4.306381
0.879445 -0.588657 7.016719
0.954289 -0.638754 7.782189
0.893194 -0.597860 8.550368
0.528204 -0.353554 9.563757
0.523671 -0.421849 1.940431
0.626681 -0.504830 2.898379
0.658474 -0.530441 3.706221
0.656469 -0.528827 4.654337
0.395286 -0.318427 5.404529
0.265130 -0.213579 6.350199
0.615224 -0.495601 7.222969
0.853073 -0.687203 8.282758
0.727151 -0.585765 8.960787
0.146310 -0.138289 0.123291
0.335652 -0.317251 0.935687
0.497925 -0.470628 1.662371
0.511666 -0.483616 2.516364
0.850949 -0.804299 3.411713
0.993120 -0.938677 4.153258
0.845194 -0.798860 6.739331
0.736122 -0.695767 7.740062
0.831461 -0.785880 8.753359
0.500583 -0.473141 9.679905
0.335202 -0.378460 0.600808
0.544154 -0.614376 1.258889
0.368957 -0.416571 2.124196
0.724007 -0.817439 3.054221
0.809556 -0.914028 3.693870
0.516866 -0.583567 6.565333
0.525109 -0.592874 7.234017
0.709953 -0.801571 8.162113
0.611291 -0.690177 9.136874
0.441004 -0.593361 1.759886
0.740547 -0.996390 2.691487
1.025938 -1.380378 3.658778
0.757866 -1.019692 4.196354
0.314069 -0.422573 5.356770
0.337452 -0.454034 7.102603
0.595889 -0.801755 7.799740
0.425475 -0.685665 1.579961
0.608035 -0.979865 2.488524
0.891748 -1.437077 3.334836
0.707191 -1.139657 5.028181
0.411398 -0.662980 6.724085
0.410634 -0.661748 7.578974
0.529911 -0.853967 8.461888
0.358002 -0.576930 9.308380
0.412287 -0.818828 1.123629
0.403960 -0.802291 1.951734
0.615386 -1.222196 2.715778
0.764332 -1.518012 3.432043
0.614369 -1.220176 4.384617
0.278108 -0.552341 5.288277
0.255135 -0.506715 6.965045
0.395014 -0.784524 7.834514
0.403463 -0.801304 8.911120
0.464189 -1.163284 0.327655
0.431416 -1.081153 1.018168
0.342558 -0.858469 1.972550
0.501564 -1.256946 2.859115
0.579489 -1.452231 3.596734
0.419886 -1.052257 4.321550
0.203379 -0.509679 5.523518
0.137909 -0.345608 6.391020
0.208226 -0.521826 7.080384
0.321720 -0.806249 8.168803
0.327063 -0.819638 8.960600
0.368592 -1.196585 0.273046
0.344294 -1.117705 1.215177
0.281923 -0.915226 2.136377
0.409037 -1.327886 3.009731
0.470853 -1.528562 3.713594
0.142492 -0.462581 7.357947
0.220943 -0.717262 7.962605
0.226818 -0.736335 8.800069
0.178729 -0.837884 0.672862
0.202781 -0.950640 1.298219
0.126871 -0.594772 2.154885
0.345332 -1.618922 3.773812
0.086840 -0.407105 7.404704
0.155116 -0.727187 8.309142
0.166010 -0.778257 9.258369
0.126716 -1.027701 0.867614
0.105241 -0.853533 1.655215
0.048851 -0.396191 2.445695
0.184126 -1.493312 4.270584
0.119304 -0.967586 4.917952
0.078278 -0.634852 6.792999
0.060754 -0.492729 7.700904
0.096195 -0.780169 8.634841
0.063005 -0.510989 9.486574
0.037663 -1.002950 0.450586
0.040040 -1.066263 1.130429
0.042718 -1.137567 2.236658
0.061743 -1.644211 3.077455
0.068810 -1.832387 3.800284
0.050558 -1.346338 4.441829
0.029072 -0.774177 5.515403
0.006417 -0.170885 6.399444
0.003964 -0.105551 7.229134
0.025640 -0.682777 8.263801
0.030460 -0.811138 8.987875
-0.044162 -0.911968 0.980452
-0.043172 -0.891533 1.830525
-0.024636 -0.508738 2.606611
-0.088574 -1.829101 4.268200
-0.065169 -1.345769 5.271101
-0.026560 -0.548475 6.226837
-0.008302 -0.171448 7.171310
-0.020115 -0.415376 8.074648
-0.037870 -0.782037 8.739525
-0.126249 -0.922244 0.616568
-0.135272 -0.988154 1.308406
-0.138318 -1.010407 2.353467
-0.217323 -1.587531 3.167940
-0.252639 -1.845517 3.840911
-0.033659 -0.245879 7.597138
-0.088908 -0.649466 8.500566
-0.108417 -0.791981 9.385479
-0.240779 -1.101295 0.306766
-0.255206 -1.167280 1.225358
-0.186636 -0.853650 1.963965
-0.170878 -0.781575 2.832113
-0.289331 -1.323366 3.780454
-0.387833 -1.773899 4.357042
-0.114026 -0.521542 8.155355
-0.182262 -0.833645 9.059687
-0.189264 -0.604618 0.776420
-0.242123 -0.773481 1.668302
-0.188168 -0.601119 2.532095
-0.532850 -1.702232 4.055415
-0.492053 -1.571903 5.055618
-0.082261 -0.262789 7.742631
-0.381254 -0.928559 0.461575
-0.415990 -1.013160 1.239376
-0.332505 -0.809831 1.997039
-0.195076 -0.475116 3.031037
-0.702265 -1.710394 4.647656
-0.187571 -0.456836 8.082375
-0.301813 -0.735078 8.910566
-0.115931 -0.227071 0.559715
-0.377519 -0.739434 1.534840
-0.526566 -1.031367 2.565160
-0.716884 -1.404136 3.159096
-0.771462 -1.511036 4.184448
-0.758997 -1.486620 5.030841
-0.404536 -0.792351 8.520641
-0.325038 -0.636640 9.463403
-0.487402 -0.775047 1.079576
-0.431466 -0.686100 1.668302
-0.397310 -0.631786 2.780305
-0.669674 -1.064890 3.547343
-0.914365 -1.453986 4.378805
-0.812682 -1.292295 5.291602
-0.181042 -0.287885 8.078009
-0.402947 -0.640750 8.617940
-0.515681 -0.681666 0.540504
-0.645491 -0.853258 1.229175
-0.535461 -0.707812 2.228517
-0.234658 -0.310188 3.040301
-0.949956 -1.255724 4.668996
-0.793514 -1.048926 5.408523
-0.603300 -0.797487 6.360546
-0.498058 -0.658371 7.136940
-0.576151 -0.761599 8.219978
-0.506092 -0.668990 9.109294
-0.734555 -0.822295 2.480655
-0.766323 -0.857858 3.159940
-0.822302 -0.920524 4.089711
-0.949730 -1.063173 4.896101
-0.779576 -0.872694 5.986423
-0.628185 -0.703219 6.787594
-0.630696 -0.706030 7.524793
-0.512112 -0.481441 0.376440
-0.670042 -0.629914 1.222744
-0.642328 -0.603859 2.118298
-0.658412 -0.618980 2.880223
-0.814125 -0.765367 3.659216
-0.993273 -0.933786 4.583445
-0.943468 -0.886963 5.444606
-0.805600 -0.757352 6.388807
-0.752064 -0.707023 7.157125
-0.715575 -0.672719 7.974236
-0.609370 -0.572875 9.098259
-0.576894 -0.454825 0.829826
-0.736361 -0.580549 1.718195
-0.734714 -0.579250 2.612533
-0.790023 -0.622856 3.536439
-0.893408 -0.704365 4.365365
-0.975697 -0.769242 5.240487
-0.895681 -0.706157 5.957257
-0.869774 -0.685732 6.861386
-0.775701 -0.611564 7.608178
-0.723323 -0.570269 8.548522
-0.607982 -0.399347 0.320885
-0.814574 -0.535045 1.375203
-0.753033 -0.494622 2.006823
-0.831453 -0.546132 3.094772
-0.902531 -0.592818 3.795395
-0.953682 -0.626416 4.620051
-0.972611 -0.638850 5.406739
-0.978632 -0.642805 6.479472
-0.940881 -0.618009 7.253589
-0.898699 -0.590302 8.184054
-0.715304 -0.469840 9.070717
-0.850319 -0.462584 2.323387
-0.908708 -0.494349 3.279570
-0.976008 -0.530961 4.113364
-0.867100 -0.471714 5.016912
-0.959062 -0.521742 5.796494
-1.115505 -0.606849 6.620401
-1.035196 -0.563160 7.674223
-0.651661 0.042295 -1.065297
1.607493 -0.104332 2.003442
1.505253 -0.097697 2.854087
1.423303 -0.092378 4.044460
1.519233 -0.098604 5.082793
1.286368 -0.083490 5.988387
1.286335 -0.083488 6.980148
1.673752 -0.108633 7.803871
1.678813 -0.108961 8.857967
1.505908 -0.097739 9.765919
1.459134 -0.212014 2.400939
1.413640 -0.205404 3.101644
1.417233 -0.205926 4.291766
1.445620 -0.210050 5.216162
1.156702 -0.168070 6.165599
1.276526 -0.185481 7.331164
1.623271 -0.235863 8.252654
1.570402 -0.228181 9.271798
1.325545 -0.192603 10.060223
1.305550 -0.299944 1.349141
1.249900 -0.287158 2.660578
1.249611 -0.287092 3.399650
1.294119 -0.297317 4.658542
1.242322 -0.285417 5.432582
0.921852 -0.211791 6.457412
1.252285 -0.287706 7.476862
1.563916 -0.359302 8.722724
1.484871 -0.341142 9.349681
1.192009 -0.273858 10.352694
1.032388 -0.322150 0.749054
1.139373 -0.355533 1.833544
1.204948 -0.375996 2.965026
1.207456 -0.376778 3.973219
1.354268 -0.422590 4.892747
1.276623 -0.398361 5.793885
1.046370 -0.326513 6.926219
1.349689 -0.421161 7.974834
1.555384 -0.485347 8.870793
1.338278 -0.417600 9.639411
0.653371 -0.203880 10.614842
0.997953 -0.394720 1.277052
1.328779 -0.525572 2.301508
1.217614 -0.481603 3.396261
1.273458 -0.503691 4.238546
1.178547 -0.466151 5.361381
1.021533 -0.404047 6.137211
1.213770 -0.480083 7.379567
1.529381 -0.604916 8.364447
1.478933 -0.584963 9.250337
1.192391 -0.471627 10.107211
0.773877 -0.381186 0.479494
1.043685 -0.514085 1.469069
1.174966 -0.578750 2.657592
1.293215 -0.636995 3.732073
1.331613 -0.655909 4.748650
1.062571 -0.523388 5.582552
0.817048 -0.402451 6.610161
1.132626 -0.557894 7.585026
1.438174 -0.708398 8.589587
1.281778 -0.631362 9.466966
0.906317 -0.446422 10.434761
1.171517 -0.698892 1.064237
1.255552 -0.749024 2.204582
1.139837 -0.679992 2.926311
1.156272 -0.689797 3.962122
1.403646 -0.837372 5.147519
1.232148 -0.735062 6.024150
0.805250 -0.480388 6.948414
1.051151 -0.627085 7.903870
1.366941 -0.815476 8.941596
1.033736 -0.735461 0.398180
0.810571 -0.576688 1.420925
1.180757 -0.840060 2.476295
1.375437 -0.978567 3.525767
1.376330 -0.979202 4.574618
1.095515 -0.779414 5.462212
0.929190 -0.661081 6.284937
0.976409 -0.694675 7.402311
1.224909 -0.871472 8.304575
1.186791 -0.844353 9.294640
0.912253 -0.649031 10.371870
1.170929 -0.972484 0.926852
1.183227 -0.982698 1.833264
1.233033 -1.024063 2.967932
1.377387 -1.143952 4.047548
1.408929 -1.170148 4.994406
1.107581 -0.919872 5.899663
0.814882 -0.676778 6.746852
1.013031 -0.841346 7.821092
1.144394 -0.950446 8.956885
1.043630 -0.866759 9.941466
0.950124 -0.931523 2.280145
1.154210 -1.131613 3.503511
1.349640 -1.323217 5.649038
0.900303 -0.882677 6.427712
0.815354 -0.799391 7.186374
0.959374 -0.940591 8.207431
0.980934 -0.961729 9.181450
0.787522 -0.772103 10.126126
1.034198 -1.186298 0.860469
1.006383 -1.154393 1.927512
1.106459 -1.269187 3.124181
1.244892 -1.427979 4.136496
1.185094 -1.359387 5.192987
0.974413 -1.117721 5.830363
0.699303 -0.802150 6.725104
0.858289 -0.984518 7.875122
0.986089 -1.131114 8.881591
0.889927 -1.020810 9.786688
0.348324 -0.399552 10.640036
0.877713 -1.189522 2.234201
1.024678 -1.388697 3.572679
1.053037 -1.427131 5.402265
0.818717 -1.109567 6.147591
0.529422 -0.717500 7.281102
0.661582 -0.896609 8.208911
0.842881 -1.142315 9.366048
0.701634 -0.950891 10.104033
0.688136 -1.102633 0.596228
0.676676 -1.084270 1.668614
0.861195 -1.379934 2.975643
1.035049 -1.658508 3.934357
0.953136 -1.527254 4.732952
0.786599 -1.260405 5.716660
0.588076 -0.942302 6.632832
0.547049 -0.876562 7.583344
0.711173 -1.139546 8.765286
0.749308 -1.200651 9.553174
0.472592 -0.757256 10.563564
0.625198 -1.202965 1.159238
0.706928 -1.360224 2.228879
0.801752 -1.542679 3.447639
0.808679 -1.556006 4.350036
0.721479 -1.388223 5.312718
0.630732 -1.213613 6.087747
0.421438 -0.810904 7.057527
0.473514 -0.911105 8.000631
0.552233 -1.062570 9.174580
0.536381 -1.032070 10.057145
0.536526 -1.272146 1.753506
0.509268 -1.207515 2.417784
0.743233 -1.762265 4.982317
0.607905 -1.441390 5.610798
0.442074 -1.048193 6.627540
0.362640 -0.859848 7.449240
0.431814 -1.023865 8.500376
0.493703 -1.170610 9.508405
0.402296 -0.953876 10.249718
0.452852 -1.378637 0.973869
0.487978 -1.485573 1.986973
0.539213 -1.641551 3.232611
0.583750 -1.777138 4.395530
0.545462 -1.660575 5.304003
0.452031 -1.376140 6.073180
0.299492 -0.911758 6.964672
0.308420 -0.938936 7.936655
0.379658 -1.155810 8.910404
0.390251 -1.188059 9.804325
0.306260 -1.268062 1.226236
0.354336 -1.467122 2.220780
0.484404 -2.005665 4.359425
0.394341 -1.632759 5.366078
0.322735 -1.336278 6.272107
0.201414 -0.833950 7.079734
0.207278 -0.858231 8.221805
0.303465 -1.256491 9.212458
0.309380 -1.280981 10.035075
0.222193 -1.321585 0.214443
0.168836 -1.004227 1.429353
0.267768 -1.592661 2.531949
0.349487 -2.078723 3.691065
0.397172 -2.362349 4.741167
0.315529 -1.876742 5.799847
0.202493 -1.204411 6.486982
0.131999 -0.785120 7.249530
0.167476 -0.996134 8.358269
0.226585 -1.347712 9.224610
0.191065 -1.136440 10.133082
0.127855 -1.454368 0.878962
0.130975 -1.489854 1.878719
0.115846 -1.317761 2.697824
0.173057 -1.968546 5.034089
0.133164 -1.514752 5.782688
0.103243 -1.174398 6.671202
0.077056 -0.876523 7.711238
0.090427 -1.028618 8.800411
0.112102 -1.275172 9.775566
