1.036802 -2.613584 1.013950
1.117870 -2.804923 1.273319
1.168007 -2.923385 1.951231
1.138542 -2.853974 2.387929
1.149945 -2.880987 2.819227
1.085475 -2.728986 3.267101
0.122392 -0.457226 5.523257
0.219831 -0.687211 5.865948
0.241231 -0.737793 6.234907
0.204168 -0.650512 6.902141
-0.033339 -0.090277 7.484860
1.291864 -2.607373 0.940474
1.344273 -2.707533 1.372089
1.352578 -2.723481 1.805974
1.363159 -2.743775 2.239628
1.291970 -2.607996 2.938886
0.166491 -0.459601 5.637991
0.242970 -0.605721 6.083098
0.262831 -0.643701 6.363539
1.451159 -2.408081 1.006715
1.565612 -2.588473 1.433244
1.575523 -2.604166 1.864812
1.534541 -2.539680 2.302125
1.436564 -2.385372 2.580038
-0.220999 0.225615 4.955378
0.122914 -0.316258 5.257140
0.275622 -0.556955 5.869102
0.365308 -0.698333 6.312099
0.291093 -0.581481 6.712599
0.138926 -0.341877 7.419151
1.712993 -2.366047 1.320905
1.719074 -2.374106 1.587789
1.676577 -2.318186 2.195797
-0.186863 0.137664 4.832930
0.154456 -0.312323 5.329224
0.297143 -0.500446 5.586770
0.396632 -0.631657 6.032994
0.397078 -0.632351 6.685257
0.187398 -0.356020 7.034760
1.827869 -2.136808 1.022500
1.898141 -2.215223 1.204164
1.849907 -2.161520 1.896871
1.736102 -2.034648 2.430303
0.020435 -0.121202 5.037702
0.243016 -0.369527 5.285632
0.425198 -0.572827 5.809088
0.470723 -0.623677 6.268487
0.397911 -0.542540 6.848696
-0.029982 -0.065284 7.251940
2.062523 -2.046893 0.757110
2.070512 -2.054532 1.193014
2.007091 -1.994405 1.548858
1.883270 -1.877007 2.164922
1.681616 -1.685728 2.538554
0.191087 -0.271873 5.201142
0.451292 -0.518812 5.624910
0.499377 -0.564497 6.085652
0.479627 -0.545822 6.561541
0.260761 -0.338245 7.179373
2.245947 -1.855911 1.080197
2.254939 -1.863052 1.431733
2.112768 -1.750892 1.876752
1.904571 -1.586641 2.501877
1.532350 -1.292896 2.893970
0.428049 -0.421530 4.952108
0.405626 -0.403902 5.515797
0.591925 -0.550978 5.771430
0.578400 -0.540373 6.334249
0.470249 -0.455059 6.737602
1.795402 -1.271224 0.317610
2.384843 -1.662925 0.832229
2.397123 -1.671144 1.352384
2.245531 -1.570474 1.797688
2.010977 -1.414674 2.165799
1.700940 -1.208732 2.631412
0.334220 -0.300965 5.343921
0.613332 -0.486442 5.585954
0.761336 -0.584842 6.117040
0.715077 -0.554141 6.412030
0.418660 -0.357298 7.308726
2.072493 -1.219181 0.682881
2.516851 -1.464635 1.023784
2.447498 -1.426399 1.629383
2.199574 -1.289513 1.995056
1.876707 -1.111256 2.543188
1.479406 -0.891902 3.195967
0.815760 -0.525432 3.715941
0.550139 -0.378837 4.671481
0.579208 -0.394923 4.952544
0.630298 -0.423191 5.410752
0.761447 -0.495663 5.765633
0.856938 -0.548482 6.485882
0.637970 -0.427583 6.814105
2.257994 -1.084850 0.716262
2.637287 -1.255127 1.311396
2.558487 -1.219803 1.666192
2.300461 -1.104048 2.033128
1.959457 -0.951066 2.497064
1.441582 -0.718713 2.984662
0.769170 -0.417040 3.767922
0.475229 -0.285213 4.549926
0.615022 -0.347995 4.998671
0.748551 -0.407957 5.356089
0.919819 -0.484882 5.975537
0.906540 -0.478983 6.534746
0.678794 -0.376813 6.863963
2.716858 -1.030918 0.760062
2.638272 -1.003164 1.365104
2.474528 -0.945267 1.978037
2.201370 -0.848599 2.177676
1.756542 -0.691193 2.650835
1.156548 -0.478902 3.501021
0.062894 -0.091931 4.922256
0.667658 -0.306029 5.220894
0.994112 -0.421617 5.549198
1.080505 -0.452262 6.178675
0.935461 -0.400953 6.487947
0.308067 -0.178965 7.347101
2.795303 -0.800778 0.849286
2.719213 -0.780887 1.539326
2.448586 -0.709938 1.989759
2.178004 -0.638994 2.361339
1.633402 -0.496187 2.932193
1.128146 -0.363832 4.803043
0.906581 -0.305767 5.383664
1.147118 -0.368901 5.723335
1.238492 -0.392934 6.351516
1.024201 -0.336770 6.853840
2.848133 -0.572669 0.721681
2.863904 -0.575532 1.324184
2.680630 -0.542983 1.683362
2.406849 -0.494352 2.136263
1.936329 -0.410734 2.522878
1.384353 -0.312654 3.100147
0.742704 -0.198633 3.702049
0.443925 -0.145607 4.663925
0.802445 -0.209400 5.177042
1.229021 -0.285265 5.404622
1.330219 -0.303328 6.119650
1.192374 -0.278859 6.516139
0.864310 -0.220574 6.949506
2.897777 -0.318061 1.137263
2.813441 -0.310755 1.574824
2.544272 -0.287361 2.194335
2.168098 -0.254619 2.573267
1.689923 -0.212982 2.880099
1.044950 -0.156846 3.561723
0.847953 -0.139781 4.591342
0.990060 -0.152199 4.947285
1.257408 -0.175545 5.463108
1.419821 -0.189740 5.900256
1.376449 -0.185998 6.278592
1.184591 -0.169346 6.954283
2.908535 -0.078470 0.929322
2.915913 -0.078529 1.196294
2.843524 -0.078269 1.887671
2.468056 -0.076612 2.347296
1.992294 -0.074493 2.736831
1.342545 -0.071614 3.413145
0.487862 -0.067793 3.952112
0.477782 -0.067830 4.798208
1.240265 -0.071330 5.258528
1.599258 -0.072997 5.669652
1.567042 -0.072896 6.134235
1.441602 -0.072375 6.616608
2.499212 0.126907 0.554176
2.911334 0.158567 1.153004
2.823858 0.151800 1.509414
2.739681 0.145286 1.867529
2.370346 0.116807 2.414847
1.816545 0.074120 3.073937
1.051645 0.015208 3.505679
0.774719 -0.006225 4.728297
1.127334 0.020873 5.149358
1.536195 0.052335 5.201565
1.733760 0.067473 5.897677
1.704352 0.065164 6.361669
1.356025 0.038322 6.703255
2.879264 0.392654 0.762030
2.986433 0.409695 1.110100
2.906012 0.396830 1.631716
2.734008 0.369373 2.161315
2.372204 0.311673 2.709772
1.709070 0.205977 3.120231
0.967499 0.087764 3.728344
0.854766 0.069719 4.575449
1.409205 0.158009 5.058834
1.773555 0.216011 5.555708
1.838068 0.226246 6.002974
1.685081 0.201841 6.308555
1.271257 0.135854 6.840836
2.839280 0.632847 0.902425
2.951585 0.660487 1.418855
2.868782 0.640034 1.774628
2.604747 0.574876 2.312149
2.148390 0.462304 2.786447
1.525913 0.308742 3.548978
0.777716 0.124222 3.903184
0.639538 0.090095 4.473563
1.152970 0.216670 4.699529
1.721915 0.356890 5.351062
1.939559 0.410539 5.513146
1.906711 0.402394 5.974517
1.687462 0.348283 6.469554
2.875307 0.894881 0.998877
2.882788 0.897361 1.265796
2.807619 0.872112 1.788393
2.549923 0.785683 2.325352
2.293527 0.699697 2.784892
1.765692 0.522718 3.361580
1.057269 0.285206 3.973411
0.725355 0.173904 4.472697
1.122788 0.307100 4.620673
1.749638 0.517160 5.086530
1.889166 0.563891 5.433860
1.949843 0.584184 5.879379
1.841315 0.547749 6.442072
1.338040 0.379014 6.904165
2.887394 1.171301 1.160712
2.895619 1.174812 1.425269
2.820891 1.142611 1.861543
2.572079 1.035495 2.396058
2.227079 0.887007 2.775586
1.623957 0.627431 3.359234
1.203909 0.446639 3.853972
1.163605 0.429238 4.404318
1.586080 0.610971 4.895338
1.912224 0.751262 5.302540
1.969463 0.775844 5.745789
1.940556 0.763357 6.203898
1.748941 0.680847 6.783091
2.760908 1.423591 0.782542
2.861093 1.477886 1.294338
2.791676 1.440169 1.812680
2.632062 1.353535 2.171762
2.310112 1.178810 2.716741
1.895144 0.953638 3.108946
1.504619 0.741697 3.770014
1.099095 0.521646 4.182822
1.221349 0.587932 4.536771
1.801413 0.902578 4.999614
1.919749 0.966749 5.258410
1.996285 1.008203 5.871524
1.871054 0.940220 6.258838
1.541900 0.761560 7.045632
2.804664 1.755451 0.892390
2.812844 1.760758 1.240323
2.742949 1.715016 1.672984
2.513981 1.565275 2.202553
2.218064 1.371747 2.916117
1.824528 1.114442 3.309739
1.448220 0.868377 3.885430
1.403732 0.839242 4.342742
1.612958 0.975966 4.765811
1.908898 1.169379 5.170717
2.022400 1.243547 5.426468
1.920904 1.177134 5.980302
1.802420 1.099634 6.367006
1.560058 0.941119 7.049733
2.652220 1.981329 0.967696
2.660407 1.987658 1.313013
2.589425 1.932384 1.579312
2.451324 1.824844 2.102730
2.235704 1.656984 2.553712
1.956312 1.439472 3.188895
1.593719 1.157228 3.673454
1.321617 0.945398 4.245135
1.573031 1.141039 4.398944
1.874573 1.375629 5.061739
1.893720 1.390507 5.245492
1.894296 1.390868 5.954549
1.804533 1.320942 6.511257
1.619243 1.176692 6.917981
2.488323 2.191318 1.150427
2.494896 2.197306 1.414252
2.437899 2.145015 1.932153
2.231276 1.955651 2.297540
1.967232 1.713641 2.929009
1.773115 1.535723 3.392788
1.369310 1.165663 3.978634
1.331059 1.130556 4.436655
1.639865 1.413477 4.578454
1.834238 1.591503 5.080774
1.887326 1.640075 5.605027
1.780402 1.542056 5.989156
1.676270 1.446595 6.376386
1.317945 1.118190 7.094320
2.297901 2.380779 0.896935
2.306494 2.389979 1.327616
2.250458 2.329519 1.762743
2.065360 2.129938 2.295247
1.877170 1.927046 2.666543
1.778288 1.820366 3.374480
1.456311 1.473282 3.690989
1.235088 1.234732 4.436992
1.533864 1.556719 4.750601
1.699380 1.735071 5.082435
1.748470 1.787907 5.607679
1.717188 1.754137 5.977642
1.592962 1.620136 6.722756
1.234301 1.233490 7.186596
2.013436 2.496369 0.821831
2.080190 2.582617 1.167628
2.028678 2.515951 1.602731
1.921914 2.377838 2.128870
1.762195 2.171247 2.751129
1.595636 1.955852 3.127733
1.553206 1.900939 3.491674
1.285469 1.554691 4.154349
1.188162 1.428827 4.536750
1.531297 1.872373 5.006373
1.567529 1.919145 5.447190
1.591305 1.949841 5.717712
1.519933 1.857480 6.273811
1.863443 2.740809 1.103692
1.813630 2.664297 1.373071
1.773517 2.602614 1.977634
1.681139 2.460716 2.507770
1.527904 2.225444 2.797488
1.445804 2.099306 3.422489
1.359769 1.967158 3.882741
1.054534 1.498536 4.304839
1.131099 1.616004 4.653723
1.450340 2.105936 5.289043
1.477580 2.147687 5.643001
1.405935 2.037627 6.112018
1.283564 1.849696 6.601351
1.065657 1.515090 7.218308
1.632595 2.877948 0.893689
1.589668 2.798599 1.243906
1.555635 2.735608 1.929716
1.517264 2.664673 2.284057
1.346662 2.349479 2.913893
1.217763 2.111353 3.291504
1.191916 2.063327 4.717898
1.250049 2.170651 4.890566
1.371911 2.395620 5.302228
1.407647 2.461510 5.822316
1.245643 2.162240 6.236708
1.285848 2.824932 0.648416
1.328325 2.923624 0.993670
1.335019 2.939063 1.507100
1.301626 2.861324 1.858649
1.196737 2.617262 2.475551
1.088088 2.364517 2.847352
1.107600 2.409742 3.453337
1.115267 2.427287 4.603997
1.111017 2.417231 5.306583
1.169815 2.553879 5.643804
1.078882 2.342302 6.124956
0.951362 2.045642 6.628706
0.800033 1.693568 7.330843
1.057023 2.925003 0.950919
1.060346 2.934734 1.300338
1.036468 2.863865 1.905015
1.012246 2.792030 2.344701
0.927794 2.541871 2.885207
0.841097 2.285114 3.263280
0.692943 1.846127 4.648347
1.007514 2.777140 5.242272
1.027239 2.835400 5.675051
0.899277 2.456399 6.355101
0.724368 1.938521 6.723784
0.812121 2.999226 0.825943
0.814343 3.008031 1.173436
0.794950 2.929734 1.692210
0.796993 2.937887 1.872983
0.758465 2.782472 2.568774
0.689381 2.504220 2.771634
0.725029 2.647517 3.368700
0.686110 2.490269 4.708108
0.702922 2.557463 5.946963
0.675539 2.446980 6.500135
0.527741 1.851638 7.060454
0.543998 2.956142 0.755468
0.561742 3.065644 1.185507
0.547277 2.976002 1.454173
0.552456 3.007619 2.138019
0.524001 2.831377 2.499843
0.481202 2.566347 2.957106
0.504063 2.707451 3.470146
0.490742 2.623469 6.054585
0.472902 2.512778 6.609064
0.357149 1.796432 7.103691
0.291963 2.892014 0.801394
0.300936 3.005951 1.317799
0.301751 3.016029 1.584970
0.288520 2.846322 2.195468
0.282445 2.768297 2.551737
0.269354 2.600587 3.001729
0.272829 2.644304 3.522674
0.265697 2.549350 6.645803
0.209113 1.826208 7.140106
0.056463 2.909901 0.964090
0.056162 3.017438 1.226874
0.056157 3.030189 1.575815
0.056430 2.959698 2.181261
0.057300 2.687438 2.634874
0.058129 2.434438 3.264940
0.057204 2.741772 3.338393
0.057678 2.673836 6.089569
0.058599 2.394538 6.847795
0.060840 1.671775 7.347685
-0.189167 2.906460 1.046743
-0.198132 3.008858 1.143138
-0.200383 3.035304 1.828202
-0.184111 2.849944 2.105475
-0.169929 2.688804 2.723278
-0.145521 2.410621 3.015173
-0.153913 2.508539 4.956850
-0.177836 2.782876 6.170788
-0.142330 2.378406 6.775655
-0.079107 1.657545 7.274545
-0.421870 2.875758 0.792866
-0.440916 2.988277 1.307660
-0.427683 2.910607 1.829033
-0.380583 2.633308 2.195954
-0.368406 2.561822 2.639683
-0.324860 2.305561 3.186398
-0.289010 2.095386 4.996392
-0.412922 2.825628 5.259070
-0.441856 2.996402 5.762699
-0.370506 2.576308 6.275104
-0.288818 2.095412 6.986404
-0.203734 1.594420 7.540927
-0.655190 2.726196 0.647253
-0.711639 2.939423 1.412314
-0.714359 2.949784 1.678152
-0.669833 2.782024 2.206306
-0.624225 2.610118 2.570541
-0.559081 2.364620 3.200850
-0.563070 2.379740 3.385791
-0.606144 2.542819 4.957094
-0.646462 2.695070 5.380914
-0.678466 2.815861 5.549938
-0.568511 2.401280 6.061262
-0.467714 2.021312 6.754617
-0.336627 1.527035 7.306473
-0.876869 2.667814 0.870898
-0.946858 2.865262 1.217388
-0.951086 2.877285 1.568294
-0.892540 2.712359 2.097264
-0.799385 2.449798 2.468662
-0.747235 2.302931 3.093239
-0.834051 2.548415 5.458402
-0.875934 2.666563 5.628018
-0.741947 2.288956 6.311696
-0.568974 1.801385 6.854484
-0.403890 1.336084 7.497048
-1.135687 2.673066 0.676739
-1.181983 2.775692 1.192530
-1.148874 2.702510 1.714319
-1.077600 2.544827 2.244292
-1.004518 2.383103 2.609915
-0.891822 2.133674 2.986581
-0.709267 1.729870 4.634457
-0.731827 1.779925 5.080844
-0.945943 2.254027 5.202300
-1.016952 2.411366 5.712415
-0.939566 2.240203 6.452548
-0.727379 1.770530 6.997202
-0.504843 1.277905 7.379742
-1.352353 2.571171 0.721353
-1.410018 2.675209 1.404466
-1.321933 2.516586 1.847586
-1.231674 2.354012 2.125964
-1.150424 2.207722 2.661724
-1.017813 1.968861 3.039617
-1.039388 2.007840 3.567578
-0.779274 1.539300 4.243987
-0.702420 1.400902 4.628665
-0.975038 1.892200 5.100825
-1.040726 2.010610 5.359545
-1.113223 2.141303 5.701699
-1.056368 2.038974 6.258374
-0.859944 1.685178 6.870645
-0.517038 1.067448 7.461938
-1.564031 2.464958 1.268439
-1.571339 2.475986 1.620570
-1.524988 2.406490 1.975392
-1.372636 2.177932 2.428629
-1.226793 1.959160 2.973590
-1.081007 1.740458 3.440223
-0.892826 1.458168 4.096207
-0.864711 1.416057 4.554811
-1.059610 1.708615 4.965042
-1.182831 1.893563 5.125327
-1.216225 1.943754 5.566579
-1.157563 1.855832 6.208693
-1.050132 1.694726 6.872651
-0.767353 1.270453 7.426248
-1.694841 2.239865 0.896878
-1.763014 2.325791 1.243844
-1.777976 2.344733 1.844764
-1.668240 2.206576 2.289397
-1.489053 1.980898 2.490600
-1.330214 1.780919 3.122087
-1.163013 1.570367 3.504067
-0.890798 1.227583 4.171809
-0.903286 1.243342 4.359716
-1.202142 1.619893 5.018073
-1.285842 1.725364 5.276137
-1.316599 1.764162 5.632121
-1.207325 1.626647 6.462877
-1.070367 1.454208 6.957637
-0.672611 0.953247 7.356360
-1.890250 2.077727 0.900825
-1.972127 2.163710 1.499928
-1.910965 2.099582 1.770038
-1.730330 1.910173 2.475610
-1.544842 1.715638 2.935282
-1.217079 1.371969 4.319675
-1.169752 1.322357 4.604224
-1.359512 1.521523 5.196903
-1.393122 1.556834 5.553566
-1.378819 1.541904 6.096330
-1.204086 1.358634 6.415005
-1.015522 1.160916 7.189321
-2.127527 1.985737 0.955890
-2.139663 1.996632 1.472388
-2.070581 1.935020 1.657319
-1.873654 1.759408 2.361129
-1.663102 1.571585 2.648382
-1.307470 1.254471 4.112591
-1.203077 1.161401 4.666892
-1.474415 1.403561 5.160676
-1.528720 1.452082 5.688539
-1.391838 1.329969 5.816457
-1.305382 1.252903 6.377558
-1.089305 1.060203 7.064290
-2.206569 1.740997 0.974160
-2.222491 1.753044 1.577453
-2.145951 1.695499 1.680067
-2.015208 1.597268 2.380983
-1.804500 1.438885 2.925621
-1.514315 1.220728 3.400521
-0.976784 0.816555 3.738063
-0.876212 0.741016 4.474571
-1.227452 1.005182 4.792581
-1.422106 1.151599 5.128684
-1.569137 1.262238 5.732408
-1.454118 1.175792 6.120906
-1.342156 1.091646 6.512491
-1.100294 0.909844 7.115801
-2.263439 1.504165 1.219654
-2.186888 1.455935 1.493120
-2.126267 1.417789 2.106950
-1.979742 1.325466 2.560166
-1.663507 1.126145 2.947011
-1.356768 0.932821 3.427644
-0.963653 0.685034 3.838861
-0.859020 0.619155 4.579832
-1.231745 0.854171 4.900098
-1.429228 0.978700 5.152358
-1.501758 1.024497 5.774374
-1.441883 0.986774 5.978789
-1.383305 0.949939 6.806771
-0.937941 0.669220 7.276800
-2.285712 1.265920 1.056890
-2.304618 1.275848 1.664920
-2.142444 1.191295 2.029396
-1.988038 1.110804 2.482707
-1.584872 0.900576 3.135324
-1.258449 0.730352 3.531983
-0.766800 0.473954 4.043430
-0.712900 0.445881 4.424085
-1.199712 0.699855 4.822967
-1.446806 0.828810 5.422686
-1.568849 0.892498 5.684634
-1.452896 0.832067 6.163025
-1.280718 0.742330 6.835794
-0.726799 0.453449 7.324653
-2.198101 0.992168 1.011509
-2.303082 1.036218 1.447942
-2.224602 1.003360 1.806651
-2.061555 0.935064 2.257958
-1.724908 0.794011 2.813447
-1.218707 0.581900 3.483458
-0.898283 0.447651 4.062757
-0.650043 0.343630 4.374635
-0.900849 0.448823 4.986186
-1.380476 0.649880 5.114247
-1.550090 0.721041 5.723540
-1.417375 0.665453 6.115226
-1.314764 0.622502 6.684359
-0.932797 0.462451 7.223065
-2.277047 0.810471 1.199550
-2.387363 0.846453 1.637417
-2.300161 0.818065 1.825907
-2.137053 0.764985 2.362006
-1.785380 0.650471 2.831625
-1.263744 0.480609 3.501205
-1.095012 0.425767 4.714270
-1.347343 0.508019 5.229150
-1.594077 0.588440 5.651148
-1.456478 0.543655 6.041892
-1.349591 0.508893 6.610138
-0.984748 0.390113 7.323474
-2.236282 0.597577 1.124691
-2.258015 0.602794 1.735058
-2.182280 0.584873 2.180245
-1.911813 0.520754 2.554791
-1.457130 0.412949 3.036334
-1.008198 0.306509 3.528716
-0.776261 0.251558 4.189315
-0.515158 0.189655 4.501884
-0.684967 0.229997 5.126962
-1.395451 0.398546 5.314953
-1.564729 0.438752 5.836809
-1.329457 0.382985 6.243811
-1.112430 0.331555 6.743482
-0.757137 0.247358 7.550150
-2.171526 0.394586 0.815314
-2.284691 0.411761 1.338841
-2.294752 0.413309 1.608552
-2.126902 0.387974 2.230284
-1.753898 0.331573 2.612971
-1.207787 0.249008 3.280630
-0.957415 0.211272 4.770280
-1.013092 0.219741 5.225342
-1.233921 0.253170 5.389229
-1.394316 0.277482 5.826676
-1.280087 0.260254 6.395254
-2.300711 0.222227 1.002446
-2.314461 0.223207 1.442738
-2.237709 0.218028 1.973082
-1.963635 0.199397 2.432505
-1.509024 0.168481 3.086976
-0.949987 0.130435 3.589130
-0.906943 0.127645 5.066414
-1.140618 0.143594 5.319540
-1.327171 0.156366 5.933300
-1.256946 0.151601 6.137499
-1.146098 0.144103 6.709530
-0.764924 0.118198 7.427621
-2.312136 0.007155 1.030427
-2.336727 0.006605 1.727069
-2.245503 0.008918 1.917028
-1.875773 0.018272 2.468980
-1.321259 0.032286 3.133839
-0.753908 0.046598 3.550705
-0.798111 0.045621 4.936310
-1.177413 0.036137 5.530077
-1.216638 0.035178 5.808273
-1.172353 0.036329 6.188959
-1.047478 0.039517 6.675089
-0.452204 0.054557 7.341345
-2.208038 -0.154917 1.079149
-2.216423 -0.155728 1.350614
-2.147248 -0.148750 2.054378
-1.869552 -0.120977 2.430245
-1.396939 -0.073732 2.825461
-0.957856 -0.029802 3.582582
-0.695335 -0.003451 4.905369
-0.950028 -0.028848 5.336097
-1.196799 -0.053463 5.674005
-1.151148 -0.048867 6.052484
-1.039170 -0.037626 6.624189
-0.739351 -0.007620 7.235038
-2.290391 -0.355421 1.226275
-2.211888 -0.340910 1.756852
-1.934615 -0.289806 2.129378
-1.677830 -0.242450 2.767098
-1.207317 -0.155761 3.080002
-0.664019 -0.055640 3.674676
-0.614144 -0.046315 5.075868
-0.965387 -0.110965 5.495313
-1.210886 -0.156146 5.834297
-1.111338 -0.137747 6.494052
-0.992122 -0.115741 6.982180
-0.475766 -0.020594 7.457168
-2.245769 -0.560871 1.124691
-2.167646 -0.538947 1.656727
-1.987319 -0.488437 1.939222
-1.631594 -0.388798 2.495672
-1.181120 -0.262642 2.982399
-0.655513 -0.115433 3.666345
-0.617792 -0.104722 5.161709
-0.855744 -0.171300 5.507403
-1.121438 -0.245627 6.024700
-1.054461 -0.226856 6.232346
-0.854215 -0.170739 6.826233
-0.362556 -0.033045 7.391173
-2.196971 -0.745761 1.297213
-2.119546 -0.716977 1.746173
-1.859636 -0.620460 2.206013
-1.417741 -0.456394 2.685783
-0.894498 -0.262124 3.272642
-1.032735 -0.313377 3.809196
-0.778685 -0.219050 4.119790
0.263259 0.167773 4.986654
-0.838906 -0.241258 5.508785
-0.980469 -0.293764 5.864418
-0.952521 -0.283342 6.336480
-0.758951 -0.211434 6.931809
-0.128330 0.022712 7.714728
-2.222660 -0.966614 1.402178
-1.960791 -0.844203 1.685048
-1.713267 -0.728467 2.230806
-1.387894 -0.576339 2.878256
-0.864970 -0.331923 3.201938
-0.840115 -0.320039 5.697991
-0.954694 -0.373567 5.875773
-0.863677 -0.330961 6.538998
-0.679159 -0.244664 7.135566
-0.146546 0.004318 7.813221
-1.951234 -1.043276 1.048426
-1.969730 -1.053810 1.663069
-1.901650 -1.014733 2.111903
-1.486931 -0.776952 2.502104
-1.081173 -0.544297 2.988906
-0.607759 -0.272836 3.672940
-0.468669 -0.192954 5.002498
-0.671842 -0.309393 5.261439
-0.844919 -0.408530 5.972600
-0.784296 -0.373755 6.180706
-0.688760 -0.318924 6.760080
-0.429660 -0.170325 7.379029
-1.857232 -1.201473 1.023714
-1.951092 -1.266149 1.462051
-1.792671 -1.156875 1.655602
-1.571444 -1.004237 2.287072
-1.266289 -0.793740 2.760604
-0.731727 -0.425012 3.443858
-0.700362 -0.403107 5.767279
-0.804694 -0.475037 5.945013
-0.711094 -0.410419 6.521061
-0.543158 -0.294537 7.118439
0.088772 0.141352 7.924283
-1.826343 -1.413490 0.921833
-1.769415 -1.366700 1.706457
-1.628213 -1.250843 2.071679
-1.262365 -0.950723 2.545721
-0.818804 -0.586873 2.950047
-0.544150 -0.361535 3.526422
-0.440774 -0.276549 5.112609
-0.536376 -0.354937 5.291641
-0.737510 -0.519849 5.721460
-0.734019 -0.516904 6.368198
-0.551132 -0.366852 6.784128
-0.320053 -0.177249 7.401316
-1.705501 -1.558275 0.953146
-1.715093 -1.567489 1.395453
-1.587634 -1.444173 1.932625
-1.382674 -1.245953 2.222382
-1.062070 -0.935840 3.052445
-0.659101 -0.546130 3.557203
-0.305246 -0.203720 5.472641
-0.626837 -0.514632 5.788034
-0.675528 -0.561651 6.244254
-0.575565 -0.464940 6.643679
-1.571709 -1.692383 0.930494
-1.584503 -1.706875 1.541298
-1.526277 -1.640471 1.815587
-1.288500 -1.369355 2.538361
-1.041719 -1.088026 2.926534
-0.600278 -0.584825 3.346387
-0.276749 -0.215784 5.348816
-0.571216 -0.551359 5.666249
-0.541070 -0.516943 6.049624
-0.486349 -0.454463 6.805653
-1.476565 -1.913833 1.207523
-1.427184 -1.846048 1.649835
-1.321928 -1.701646 2.099529
-1.157694 -1.476384 2.473695
-0.830871 -1.028133 3.136913
-0.731220 -0.891427 3.517257
-0.593627 -0.702499 5.097118
-0.439646 -0.491306 5.414924
-0.535387 -0.622513 5.858244
-0.534038 -0.620557 6.506536
-0.444769 -0.498099 6.818497
-0.220667 -0.190689 7.543484
-1.309141 -2.020054 0.821118
-1.316833 -2.032561 1.348369
-1.270212 -1.956108 1.624533
-1.236539 -1.900795 2.324657
-1.043631 -1.584577 2.792240
-0.653711 -0.945464 3.476783
0.018239 0.156076 5.477155
-0.421122 -0.563884 5.741119
-0.449091 -0.609649 6.109205
-0.434793 -0.586130 6.581298
-0.320711 -0.399082 7.088946
0.019461 0.158542 7.965355
-1.159048 -2.118058 1.114171
-1.163028 -2.125764 1.384574
-1.173209 -2.145515 1.909898
-1.090853 -1.984765 2.276635
-0.921755 -1.654766 2.746455
-0.538088 -0.906090 3.529404
-0.195852 -0.238097 5.003672
-0.212163 -0.269858 5.288635
-0.342593 -0.524187 5.902463
-0.361745 -0.561491 6.185174
-0.356523 -0.551183 6.750102
-0.999298 -2.300320 0.860108
-1.042448 -2.407041 1.381765
-1.050812 -2.427619 1.905383
-1.018774 -2.348208 2.180765
-0.080720 -0.024365 5.430219
-0.290116 -0.542810 5.827395
-0.310743 -0.593795 6.200100
-0.301111 -0.569816 6.677173
-0.838036 -2.474067 1.030447
-0.872951 -2.586129 1.549907
-0.875297 -2.593611 1.734432
-0.853697 -2.524003 2.261977
-0.177582 -0.349505 5.660032
-0.256189 -0.602046 6.094210
-0.269098 -0.643450 6.377415
-0.257644 -0.606505 6.765380
-0.139763 -0.227362 7.403291
-0.477467 -1.840814 0.484984
-0.608694 -2.429030 0.662898
-0.655575 -2.638930 1.265803
-0.679473 -2.745947 1.530451
-0.687911 -2.783429 2.302853
-0.672445 -2.713897 2.745537
-0.590009 -2.344198 3.044740
-0.050487 0.075505 5.317129
-0.193564 -0.565740 5.702587
-0.202429 -0.605358 5.985848
-0.205703 -0.619704 6.728920
-0.450770 -2.780725 1.198746
-0.467216 -2.899199 1.714975
-0.469005 -2.911936 1.982396
-0.472462 -2.936603 2.417400
-0.462923 -2.867361 2.859504
-0.425778 -2.598695 3.236012
-0.130055 -0.460212 5.559879
-0.150826 -0.610049 5.917752
-0.150734 -0.608919 6.570867
-0.145689 -0.572189 6.958508
-0.075944 -0.067823 7.526064
-0.222185 -2.803017 1.017238
-0.228975 -2.923363 1.615981
-0.230171 -2.943985 2.049236
-0.231038 -2.959028 2.314571
-0.238243 -3.087096 2.740241
-0.234581 -3.020852 3.179839
-0.092548 -0.477372 5.619162
-0.101054 -0.628819 5.976121
-0.099489 -0.600013 6.450611
-0.093589 -0.493515 7.032487
-0.064327 0.030458 7.510803
0.001717 -1.901324 0.450988
0.012353 -2.203677 0.632945
0.033849 -2.815114 1.142521
0.037653 -2.923805 1.405502
0.042052 -3.050290 2.001755
0.042891 -3.075292 2.433980
0.043490 -3.093026 2.698785
0.044606 -3.125879 3.130483
-0.048514 -0.490253 5.665883
-0.043190 -0.642304 6.023015
-0.043737 -0.628343 6.586851
0.259485 -2.795982 0.860703
0.284623 -3.012613 1.457443
0.287748 -3.039985 2.058290
0.288366 -3.045377 2.156970
0.304280 -3.182702 2.750032
0.295812 -3.110195 3.106347
0.301919 -3.163209 3.705453
0.009788 -0.653594 6.090043
0.014749 -0.696487 6.372211
-0.009129 -0.491697 6.970437
-0.066084 -0.002578 7.629741
0.487505 -2.763763 0.787363
0.531325 -2.982716 1.550310
0.534370 -2.998076 1.898478
0.557660 -3.114415 2.240636
0.563055 -3.141541 2.670916
0.569403 -3.173414 3.100858
0.558655 -3.120064 3.623037
0.055566 -0.611723 5.818706
0.063617 -0.652018 6.099766
0.058173 -0.625099 6.573995
-0.014364 -0.263684 7.387163
0.712523 -2.720540 1.035653
0.770648 -2.923275 1.379611
0.803121 -3.036623 1.807789
0.810745 -3.063380 2.322742
0.816981 -3.085240 2.670591
0.800326 -3.027369 3.193102
0.804601 -3.042335 3.374385
0.108947 -0.618290 5.913582
0.128022 -0.684944 6.373252
0.109234 -0.619526 6.581986
-0.019536 -0.170947 7.413975
0.932573 -2.648243 0.844917
1.008584 -2.849203 1.359989
1.051658 -2.963144 1.874297
1.056603 -2.976283 2.141574
1.066045 -3.001347 2.575507
1.044294 -2.944027 3.100476
0.062152 -0.349858 5.383100
0.150215 -0.582613 5.729361
0.174017 -0.645625 6.190034
0.169899 -0.634901 6.754963
0.017923 -0.233507 7.212490
1.101622 -2.473696 0.856341
1.192520 -2.665343 1.288770
1.238193 -2.761630 1.469870
1.294856 -2.881189 2.150699
1.258892 -2.805465 2.424182
1.140804 -2.556704 2.797183
0.043839 -0.245661 5.324562
0.198212 -0.571066 5.749527
0.215842 -0.608282 6.034477
0.216296 -0.609389 6.690372
0.116578 -0.399350 7.115112
1.319143 -2.360123 0.642667
1.428358 -2.545020 1.242861
1.482433 -2.636545 1.422779
1.447624 -2.577783 2.113450
1.407461 -2.509899 2.470955
-0.118589 0.071584 4.832716
0.017403 -0.158604 5.366926
0.188112 -0.447475 5.612886
0.278833 -0.601069 6.149764
0.301074 -0.638752 6.432909
0.146515 -0.377371 7.049435
1.568077 -2.328328 0.820909
1.695513 -2.508480 1.501916
1.644343 -2.436235 1.772989
1.599640 -2.373154 2.213531
-0.098502 0.025438 5.199096
0.209215 -0.409334 5.420344
0.360396 -0.622991 5.853468
0.335015 -0.587199 6.238627
1.818872 -2.273046 0.993281
1.834158 -2.291398 1.680230
1.711289 -2.144746 1.873129
1.601559 -2.013833 2.406791
0.020983 -0.127352 5.096466
0.258369 -0.410820 5.612188
0.355870 -0.527271 5.970910
0.409942 -0.591906 6.520289
0.303459 -0.464821 6.746608
2.001389 -2.119284 1.129392
1.939512 -2.056684 1.484104
1.815655 -1.931356 2.014361
1.626822 -1.740243 2.556176
0.035963 -0.129903 5.149591
0.340426 -0.438195 5.383547
0.542201 -0.642571 5.993427
0.532170 -0.632493 6.555640
0.356877 -0.455060 6.886503
2.165772 -1.945282 0.990985
2.249605 -2.017294 1.336441
2.114251 -1.901165 1.861386
1.893900 -1.712028 2.058619
1.686155 -1.533745 2.514712
0.275106 -0.322752 5.141086
0.490025 -0.507330 5.752217
0.626384 -0.624457 6.282928
0.607089 -0.607953 6.754726
0.281164 -0.328217 7.208704
2.001342 -1.501686 0.529315
2.337913 -1.740841 1.126112
2.268794 -1.691795 1.564306
2.122337 -1.587812 2.009738
1.813050 -1.368155 2.386681
0.752996 -0.615308 3.738680
0.344197 -0.325035 4.718690
0.452527 -0.402019 4.989658
0.591074 -0.500500 5.525025
0.724640 -0.595431 5.968462
0.712640 -0.586974 6.528650
0.533775 -0.459978 7.036050
1.934965 -1.243141 0.323128
2.371405 -1.506425 0.922530
2.461103 -1.560541 1.102171
2.394325 -1.520337 1.708258
2.160514 -1.379387 2.244311
1.828109 -1.178939 2.452943
1.432470 -0.940395 3.018442
0.716592 -0.508742 3.809364
0.364822 -0.296691 4.690785
0.506965 -0.382478 5.228419
0.623593 -0.452847 5.496634
0.774760 -0.544075 6.028110
0.750597 -0.529556 6.499672
0.549360 -0.408238 6.917756
2.582255 -1.348658 1.069373
2.589618 -1.352325 1.332710
2.343765 -1.230922 1.946664
2.002934 -1.062567 2.319988
1.497403 -0.812860 2.887203
0.916861 -0.526103 3.566536
0.590143 -0.364825 4.892534
0.662845 -0.400813 5.525718
0.863889 -0.500161 5.687156
0.960086 -0.547767 6.403413
0.748120 -0.443086 6.816562
2.315220 -0.962807 0.834256
2.694496 -1.109099 1.090692
2.621540 -1.081027 1.695770
2.353738 -0.977780 1.976515
1.926866 -0.813237 2.701762
1.300078 -0.571565 3.112413
0.692028 -0.337138 3.712783
0.492044 -0.260106 4.570811
0.737902 -0.354973 5.094051
0.897554 -0.416597 5.624829
1.038977 -0.471172 5.976328
1.025148 -0.465897 6.532495
0.728381 -0.351506 7.053607
2.670404 -0.875712 0.959362
2.677722 -0.877953 1.228994
2.505778 -0.826013 1.760056
2.144991 -0.716961 2.221938
1.699738 -0.582379 2.785793
1.118755 -0.406905 4.845536
0.878046 -0.334158 5.251975
1.115290 -0.405933 5.594511
1.178455 -0.425080 6.049927
1.004983 -0.372702 6.816726
2.734566 -0.645818 0.937657
2.839631 -0.668093 1.202525
2.761196 -0.651535 1.726004
2.494415 -0.595094 2.263507
2.022598 -0.495211 2.565744
1.474792 -0.379263 3.143051
0.748608 -0.225553 3.842957
0.552312 -0.184079 4.795604
0.877103 -0.252883 5.041917
1.117706 -0.303868 5.384705
1.276610 -0.337561 5.825048
1.150266 -0.310855 6.308917
0.851370 -0.247620 6.918090
2.880261 -0.408435 0.907673
2.892891 -0.409980 1.342547
2.605424 -0.375805 1.621973
2.342933 -0.344644 2.331364
1.882501 -0.289918 2.893894
1.316557 -0.222622 3.303217
0.483406 -0.123565 4.018347
0.365674 -0.109633 4.786784
1.001842 -0.185353 5.085655
1.393153 -0.231977 5.762277
1.420763 -0.235280 5.952022
1.307981 -0.221917 6.521984
0.730011 -0.153225 7.271766
2.899296 -0.189632 0.740380
2.918608 -0.190527 1.426487
2.726154 -0.182294 1.617131
2.461918 -0.171034 2.324072
1.986308 -0.150681 2.712652
1.436226 -0.127162 3.379454
0.590444 -0.090961 4.005091
0.471574 -0.085939 4.770309
1.122554 -0.113887 5.155535
1.468046 -0.128731 5.481041
1.558618 -0.132675 6.105042
1.404488 -0.126096 6.412218
0.903824 -0.104694 7.053048
2.907760 0.076012 0.893897
2.914827 0.076330 1.158908
2.845882 0.072903 1.932354
2.560933 0.059021 2.214856
2.090038 0.036081 2.685683
1.539533 0.009251 3.349285
0.684820 -0.032357 3.882914
0.662615 -0.033509 4.631906
1.322925 -0.001451 5.102812
1.691712 0.016431 5.598703
1.658399 0.014766 6.060089
1.503759 0.007218 6.365106
1.033179 -0.015741 7.179037
2.790942 0.302463 0.828144
3.000821 0.330117 1.256638
2.822980 0.306597 1.782197
2.633747 0.281606 1.974734
2.372318 0.247045 2.600398
1.817591 0.173784 3.173096
1.090404 0.077745 3.954176
0.960895 0.060589 4.617996
1.408332 0.119595 5.022034
1.749783 0.164623 5.343630
1.811781 0.172761 5.788541
1.780800 0.168628 6.248305
1.393821 0.117491 6.950871
2.758036 0.508546 0.688037
2.968870 0.552458 1.284112
2.981842 0.555128 1.632379
2.815955 0.520471 2.243088
2.441256 0.442295 2.534712
1.899240 0.329187 3.190667
1.254510 0.194672 3.699078
0.537272 0.045015 4.411354
0.558076 0.049335 4.603878
1.399244 0.224723 5.052020
1.845324 0.317718 5.447178
1.920504 0.333345 5.977879
1.768409 0.301594 6.281047
1.579912 0.262215 6.950544
2.904107 0.822480 1.238322
2.916407 0.826217 1.587259
2.836258 0.801596 1.941109
2.578359 0.722434 2.477493
2.118809 0.581442 2.780434
1.498268 0.391030 3.453557
0.880288 0.201410 4.059306
0.812991 0.180738 4.349763
1.357228 0.347618 4.922516
1.886487 0.509923 5.306487
2.028824 0.553548 5.650699
1.929116 0.522898 6.296056
2.924707 1.100571 1.426900
2.938200 1.105937 1.773881
2.685541 1.004725 2.305480
2.341499 0.866935 2.767159
1.811069 0.654528 3.167793
1.399430 0.489652 3.831439
1.081441 0.362281 4.410762
1.193363 0.407071 4.588739
1.816799 0.656615 5.137354
2.034471 0.743738 5.381809
2.025181 0.739953 6.008783
1.907058 0.692611 6.482338
1.505843 0.531932 6.924767
2.899333 1.378106 0.952665
2.906045 1.381437 1.216249
2.837928 1.347279 1.817570
2.675565 1.265977 2.176348
2.353453 1.104692 2.805692
1.842926 0.849129 3.206765
1.514215 0.684566 3.600386
1.310535 0.582544 4.339939
1.506978 0.680846 4.506040
1.820866 0.837902 4.916366
1.993325 0.924143 5.603058
1.951907 0.903373 5.974001
1.837852 0.846237 6.448113
1.580265 0.717240 7.133533
2.858255 1.665200 0.857982
2.871136 1.672990 1.371746
2.797898 1.628323 1.723719
2.650260 1.538302 2.250082
2.333369 1.345155 2.711404
2.027257 1.158567 3.266635
1.642991 0.924353 3.841705
1.319171 0.727011 4.070171
1.530355 0.855645 4.498151
1.914898 1.089916 4.896270
2.039077 1.165544 5.240168
2.017998 1.152638 5.780782
1.846649 1.048154 6.440653
1.574544 0.882291 6.953251
2.723399 1.875563 0.803447
2.730694 1.880761 1.152050
2.743320 1.889776 1.583610
2.597700 1.785140 2.025549
2.370887 1.622201 2.394133
2.086856 1.418125 3.114481
1.694693 1.136449 3.342963
1.425220 0.942826 4.087074
1.529901 1.017975 4.352717
1.831159 1.234266 4.935683
1.931274 1.306148 5.110352
2.000385 1.355710 5.722961
1.883785 1.271922 6.110374
2.541981 2.114790 0.798902
2.548699 2.120562 1.145559
2.563012 2.132890 1.658222
2.421396 2.010227 1.931672
2.217395 1.833511 2.465702
2.009410 1.653367 2.838095
1.757195 1.434866 3.650954
1.400930 1.126330 3.971547
1.436748 1.157288 4.418117
1.709500 1.393404 4.912971
1.894400 1.553469 5.242798
1.885312 1.545519 5.866436
1.777629 1.452226 6.252376
2.289141 2.248871 0.903197
2.367836 2.329334 1.329887
2.312973 2.273126 1.846640
2.186271 2.143433 2.204671
1.996181 1.948868 2.657036
1.879512 1.829428 3.107815
1.627329 1.571325 3.580919
1.322364 1.259189 4.245489
1.482414 1.422919 4.495843
1.742865 1.689335 5.071475
1.784566 1.731943 5.510203
1.742688 1.689054 5.793380
1.681308 1.626148 6.519488
1.506860 1.447607 6.840393
2.094140 2.434084 0.982605
2.104788 2.446904 1.495715
2.050874 2.381543 1.846912
1.941837 2.249386 2.373192
1.769953 2.041113 2.827499
1.592592 1.826230 3.118151
1.489753 1.701592 3.574916
1.281137 1.448780 4.314537
1.357630 1.541410 4.489137
1.587796 1.820136 4.979464
1.625095 1.865251 5.418001
1.619143 1.857946 6.040691
1.529463 1.749256 6.426266
1.316763 1.491547 6.849143
1.946761 2.685811 1.198459
1.950270 2.690828 1.379209
1.853836 2.551999 2.068898
1.694630 2.322933 2.436156
1.541004 2.101880 2.893306
1.508453 2.054968 3.424476
1.413478 1.918292 3.795637
1.155543 1.547193 4.287966
1.247134 1.678849 4.805176
1.549604 2.113889 5.011295
1.596990 2.181946 5.615743
1.457731 1.981567 6.011823
1.345231 1.819635 6.669066
1.090954 1.453821 7.025448
1.464951 2.393766 0.788679
1.719070 2.831508 1.040402
1.627533 2.673709 1.559642
1.587455 2.604580 1.994892
1.505310 2.462944 2.606518
1.361476 2.215110 2.808999
1.335902 2.170932 3.422820
1.401621 2.283760 5.445203
1.297911 2.104965 6.095101
1.192330 1.922961 6.667398
0.976450 1.550962 7.110098
1.029937 2.055601 0.223166
1.414515 2.880655 0.912635
1.419929 2.892173 1.343140
1.346459 2.734384 1.950118
1.274753 2.580399 2.478833
1.153485 2.320139 2.681686
1.095348 2.195210 3.475080
1.103895 2.213283 4.632588
1.173640 2.362822 5.142791
1.246200 2.518401 5.649395
1.221358 2.465030 5.931131
1.054315 2.106438 6.617663
0.914079 1.805429 7.042173
1.162488 2.888132 1.070991
1.165433 2.895844 1.333611
1.137683 2.822353 1.851410
1.077100 2.662077 2.377717
0.983800 2.415319 2.916447
0.928426 2.268808 3.453838
0.826157 1.998187 4.555048
0.950465 2.326647 4.957182
1.119640 2.773657 5.505885
1.112073 2.753512 6.035753
0.997378 2.450214 6.533178
0.898785 2.983983 1.176372
0.902104 2.995774 1.523441
0.880602 2.918405 1.958942
0.833658 2.749675 2.402669
0.788098 2.585910 2.850582
0.797401 2.619158 3.285681
0.699988 2.268867 4.647401
0.919900 3.058231 5.509083
0.854210 2.822207 5.900789
0.778324 2.549436 6.651710
0.650908 3.048752 1.210301
0.652693 3.057928 1.476476
0.639200 2.987222 2.081817
0.606571 2.816773 2.528729
0.572532 2.639051 2.811009
0.581787 2.687015 3.417450
0.531237 2.422649 4.690303
0.432037 1.903834 7.209090
0.355419 2.683845 6.294748
0.340697 2.546889 6.683198
0.256033 1.760637 7.372718
0.134694 2.903826 0.812547
0.137478 3.018220 1.328592
0.135552 2.935852 1.767417
0.136132 2.958320 2.202553
0.132211 2.792112 2.735339
0.123358 2.420102 3.119812
0.132811 2.802805 6.278688
0.122134 2.354595 6.630639
0.104466 1.611470 7.580260
-0.105574 2.908682 0.969994
-0.112019 3.018911 1.318126
-0.106923 2.932808 1.673018
-0.103113 2.869144 2.365897
-0.092398 2.687317 2.647410
-0.077096 2.427910 3.192548
-0.104486 2.898908 6.239007
-0.069100 2.297987 6.877752
-0.023753 1.527826 7.658110
-0.341772 2.889355 0.925385
-0.357102 2.998240 1.272010
-0.345448 2.915951 1.709075
-0.320539 2.739737 2.153742
-0.297974 2.580252 2.771965
-0.275783 2.423357 3.310761
-0.331523 2.819652 5.136198
-0.360693 3.026905 5.891173
-0.301340 2.606630 6.404673
-0.225003 2.065903 6.774389
-0.146590 1.510777 7.605096
-0.583894 2.849422 0.888648
-0.608271 2.956295 1.235051
-0.590451 2.878505 1.755618
-0.551976 2.710297 2.284459
-0.512487 2.537573 2.648943
-0.457741 2.298213 3.365497
-0.335475 1.763592 4.853398
-0.384842 1.979784 5.015053
-0.554964 2.724758 5.446414
-0.585546 2.858755 5.698206
-0.480797 2.400551 6.566099
-0.359456 1.869490 6.938308
-0.231510 1.309674 7.686278
-0.849170 2.892791 1.125474
-0.852684 2.903981 1.471832
-0.829440 2.830877 1.990587
-0.746343 2.569075 2.440204
-0.666774 2.318427 2.981285
-0.584974 2.060690 3.358586
-0.592623 2.085203 4.602526
-0.672240 2.336338 5.101364
-0.753759 2.593468 5.593978
-0.709695 2.454688 5.973392
-0.615589 2.158229 6.558978
-0.485052 1.746880 6.999136
-1.070031 2.708993 1.048711
-1.075520 2.722135 1.481568
-1.045787 2.651666 2.003316
-1.016709 2.582732 2.443128
-0.871046 2.236953 2.822116
-0.765515 1.986469 3.199983
-0.781305 2.024319 4.620245
-0.875173 2.247287 4.950560
-0.945390 2.414164 5.544468
-0.893795 2.291771 6.011160
-0.806088 2.083636 6.497907
-0.656329 1.728213 7.198086
-1.268510 2.617683 0.897833
-1.275577 2.631579 1.415995
-1.196676 2.477792 2.028269
-1.165173 2.416451 2.555034
-1.037150 2.166769 2.844715
-0.913276 1.925199 3.224078
-0.896806 1.893221 3.931556
-0.687001 1.484027 4.341387
-0.701011 1.511416 4.614411
-1.007353 2.109133 5.154962
-1.034856 2.162879 5.593368
-1.019523 2.133064 6.046379
-0.923132 1.945150 6.619320
-0.778562 1.663236 7.130665
-1.538863 2.595079 1.197763
-1.489231 2.515401 1.381895
-1.397498 2.368185 1.992699
-1.307960 2.224480 2.524572
-1.212176 2.070697 2.806163
-1.079838 1.858270 3.440877
-0.948335 1.647170 3.997922
-0.753162 1.333767 4.312833
-0.896184 1.563581 4.910094
-1.130127 1.939364 5.216101
-1.168985 2.001868 5.741485
-1.033628 1.784535 6.056105
-0.974200 1.689192 6.616954
-0.762982 1.350077 7.235510
-1.688513 2.370933 0.975570
-1.698432 2.384305 1.494027
-1.590469 2.239758 1.938351
-1.482534 2.095237 2.302226
-1.383835 1.963115 2.839730
-1.225640 1.751286 3.305055
-0.967030 1.404996 4.055617
-0.805983 1.189321 4.363098
-1.062316 1.532721 4.593693
-1.272850 1.814800 5.001804
-1.315258 1.871692 5.529251
-1.192578 1.707468 6.187481
-1.050192 1.516806 6.594400
-0.851386 1.250571 7.023504
-1.876558 2.221280 0.853879
-1.886478 2.232577 1.373042
-1.768728 2.099459 1.901788
-1.721917 2.046585 2.429313
-1.539462 1.840251 2.804169
-1.228176 1.488348 4.274849
-1.137227 1.385550 4.831122
-1.306367 1.576939 5.252241
-1.347347 1.623360 5.696909
-1.317390 1.589528 6.070520
-1.159060 1.410488 6.477741
-0.948273 1.172127 6.993929
-1.925307 1.900886 0.744231
-2.007946 1.978700 1.262530
-2.020110 1.990202 1.698399
-1.956613 1.930502 1.970960
-1.691827 1.681484 2.602725
-1.497199 1.498445 3.066769
-1.228500 1.245713 3.459600
-0.843417 0.883541 4.229392
-0.865476 0.904331 4.508002
-1.330433 1.341788 4.801504
-1.460866 1.464576 5.406128
-1.344683 1.355315 5.707441
-1.351518 1.361841 6.427269
-1.108264 1.133052 6.854882
-0.688951 0.738675 7.607227
-2.061446 1.752534 0.751485
-2.154303 1.827780 1.438084
-2.007461 1.708959 1.714471
-1.958429 1.669359 2.412085
-1.744168 1.495981 2.787352
-1.449949 1.257873 3.089743
-1.110624 0.983313 3.839263
-0.914258 0.824432 4.319775
-1.100351 0.975100 4.660287
-1.374306 1.196895 5.070678
-1.429955 1.242004 5.601413
-1.414330 1.229425 6.146506
-1.382160 1.203433 6.520568
-1.787617 1.294671 0.820992
-2.210548 1.582349 1.246685
-2.144694 1.537625 1.771617
-2.069390 1.486434 1.959961
-1.924624 1.388034 2.410191
-1.629943 1.187701 3.051063
-1.248614 0.928423 3.539131
-0.782800 0.611681 3.959810
-0.755906 0.593466 4.602488
-1.211167 0.903128 4.995973
-1.477067 1.083979 5.145881
-1.527105 1.118062 5.591649
-1.428839 1.051299 6.153433
-1.255656 0.933589 6.736096
-0.777613 0.608568 7.485689
-2.162284 1.270580 0.858119
-2.175466 1.277929 1.381684
-2.194815 1.288690 1.904998
-2.032418 1.198897 2.184995
-1.728474 1.030874 2.996018
-1.237192 0.759196 3.492494
-1.005142 0.630891 3.884785
-0.706169 0.465591 4.469708
-0.830117 0.534187 4.826766
-1.400612 0.849775 5.204550
-1.519639 0.915639 5.465898
-1.437480 0.870278 6.202293
-1.328316 0.809952 6.683133
-1.024763 0.642092 7.027248
-2.158531 1.064064 0.791212
-2.259657 1.110595 1.226294
-2.187015 1.077260 1.752532
-2.034772 1.007344 2.372343
-1.783829 0.892032 2.747577
-1.361326 0.697869 3.230720
-1.140212 0.596298 3.881321
-0.549808 0.324960 4.407219
-0.578218 0.338049 4.687449
-1.269525 0.655875 5.144344
-1.482595 0.753845 5.392211
-1.473591 0.749774 6.026558
-1.345256 0.690823 6.418139
-2.255707 0.869444 1.215164
-2.368605 0.909544 1.735451
-2.192555 0.847125 2.014636
-1.939309 0.757350 2.559713
-1.586846 0.632365 2.947076
-0.970433 0.413773 3.542469
-0.729159 0.328239 4.027072
-0.793218 0.351027 4.661816
-1.001617 0.424968 4.830021
-1.429171 0.576671 5.232477
-1.523047 0.610044 5.942204
-1.376470 0.558081 6.248121
-1.194581 0.493632 6.922881
-0.729959 0.328889 7.572295
-2.222963 0.653348 1.199964
-2.335087 0.682939 1.636979
-2.258801 0.662881 2.082185
-1.914899 0.572327 2.806676
-1.459265 0.452297 3.205576
-0.926879 0.312060 3.798624
-0.490015 0.196987 4.307218
-0.539563 0.210090 4.768470
-1.041690 0.342426 4.900439
-1.396370 0.435943 5.401412
-1.470049 0.455413 5.937627
-1.428235 0.444432 6.314782
-1.147275 0.370462 7.006012
-0.433739 0.182470 7.425776
-2.161274 0.450126 0.842033
-2.274234 0.470239 1.363151
-2.193339 0.455916 1.805575
-2.127422 0.444271 2.421187
-1.770072 0.380863 2.976107
-1.209436 0.281338 3.383652
-0.942487 0.234059 4.690356
-1.094411 0.261083 5.130481
-1.336723 0.304149 5.466673
-1.399518 0.315345 5.914901
-1.411970 0.317628 6.639761
-2.190809 0.268696 0.821994
-2.214968 0.271013 1.604992
-2.235436 0.272954 2.045812
-2.051613 0.255937 2.327472
-1.602693 0.214383 3.065696
-1.036806 0.161953 3.478170
-0.869608 0.146577 4.786146
-1.112078 0.169093 5.128422
-1.282930 0.184987 5.655243
-1.250424 0.182018 6.121424
-1.139508 0.171790 6.693067
-0.840717 0.144144 7.304267
-2.212583 0.089236 1.111875
-2.227724 0.089443 1.556258
-2.239546 0.089597 1.829602
-1.963349 0.086655 2.291040
-1.505595 0.081769 2.946932
-0.943743 0.075742 3.449529
-0.907256 0.075500 5.022249
-1.053994 0.077122 5.379062
-1.203865 0.078777 5.733612
-1.271385 0.079551 6.188455
-1.146760 0.078251 6.675231
-0.732674 0.073826 7.218058
-2.210939 -0.090573 1.054437
-2.222202 -0.091333 1.412712
-2.154038 -0.086453 2.117923
-1.782332 -0.060175 2.588326
-1.303816 -0.026374 2.900170
-0.742736 0.013273 3.404162
-0.782478 0.010604 4.795110
-1.048591 -0.008126 5.317170
-1.235455 -0.021253 5.934946
-1.192734 -0.018201 6.317483
-1.055252 -0.008459 6.717726
-0.592918 0.024250 7.546727
-2.294915 -0.305962 1.141011
-2.120134 -0.277560 1.763009
-2.039115 -0.264387 2.127338
-1.677100 -0.205630 2.685548
-1.119233 -0.115123 3.182385
-0.567522 -0.025612 3.692363
-0.595159 -0.029973 4.911772
-0.981589 -0.092566 5.599000
-1.118727 -0.114776 5.865831
-1.075804 -0.107778 6.249183
-0.856134 -0.072109 6.754726
-0.383081 0.004670 7.497820
-2.164983 -0.467658 1.130575
-2.173595 -0.469759 1.404366
-2.102691 -0.452178 2.022938
-1.750708 -0.365145 2.664283
-1.279305 -0.248647 2.888552
-0.747783 -0.117249 3.568716
-0.578123 -0.075205 4.802561
-0.860056 -0.144796 5.503258
-1.090285 -0.201656 5.755977
-1.073288 -0.197400 6.314115
-0.939288 -0.164251 6.714162
-0.584533 -0.076516 7.525512
-2.219899 -0.675487 1.306205
-2.141537 -0.649165 1.751512
-1.869877 -0.558041 2.037944
-1.443226 -0.414890 2.862616
-0.916419 -0.238179 3.450563
-0.856933 -0.218012 5.591664
-1.012988 -0.270296 6.033659
-0.999939 -0.265863 6.592544
-0.778149 -0.191448 7.010708
-0.141580 0.022089 7.793526
-2.143479 -0.851012 0.774587
-2.156347 -0.856491 1.300876
-1.900441 -0.746350 1.840954
-1.651437 -0.639177 2.388768
-1.214737 -0.451279 2.783981
-0.710121 -0.234135 3.462022
-0.484255 -0.136814 4.972524
-0.629270 -0.199148 5.420479
-0.835294 -0.287756 5.586139
-0.920126 -0.324182 6.219032
-0.805665 -0.274892 6.707043
-0.501296 -0.143914 7.144346
-1.980329 -0.978913 0.905490
-2.074947 -1.029188 1.172986
-2.014415 -0.996919 1.959069
-1.679010 -0.818557 2.338281
-1.275332 -0.603868 2.993152
-0.766421 -0.333267 3.318041
-0.290733 -0.080186 4.946930
-0.342276 -0.107539 5.409685
-0.835436 -0.369686 5.800828
-0.883465 -0.395180 6.168386
-0.772860 -0.336323 6.655895
-1.888508 -1.154826 1.084492
-1.900853 -1.162834 1.525881
-1.833731 -1.118965 1.972097
-1.441112 -0.862600 2.531553
-0.971737 -0.556126 3.111676
-0.829975 -0.463540 3.494689
-0.698903 -0.377814 4.895479
-0.581245 -0.300951 5.378812
-0.799960 -0.443678 5.809109
-0.797480 -0.441983 6.456890
-0.575515 -0.297058 6.696623
-0.420153 -0.195557 7.386007
-1.865640 -1.364510 1.001114
-1.950865 -1.430585 1.268979
-1.803423 -1.316172 1.632696
-1.586985 -1.148217 2.177108
-1.223716 -0.866356 2.829974
-0.784364 -0.525486 3.418156
-0.675067 -0.440418 5.752749
-0.707353 -0.465427 6.033866
-0.596055 -0.379046 6.434296
-0.523950 -0.323033 7.104884
0.005127 0.087460 7.892123
-1.375928 -1.171380 0.805760
-1.749392 -1.513313 1.066401
-1.691603 -1.460317 1.682427
-1.493742 -1.279060 2.312884
-1.151607 -0.965704 2.879956
-0.720831 -0.571228 3.115356
-0.562360 -0.425874 4.988614
-0.632816 -0.490292 5.713654
-0.682344 -0.535584 6.171725
-0.600920 -0.460951 6.750036
-0.479513 -0.349752 6.976592
-0.043960 0.049157 7.653027
-1.684891 -1.723861 0.966655
-1.694057 -1.733700 1.407825
-1.508832 -1.533535 2.034310
-1.326593 -1.336608 2.583488
-0.996452 -0.979967 2.807053
-0.566591 -0.515520 3.671230
-0.600105 -0.551413 5.815705
-0.579490 -0.529078 6.289948
-0.572745 -0.521711 6.854269
-1.480178 -1.777116 1.055076
-1.493481 -1.793941 1.669810
-1.386317 -1.657544 2.210220
-1.149786 -1.356632 2.510334
-0.807615 -0.921288 3.180668
-0.765192 -0.867267 3.558413
-0.602359 -0.659937 4.883852
-0.400450 -0.403016 5.483784
-0.579019 -0.630058 6.093993
-0.431450 -0.442286 6.511789
-0.366375 -0.359419 7.096264
-0.164396 -0.102434 7.541864
-1.390423 -1.981793 1.320799
-1.398007 -1.993187 1.676495
-1.297127 -1.840749 2.042476
-1.090931 -1.529224 2.510407
-0.777744 -1.056092 3.001985
-0.687944 -0.920374 3.472324
-0.552597 -0.715678 4.971867
-0.372925 -0.444192 5.571811
-0.511223 -0.653019 5.915299
-0.448338 -0.557935 6.493593
-0.335621 -0.387579 7.093127
-0.155128 -0.114879 7.538000
-1.206197 -2.096830 1.263664
-1.261664 -2.199487 1.699683
-1.218282 -2.119088 1.889316
-1.137289 -1.968948 2.426694
-0.870359 -1.474375 2.999164
-0.694833 -1.149155 3.394712
-0.498288 -0.784714 5.174728
-0.280447 -0.381120 5.522211
-0.364620 -0.536930 6.058789
-0.385079 -0.574769 6.341337
-0.286999 -0.392967 6.939754
-0.138574 -0.117917 7.473010
-0.783661 -1.622103 0.459893
-1.072177 -2.278847 1.246505
-1.076062 -2.287628 1.516515
-1.087598 -2.313748 2.125487
-1.018059 -2.155302 2.577789
-0.830375 -1.727840 3.057443
-0.432260 -0.820848 5.160243
-0.257637 -0.423113 5.685754
-0.318959 -0.562655 6.043507
-0.347490 -0.627505 6.503301
-0.292736 -0.502737 6.907028
-0.087782 -0.035932 7.474294
-0.710762 -1.870379 0.414590
-0.873825 -2.345541 0.594284
-0.942509 -2.545553 1.112846
-0.948571 -2.563064 1.634266
-0.923001 -2.488412 2.076438
-0.897313 -2.413440 2.435908
-0.777629 -2.064505 2.904029
-0.215552 -0.425643 5.551509
-0.305301 -0.687043 6.073181
-0.291807 -0.647601 6.459265
-0.230419 -0.468491 7.147481
-0.045301 0.071229 7.918264
-0.531011 -1.824692 0.359767
-0.581504 -2.023245 0.714930
-0.706641 -2.515527 1.058212
-0.734839 -2.626314 1.491247
-0.764224 -2.741775 1.921841
-0.746920 -2.673475 2.446420
-0.128843 -0.240120 5.504792
-0.193552 -0.494579 5.939084
-0.235047 -0.657690 6.383658
-0.180584 -0.443174 6.891631
-0.067230 0.003207 7.729572
-0.518247 -2.667115 1.198557
-0.552685 -2.870217 1.375009
-0.558649 -2.904960 2.144900
-0.561299 -2.920443 2.409868
-0.548588 -2.845229 2.765674
