1.301988 2.961530 11.591662
1.128232 2.825059 11.858418
1.014249 2.924866 12.646722
0.869429 2.887709 13.117155
0.621820 2.633924 13.305165
0.500064 2.669123 13.915894
0.345230 2.582767 14.267795
0.223295 2.600263 14.821910
0.168944 2.690583 15.336216
0.045797 2.688452 15.831689
-0.023876 2.720095 16.218421
0.299993 3.887317 18.678274
-0.141617 2.832759 17.063709
0.337904 4.238458 19.661093
0.160974 4.151660 20.101706
2.620207 1.880512 1.507752
2.518879 1.853262 1.865030
2.469369 1.922729 2.281552
2.394243 1.868795 2.447856
2.413374 2.014504 2.791243
2.307817 2.026613 3.281796
2.287032 2.072148 3.504507
2.177472 2.123395 4.126710
2.088428 2.139421 4.557508
2.068855 2.208873 4.844900
2.004915 2.152136 4.954776
1.983815 2.241530 5.307040
1.910414 2.237728 5.612433
1.883258 2.406261 6.222116
1.810911 2.448806 6.658427
1.806434 2.496196 6.816243
1.737767 2.566626 7.318187
1.676294 2.560122 7.564243
1.672955 2.696978 7.978648
1.614399 2.695291 8.226206
1.560562 2.832512 8.859422
1.504751 2.813727 9.045173
1.453790 2.868170 9.424042
1.399718 2.852554 9.611559
1.352612 2.913329 9.992309
1.316845 3.056755 10.565743
1.215093 3.027228 10.918191
1.185157 3.158140 11.429907
1.026148 3.036267 11.759337
0.888385 3.035270 12.350451
0.791259 2.994385 12.649752
0.637770 2.884460 12.990302
0.453858 2.834021 13.635902
0.291067 2.668379 13.853713
0.107479 2.600166 14.445959
0.051539 2.715548 15.024410
-0.099377 2.593547 15.318571
-0.165394 2.650604 15.770000
0.061509 3.848771 18.293620
-0.514018 2.511784 16.867511
-0.127907 3.917040 19.309916
0.004448 4.212632 19.603167
-0.556268 2.889837 18.154670
2.483509 2.063493 1.333628
2.383545 2.026402 1.691953
2.352304 2.206873 2.296100
2.298120 2.125749 2.333966
2.270006 2.163281 2.557645
2.190452 2.285554 3.231774
2.108132 2.256506 3.530695
2.077960 2.315452 3.818580
2.004586 2.277900 4.055134
1.908076 2.300772 4.551453
1.882803 2.368592 4.839862
1.807739 2.354669 5.144625
1.734016 2.343663 5.450784
1.691404 2.506819 6.062131
1.685398 2.533108 6.156735
1.595665 2.645379 6.851398
1.533162 2.630647 7.097122
1.474292 2.597588 7.279410
1.397137 2.733755 7.978259
1.388824 2.831059 8.265303
1.379502 2.976168 8.679415
1.323095 2.998830 8.993313
1.270080 2.952972 9.116249
1.162978 2.973521 9.654649
1.111675 3.056674 10.100407
1.113964 3.172178 10.386003
1.014138 3.132918 10.738147
0.920495 3.180613 11.285072
0.819391 3.066076 11.450115
0.726701 3.067549 11.874277
0.642036 3.134550 12.429950
0.494206 2.980055 12.704523
0.364428 2.985522 13.307122
0.183873 2.893898 13.891224
-0.002123 2.744207 14.351204
-0.129468 2.709139 14.838899
-0.213704 2.683172 15.154402
-0.323904 2.732819 15.781417
-0.461937 2.605475 16.081131
-0.170054 4.047617 18.452790
-0.267249 4.073048 18.958774
-0.360993 4.105833 19.467951
-0.478458 4.169223 20.163132
-0.736646 3.930058 20.721255
2.274077 2.161983 1.257255
2.190654 2.232102 1.804737
1.890816 2.624187 4.077530
1.785084 2.480077 4.263996
1.695306 2.483470 4.696217
1.607911 2.492866 5.130242
1.561134 2.612553 5.612267
1.508039 2.549293 5.725740
1.407652 2.634952 6.387338
1.364958 2.792601 6.932720
1.280227 2.882892 7.530323
1.069408 3.104133 9.009786
0.905847 3.139959 9.861792
0.797808 3.255241 10.624119
0.651447 3.376903 11.581683
2.116064 2.436278 1.417425
2.059370 2.478138 1.770347
2.034218 2.498402 1.930000
1.950629 2.573875 2.475381
1.898599 2.627738 2.827392
1.857617 2.540033 2.867730
1.798225 2.609335 3.283777
1.686856 2.616406 3.840208
1.615996 2.725378 4.384456
1.583205 2.626484 4.364447
1.493987 2.624501 4.796277
1.429601 2.583618 5.036093
1.373530 2.697935 5.517891
1.348541 2.753505 5.741030
1.232621 2.858597 6.498135
1.191656 2.776857 6.549252
1.156952 2.876942 6.900850
1.079865 2.911094 7.339267
0.999398 2.972121 7.843108
0.921820 3.041444 8.347959
0.929634 3.008323 8.249515
0.859108 3.061910 8.691299
0.790774 3.121885 9.134010
0.728756 3.164111 9.513578
0.672170 3.186245 9.830052
0.602583 3.314365 10.402948
0.507088 3.286793 10.818829
0.463697 3.240714 10.946713
0.357328 3.362046 11.686773
0.273504 3.264252 11.917840
0.144743 3.173694 12.381406
0.015969 3.121198 12.914335
-0.070073 3.128275 13.347162
-0.230629 2.910797 13.734827
-0.352207 2.813450 14.150973
-0.512235 2.674831 14.679639
-0.592173 2.742263 15.192563
-0.708933 2.700747 15.686846
-0.784600 2.745202 16.137090
-0.780027 2.953851 16.494649
-0.784329 4.214248 18.810417
-0.921081 4.155010 19.370005
-0.977812 4.252046 19.823560
-1.187349 4.064130 20.504110
1.919055 2.596463 1.342436
1.897185 2.497202 1.312304
1.782612 2.569232 1.988365
1.756270 2.588392 2.147463
1.667689 2.660547 2.693344
1.652658 2.674032 2.787721
1.557672 2.768245 3.396792
1.534021 2.667515 3.373524
1.470929 2.738667 3.790160
1.380260 2.720947 4.219923
1.309324 2.683149 4.522436
1.220937 2.676101 4.955786
1.190103 2.725277 5.179693
1.116964 2.852322 5.725443
1.033035 2.862725 6.161011
0.974622 2.827765 6.404722
0.900211 2.995196 7.013738
0.828425 3.005265 7.387938
0.801776 2.902874 7.377368
0.723593 2.937578 7.818349
0.698892 3.007914 8.041304
0.616509 3.073941 8.547468
0.593468 3.149638 8.769642
0.489853 3.321674 9.531608
0.455864 3.242138 9.590038
0.386383 3.308902 10.032540
0.303765 3.216552 10.316804
0.226150 3.347111 10.889951
0.144897 3.263028 11.179018
0.059026 3.209639 11.534473
-0.035572 3.218265 12.021050
-0.156078 3.118027 12.484218
-0.283851 3.087178 13.081569
-0.401778 3.003051 13.554494
-0.503712 2.793618 13.770716
-0.630815 2.822043 14.448200
-0.735769 2.653220 14.736765
-0.846880 2.558140 15.160083
-1.023667 3.756405 17.734498
-1.039532 2.542838 16.104712
-1.119831 2.625632 16.624040
-1.230262 3.980488 19.086239
-1.328537 3.946177 19.530774
-1.425132 4.010131 20.105296
1.735446 2.725409 1.254351
1.638445 2.774295 1.800019
1.588102 2.804152 2.087837
1.527323 2.844485 2.439733
1.424308 2.809126 2.929358
1.397623 2.831368 3.088525
1.286717 2.935026 3.761606
1.259823 2.843319 3.804496
1.170890 2.818946 4.233524
1.072776 2.813559 4.728988
1.025662 2.749144 4.903239
0.991262 2.795326 5.126457
0.918356 2.900679 5.607235
0.814776 2.934338 6.170820
0.773227 3.006437 6.457232
0.741473 3.064240 6.678909
0.677621 3.046705 6.986905
0.590559 2.938172 7.319711
0.516429 3.098555 7.863412
0.454393 3.093571 8.175058
0.383889 3.269585 8.716342
0.347767 3.208048 8.837423
0.263475 3.281150 9.343132
0.204009 3.291984 9.657948
0.145050 3.306208 9.973665
0.064274 3.398953 10.481647
0.006791 3.422075 10.798993
-0.082305 3.385136 11.215911
-0.142771 3.244148 11.379488
-0.263348 3.154080 11.902448
-0.371019 3.221229 12.521413
-0.483002 3.120495 12.989508
-0.588075 2.781577 13.177030
-0.712445 2.755269 13.785025
-0.829346 2.707291 14.332558
-1.086988 3.662076 16.631426
-1.037222 2.497138 15.177640
-1.131193 2.595694 15.758990
-1.369993 3.660760 18.075208
-1.277982 2.553819 16.465432
-1.368120 2.676462 17.052012
-1.594144 3.930252 19.497340
-1.688876 3.895001 19.944776
1.498773 2.861572 1.280274
1.433887 2.886876 1.631268
1.347263 3.033340 2.167798
1.259245 2.977556 2.589581
1.254043 2.980779 2.618439
1.131969 2.956676 3.235542
1.058649 3.014880 3.650013
1.017135 2.940299 3.819838
0.967085 2.985567 4.106102
0.880964 2.958310 4.535273
0.795231 2.937427 4.966276
0.768327 2.968198 5.124040
0.650783 2.997790 5.750079
0.602986 3.062002 6.036113
0.551009 3.017008 6.277917
0.493292 3.102380 6.628037
0.431101 3.079007 6.935731
0.369059 3.058909 7.244628
0.296862 3.060276 7.619016
0.220773 3.200064 8.097012
0.139616 3.232622 8.536567
0.075605 3.366184 8.948313
0.044760 3.302767 9.069666
-0.025278 3.327778 9.447141
-0.121504 3.287502 9.920743
-0.200406 3.348138 10.365565
-0.269242 3.390398 10.747218
-0.336447 3.293828 11.036716
-0.423178 3.398442 11.548563
-0.526363 3.274085 12.007471
-0.566199 3.104827 12.111523
-0.714926 3.136631 12.900240
-0.800371 2.971474 13.242758
-0.895362 2.688982 13.563909
-0.990290 2.562885 13.979041
-1.120595 2.576295 14.661353
-1.198055 2.395629 14.953198
-1.301837 2.323334 15.446588
-1.395095 2.382317 15.964694
-1.449425 2.622421 16.390598
-1.756336 3.838337 18.711841
-1.635128 2.616930 17.348149
-1.933854 3.908352 19.672574
-2.126608 3.686943 20.536405
1.213802 2.987909 1.515803
1.085984 3.035340 2.189595
1.068110 3.043246 2.284044
1.025955 3.063141 2.507009
0.954488 2.998576 2.867730
0.839871 3.069218 3.476877
0.749967 3.133956 3.956325
0.726424 3.048702 4.063903
0.690726 2.973599 4.236546
0.570662 2.974467 4.861777
0.517148 3.025952 5.149439
0.409321 3.033371 5.712118
0.356198 3.093279 5.999229
0.284174 3.072918 6.370618
0.254982 3.109241 6.528992
0.194720 3.080027 6.837588
0.075438 3.137317 7.468678
0.069977 3.145234 7.498502
-0.013883 3.162199 7.938079
-0.132666 3.243550 8.570800
-0.149684 3.272183 8.664441
-0.256389 3.348486 9.233392
-0.328334 3.370148 9.611765
-0.377325 3.351877 9.863607
-0.472201 3.428418 10.371021
-0.496538 3.251506 10.466608
-0.635735 3.320555 11.203446
-0.685178 3.316193 11.460087
-0.756220 3.248124 11.817979
-0.815030 3.037477 12.087108
-0.954535 3.027470 12.811641
-1.037551 2.884615 13.218719
-1.144053 2.808684 13.759837
-1.542893 3.504259 15.958640
-1.289724 2.365558 14.440295
-1.386714 2.277156 14.929700
-1.484233 2.319804 15.444906
-1.929084 3.427211 17.955691
-1.644681 2.445134 16.302284
-2.072815 3.708791 18.753516
-2.160026 3.648989 19.197039
-1.892225 2.510049 17.602472
-2.040382 2.256845 18.329281
0.911731 3.090109 1.863882
0.918384 3.088217 1.829689
0.874922 3.101297 2.052907
0.730867 3.156774 2.790026
0.724969 3.159441 2.820120
0.595134 3.127852 3.502980
0.591277 3.031969 3.544796
0.470854 3.107775 4.154320
0.428217 3.039813 4.391628
0.398090 2.964119 4.565581
0.315070 3.029174 4.982890
0.207080 3.025059 5.545832
0.188881 2.944216 5.658876
0.092225 3.037987 6.140637
0.021427 3.111713 6.492364
-0.088382 3.136969 7.058113
-0.094652 3.046760 7.111202
-0.178940 3.148365 7.526816
-0.237795 3.125294 7.838345
-0.310111 3.123185 8.215176
-0.394840 3.240641 8.629492
-0.480916 3.268377 9.071163
-0.554296 3.282361 9.449883
-0.601697 3.259024 9.701863
-0.728610 3.369773 10.337235
-0.752497 3.214178 10.496836
-0.827436 3.246667 10.879474
-0.892065 3.166218 11.234064
-1.024459 3.217693 11.911405
-1.039881 2.951191 12.052107
-1.150874 2.874111 12.647227
-1.194852 2.666302 12.923229
-1.294724 2.576802 13.463290
-1.409848 2.527390 14.073633
-1.488774 2.304293 14.534983
-1.574236 2.299942 14.980735
-1.636752 2.145443 15.341125
-1.728543 2.063614 15.837388
-1.839776 2.237600 16.376816
-1.904827 2.098751 16.746852
-1.999417 2.039000 17.252674
-2.524365 3.428547 19.669503
-2.643729 3.380623 20.301572
0.763827 3.235764 1.251688
0.693402 3.147427 1.673272
0.584877 3.170687 2.218988
0.578693 3.172311 2.249885
0.494942 3.197411 2.666362
0.462712 3.208596 2.825637
0.388461 3.143059 3.252124
0.316151 3.176004 3.604357
0.239949 3.121844 4.033504
0.189565 3.057671 4.335752
0.056741 3.051209 5.026429
0.009092 3.085241 5.250497
-0.057027 3.044083 5.619060
-0.104803 3.082308 5.841047
-0.144240 3.024579 6.082517
-0.220503 3.091310 6.433136
-0.359970 3.134113 7.126023
-0.372862 3.057880 7.242367
-0.493737 3.184774 7.784318
-0.536162 3.143168 8.030714
-0.622634 3.154364 8.470319
-0.687464 3.231985 8.754752
-0.790156 3.272930 9.258785
-0.849629 3.263294 9.572442
-0.954401 3.318431 10.077968
-1.000333 3.296307 10.329780
-1.041300 3.182259 10.615889
-1.103441 3.187176 10.933840
-1.222560 3.196593 11.543332
-1.215201 2.928014 11.680460
-1.337750 2.952638 12.297759
-1.426765 2.844611 12.828262
-1.469850 2.662655 13.169602
-1.497834 2.455989 13.449014
-1.572099 2.247147 13.969034
-1.718196 2.259193 14.716239
-2.254415 3.075673 16.955050
-2.343957 3.100219 17.401814
-1.938106 2.006392 16.017655
-2.527046 3.254234 18.247619
-2.103319 2.171636 16.763742
-2.192237 2.104690 17.266953
-2.825579 3.447141 19.664691
-2.906142 3.055556 20.336444
0.518505 3.190042 1.224902
0.436035 3.193618 1.641329
0.306980 3.305014 2.178816
0.254359 3.221243 2.537380
0.248204 3.222634 2.567246
0.140223 3.159850 3.185289
0.120350 3.166394 3.279506
0.050217 3.101316 3.707142
-0.067560 3.152871 4.251727
-0.126966 3.094243 4.617738
-0.173261 3.031885 4.920959
-0.191472 2.955280 5.096425
-0.300257 3.022718 5.578046
-0.395580 3.087475 5.993959
-0.430635 3.028080 6.236697
-0.512723 3.090272 6.587926
-0.549122 3.035696 6.832315
-0.663173 3.048965 7.399225
-0.748017 3.124994 7.749569
-0.850057 3.140403 8.252962
-0.922093 3.131676 8.629492
-0.930934 3.060705 8.751126
-1.067633 3.205172 9.291885
-1.093705 3.154862 9.479044
-1.235790 3.238413 10.112980
-1.216512 3.060125 10.207120
-1.294895 3.076234 10.589199
-1.357436 3.076015 10.908158
-1.477087 3.075327 11.518668
-1.552367 2.947272 12.040492
-1.541518 2.705904 12.245658
-1.650869 2.706239 12.802573
-1.715030 2.573200 13.273110
-1.726020 2.365763 13.552955
-2.354449 3.057194 16.009465
-1.834758 2.009285 14.491774
-1.907518 1.900425 14.980041
-2.012210 1.918665 15.493893
-2.710034 2.890299 18.001697
-2.177676 1.969072 16.282754
-2.267685 1.974834 16.735243
-2.986599 3.049812 19.239010
-2.444258 1.919330 17.694988
-2.527712 1.639200 18.422567
0.242616 3.315758 1.254448
0.238438 3.218113 1.417928
0.142058 3.218649 1.899079
0.056841 3.225329 2.315438
-0.016453 3.235477 2.667115
-0.051108 3.150794 2.964065
-0.071338 3.155150 3.058860
-0.161211 3.177842 3.475120
-0.270252 3.125662 4.096558
-0.251810 3.032375 4.140568
-0.306525 2.968081 4.508052
-0.377831 2.915157 4.941893
-0.475633 2.963755 5.359967
-0.504536 2.896927 5.602082
-0.636261 2.973667 6.148686
-0.690478 3.007686 6.370116
-0.793054 3.075774 6.783598
-0.809186 3.008453 6.962575
-0.852016 2.883647 7.358991
-1.025691 3.018868 8.029963
-1.027761 2.944803 8.148471
-1.154483 3.052233 8.625247
-1.174803 2.995694 8.809416
-1.318290 3.053727 9.442156
-1.322712 2.985047 9.564559
-1.453033 3.040675 10.134975
-1.513254 3.030624 10.450775
-1.556156 3.004376 10.703632
-1.616242 2.857508 11.218555
-1.680107 2.788594 11.638534
-1.726807 2.703069 11.996943
-1.833987 2.690809 12.550786
-1.806527 2.453722 12.759692
-1.862312 2.250258 13.335754
-1.960952 2.172019 13.943239
-1.979734 1.996217 14.293878
-2.000130 1.823757 14.647707
-2.130276 1.798639 15.335162
-2.826613 2.598688 17.648777
-2.265117 1.658136 16.214589
-2.348446 1.710595 16.554657
-2.417255 1.680388 16.942837
-2.480169 1.516524 17.496720
-3.324280 2.634680 20.084721
-0.081581 3.221733 1.687357
-0.165797 3.218499 2.102914
-0.198385 3.218737 2.260937
-0.285444 3.223220 2.675896
-0.305371 3.225005 2.769461
-0.361165 3.142806 3.194335
-0.525561 3.176779 3.930272
-0.513774 3.088961 4.037021
-0.592253 3.028819 4.530997
-0.566425 2.937816 4.575420
-0.681223 2.979177 5.056372
-0.766641 2.935068 5.554138
-0.790320 2.867453 5.795600
-0.846547 2.894448 6.018582
-1.036823 2.995493 6.755055
-1.047534 2.927064 6.934978
-1.141168 2.983426 7.284997
-1.170803 2.929110 7.530573
-1.219087 2.888437 7.841353
-1.304860 2.876044 8.281589
-1.404237 2.947684 8.630990
-1.531880 2.975598 9.199524
-1.530415 2.906139 9.322166
-1.682596 2.962871 9.956181
-1.682651 2.896255 10.080907
-1.801267 2.933098 10.588865
-1.895901 2.888676 11.132029
-1.891688 2.756076 11.359272
-1.909111 2.644567 11.652315
-1.964809 2.508331 12.177678
-1.986047 2.403849 12.476149
-2.092360 2.325677 13.139157
-2.022235 2.007062 13.393410
-2.089933 1.834659 14.044691
-2.835796 2.511040 16.407944
-2.173697 1.625501 14.842765
-2.279273 1.566396 15.466568
-2.364471 1.547112 15.916888
-2.404301 1.419115 16.349692
-3.254147 2.254199 18.922086
-2.569119 1.272420 17.425211
-3.459100 2.362876 19.715670
-3.576595 2.360120 20.292159
-0.285318 3.215361 1.370873
-0.405839 3.196281 1.979518
-0.398719 3.197070 1.944328
-0.551597 3.188650 2.680662
-0.571556 3.188797 2.773975
-0.648886 3.104656 3.327231
-0.727900 3.113648 3.677603
-0.782978 3.038942 4.105098
-0.749149 2.949915 4.147875
-0.792276 2.877504 4.514109
-0.861998 2.895030 4.801568
-0.892944 2.825002 5.105258
-0.981594 2.853271 5.457208
-1.117246 2.828514 6.149692
-1.107919 2.824742 6.114473
-1.324501 2.920365 6.914213
-1.276378 2.826178 6.901603
-1.408922 2.822599 7.531576
-1.453543 2.778008 7.841854
-1.443130 2.704038 7.960419
-1.546431 2.763549 8.310396
-1.614516 2.738273 8.687042
-1.764654 2.769553 9.320668
-1.757599 2.700744 9.443307
-1.894479 2.732088 10.014583
-1.909905 2.680762 10.203124
-2.074975 2.741871 10.839293
-2.123857 2.659076 11.256035
-2.175788 2.581377 11.675544
-2.128901 2.366267 11.942422
-2.163028 2.277425 12.303615
-2.213215 2.146554 12.835288
-2.196195 1.960240 13.177119
-2.246824 1.779111 13.824615
-2.235888 1.601574 14.175129
-2.303667 1.498366 14.726733
-2.355540 1.437940 15.106871
-2.458371 1.374931 15.731947
-2.486083 1.241852 16.163167
-3.419215 2.166792 18.447828
-2.667463 1.266424 16.958557
-3.658476 2.234932 19.416176
-3.712126 2.148828 19.862775
-0.558391 3.178550 1.404592
-0.639143 3.157875 1.821643
-0.670560 3.151393 1.979770
-0.728645 3.141545 2.266462
-0.856540 3.128814 2.874030
-0.841936 3.040658 3.041764
-0.963477 3.041260 3.585540
-0.981298 2.958511 3.884462
-1.000943 2.878278 4.184910
-1.054051 2.805409 4.616030
-1.174429 2.827822 5.096875
-1.167771 2.750254 5.272250
-1.259500 2.772838 5.624092
-1.324167 2.718096 6.059111
-1.438525 2.755020 6.474548
-1.574089 2.804195 6.952721
-1.518378 2.714340 6.940498
-1.574686 2.668608 7.314171
-1.614379 2.618527 7.624793
-1.734859 2.607865 8.193614
-1.824031 2.651106 8.479321
-1.911657 2.633009 8.920395
-1.918864 2.574901 9.106492
-2.011688 2.564863 9.549567
-2.086280 2.547776 9.929483
-2.185767 2.548478 10.374040
-2.178693 2.427887 10.661386
-2.261270 2.423053 11.044712
-2.399741 2.402587 11.720200
-2.384009 2.226179 12.116393
-2.338111 2.084540 12.285225
-2.453017 2.005039 13.011187
-2.344850 1.765528 13.159580
-2.353860 1.560664 13.742088
-2.462418 1.488336 14.420588
-2.385963 1.274213 14.644101
-3.349690 1.938045 17.211944
-2.557246 1.159686 15.715715
-2.573768 1.024660 16.147137
-2.667426 1.054612 16.488139
-2.816771 1.086119 17.074900
-3.823668 1.869698 19.519592
-2.875061 0.851224 17.957996
-0.784751 3.131128 1.371879
-0.914013 3.089961 2.047378
-0.920293 3.088350 2.079042
-1.058764 3.060840 2.753409
-1.023929 2.975168 2.858673
-1.058513 2.970980 3.019136
-1.110671 2.879984 3.512565
-1.222388 2.878528 3.995059
-1.221742 2.797282 4.233524
-1.302668 2.724492 4.796025
-1.339591 2.652832 5.166827
-1.449839 2.670723 5.585596
-1.492842 2.607154 5.958398
-1.555175 2.621234 6.183394
-1.692065 2.656409 6.664877
-1.630458 2.571293 6.653901
-1.681790 2.518717 7.029718
-1.807131 2.558826 7.447119
-1.904770 2.529332 7.952605
-1.944708 2.481927 8.264300
-1.965779 2.428587 8.512857
-2.188404 2.524208 9.181838
-2.148534 2.447056 9.240254
-2.263796 2.442628 9.746752
-2.361215 2.433777 10.190005
-2.367380 2.324858 10.539785
-2.496165 2.338863 11.049429
-2.533516 2.251794 11.467818
-2.499603 2.125751 11.696896
-2.542972 2.045633 12.120404
-2.569973 1.906379 12.649432
-2.443087 1.674460 12.794923
-2.478072 1.543684 13.332954
-2.418269 1.304865 13.786064
-3.310402 1.736076 16.324283
-2.414706 0.958521 14.799139
-2.486985 0.911703 15.247517
-3.529111 1.544779 17.828386
-2.631626 0.778290 16.262730
-2.642954 0.647769 16.698749
-2.732414 0.622492 17.156706
-3.875260 1.436243 19.632236
-4.023446 1.434280 20.272335
-1.050431 3.048560 1.551778
-1.091942 3.031442 1.775879
-1.184800 2.999244 2.257169
-1.229692 2.986404 2.480903
-1.316018 2.966141 2.896594
-1.359324 2.870105 3.386999
-1.334198 2.787157 3.557636
-1.491764 2.775987 4.231647
-1.454473 2.696861 4.340534
-1.481668 2.618327 4.708318
-1.639117 2.626430 5.318588
-1.587791 2.548580 5.366519
-1.606129 2.477729 5.673260
-1.794867 2.504668 6.348265
-1.803607 2.506180 6.378654
-1.867120 2.451135 6.816243
-1.954786 2.405864 7.319442
-2.044294 2.428725 7.606456
-2.037333 2.364246 7.789949
-2.178529 2.345215 8.423544
-2.296558 2.384062 8.773452
-2.339034 2.340692 9.087623
-2.406527 2.308413 9.466583
-2.430882 2.261579 9.718824
-2.599113 2.275266 10.354378
-2.550064 2.146630 10.578220
-2.680438 2.151680 11.088999
-2.686433 2.050650 11.444874
-2.695482 1.952627 11.803229
-2.681684 1.794680 12.265874
-2.645619 1.627520 12.668684
-2.669548 1.493526 13.205304
-2.613769 1.319266 13.551682
-2.539082 1.088126 14.008284
-2.549770 0.953295 14.494089
-2.565810 0.823758 14.984170
-2.667605 0.792498 15.498532
-3.662745 1.293511 17.879249
-3.715474 1.205165 18.382525
-3.854688 1.219181 18.899630
-2.866669 0.476109 17.342262
-4.075943 1.214536 19.809836
-3.011881 0.359241 18.313244
-1.288879 2.957054 1.477309
-0.988184 2.270545 2.825816
-1.305638 2.548731 3.014082
-1.530295 2.672527 3.411062
-1.720522 2.723161 3.942798
-1.712421 2.724379 3.907975
-1.826150 2.710363 4.385735
-1.912748 2.703816 4.734629
-2.152257 2.773309 5.383397
-2.277266 2.847860 5.583846
-2.402992 2.923648 5.782523
-2.601579 3.006549 6.229192
-2.785568 3.092748 6.609127
-2.889251 3.107070 6.946868
-2.917392 3.111415 7.036881
-3.064411 3.137087 7.496429
-3.132721 3.091007 7.919328
-3.120991 3.029488 8.097318
-3.283223 3.012410 8.768307
-3.342755 2.973420 9.132643
-3.344445 2.865268 9.529359
-3.119909 2.528318 9.902204
-3.032876 2.394685 10.057650
-3.080788 2.358095 10.369678
-3.061509 2.197478 10.877007
-2.930081 1.898695 11.461803
-2.725821 1.574653 11.864213
-2.581565 1.275238 12.403110
-2.503750 1.100190 12.742661
-2.647834 0.838614 14.227991
-1.492972 2.865320 1.257623
-1.583944 2.805750 1.803790
-1.611997 2.789628 1.963432
-1.725223 2.733449 2.573018
-1.782035 2.709905 2.860741
-1.794782 2.611975 3.287294
-1.842898 2.597144 3.511012
-1.907442 2.495323 4.131217
-1.872240 2.420312 4.303024
-1.917532 2.333428 4.798545
-1.941162 2.330280 4.892252
-1.943226 2.254337 5.196090
-2.053993 2.174700 5.888865
-2.080262 2.173879 5.982575
-2.186028 2.106007 6.612152
-2.323169 2.175747 6.812135
-2.401477 2.116729 7.312514
-2.402695 2.055007 7.557877
-2.426803 1.996784 7.868425
-2.410190 1.935255 8.051598
-2.529367 1.950780 8.401525
-2.698334 1.921489 9.098096
-2.759182 1.878472 9.475804
-2.678581 1.808615 9.471072
-2.842281 1.790372 10.106326
-2.837136 1.737486 10.295238
-2.818103 1.630900 10.646125
-2.894855 1.600528 11.029220
-2.992213 1.529899 11.640599
-2.921556 1.366373 12.036112
-2.948415 1.281024 12.462126
-2.916425 1.133077 12.929982
-2.827109 0.923076 13.442801
-2.650517 0.684766 13.765548
-2.572497 0.481682 14.290254
-2.625604 0.414563 14.735470
-3.680736 0.719031 17.180953
-2.625297 0.161739 15.722263
-2.730322 0.121323 16.242005
-2.829367 0.121261 16.583472
-2.945504 0.090131 17.105219
-3.030788 0.048301 17.562480
-3.024865 -0.070318 18.005549
-1.719483 2.732833 1.338661
-1.743919 2.713268 1.496682
-1.732524 2.603242 1.918504
-1.793469 2.564582 2.270464
-1.924291 2.596246 2.549176
-1.900238 2.507069 2.844585
-1.959022 2.386914 3.528681
-1.965246 2.384586 3.557888
-2.008071 2.282778 4.115622
-2.029633 2.276506 4.209344
-2.035494 2.192840 4.575672
-2.111112 2.099241 5.202144
-2.152393 2.092308 5.360471
-2.188021 2.014674 5.795096
-2.173981 1.945812 6.037429
-2.370114 1.931621 6.711724
-2.398336 1.930435 6.805192
-2.471995 1.865299 7.307143
-2.563872 1.865883 7.592936
-2.670373 1.809920 8.159770
-2.672914 1.752260 8.407531
-2.746034 1.701400 8.848423
-2.683388 1.640331 8.905872
-2.762825 1.593711 9.348944
-2.847767 1.551057 9.792799
-2.887552 1.504816 10.109909
-2.832862 1.394637 10.396544
-2.984770 1.370678 10.972725
-2.992384 1.275479 11.392515
-3.005083 1.183455 11.815053
-2.935959 1.075522 12.047070
-2.977002 0.947847 12.706784
-2.906492 0.796957 13.113099
-2.872191 0.656748 13.588583
-2.809435 0.468210 14.175790
-2.655284 0.256548 14.572450
-2.571812 0.107522 14.930348
-2.561581 -0.019044 15.424604
-3.786367 0.309263 17.901480
-2.764385 -0.116288 16.465218
-4.016872 0.249825 18.871771
-2.842241 -0.245664 17.247491
-4.188125 0.175129 19.719639
-4.212464 0.012388 20.472784
-1.973424 2.549433 1.584481
-2.007355 2.520226 1.807562
-1.928305 2.462018 1.843588
-2.040475 2.379594 2.518864
-2.057225 2.368742 2.613291
-2.026750 2.281929 2.910541
-2.107450 2.238180 3.327916
-2.193143 2.197740 3.744629
-2.172876 2.116609 4.045303
-2.230881 2.011285 4.670501
-2.203150 1.939371 4.909808
-2.324760 1.906851 5.391716
-2.366320 1.897110 5.550362
-2.398018 1.818294 5.985597
-2.416781 1.745599 6.357855
-2.462807 1.738678 6.516533
-2.548057 1.727391 6.803685
-2.596012 1.658194 7.241865
-2.691969 1.589904 7.809761
-2.775192 1.527926 8.314403
-2.797089 1.470615 8.627678
-2.923221 1.470999 8.977336
-2.903535 1.416188 9.163770
-2.957848 1.364390 9.543070
-2.914440 1.257972 9.890593
-3.055199 1.216588 10.464859
-3.097443 1.170906 10.783619
-3.225449 1.135817 11.294644
-3.069169 0.976852 11.559060
-3.134825 0.892926 12.111378
-3.045091 0.745141 12.511949
-2.991073 0.604301 12.981431
-2.785348 0.440461 13.129570
-2.797419 0.270793 13.910049
-3.716362 0.345142 16.142569
-3.713754 0.231590 16.635144
-2.678111 -0.122299 15.308043
-2.624610 -0.213420 15.560119
-2.687037 -0.317400 16.191715
-2.784801 -0.333310 16.534079
-4.044377 -0.108953 19.055145
-2.863972 -0.502133 17.497756
-4.192990 -0.234767 20.022935
-2.078695 2.341964 1.507208
-2.147236 2.273334 1.989373
-2.181443 2.242766 2.213001
-2.108664 2.182643 2.315149
-2.265422 2.175888 2.724303
-2.339740 2.124549 3.140555
-2.332339 2.028125 3.567959
-2.303761 1.948167 3.868271
-2.292102 1.862700 4.234815
-2.415841 1.808885 4.781662
-2.383137 1.739880 5.021448
-2.422047 1.725708 5.180702
-2.527705 1.690578 5.597674
-2.606840 1.595742 6.226390
-2.669880 1.580407 6.449201
-2.649892 1.517091 6.693375
-2.631816 1.454543 6.938614
-2.635608 1.389214 7.249427
-2.788408 1.364927 7.729989
-2.778379 1.305979 7.978007
-2.926779 1.232140 8.676775
-2.994559 1.171654 9.119502
-2.899817 1.123322 9.114249
-3.129220 1.111799 9.720569
-3.028399 1.011480 9.940714
-3.006868 0.910384 10.355627
-3.044268 0.860621 10.675588
-3.087208 0.764605 11.222489
-3.161192 0.719812 11.607707
-3.073324 0.624159 11.837538
-3.118480 0.491537 12.558814
-2.990601 0.351339 12.897869
-2.820632 0.165667 13.345421
-2.722809 -0.012068 13.930274
-3.683776 -0.008873 16.232501
-3.672420 -0.121498 16.725183
-2.570289 -0.394379 15.327909
-2.545575 -0.476150 15.645908
-2.562233 -0.589897 16.211312
-2.735211 -0.602438 16.686289
-4.046072 -0.438839 19.091456
-2.794535 -0.740801 17.468232
-4.228966 -0.566333 20.121155
-2.213122 2.225416 1.233012
-2.280903 2.140034 1.781274
-2.348529 2.068201 2.264416
-2.291647 1.994948 2.497388
-2.337870 1.954267 2.787358
-2.386723 1.914777 3.077061
-2.498693 1.835197 3.688773
-2.478830 1.750029 4.055134
-2.449484 1.673919 4.358601
-2.423165 1.598804 4.663551
-2.399892 1.524700 4.969954
-2.468789 1.493653 5.260641
-2.605644 1.438539 5.806694
-2.646997 1.423401 5.964442
-2.618243 1.360372 6.206563
-2.702204 1.264715 6.837366
-2.787280 1.241544 7.123772
-2.767690 1.181807 7.369061
-2.878132 1.156204 7.719449
-2.927285 1.085512 8.159006
-2.807675 0.989916 8.369385
-2.974871 0.961849 8.848690
-3.063926 0.894323 9.355455
-3.196270 0.878585 9.703858
-3.087707 0.785992 9.922674
-3.142197 0.729823 10.303787
-3.117623 0.632356 10.719250
-3.181901 0.579881 11.102889
-3.085310 0.442901 11.558715
-3.136624 0.349464 12.111523
-3.045611 0.261505 12.344388
-3.029637 0.129678 12.941942
-2.814862 -0.042975 13.324479
-2.604267 -0.214795 13.711659
-2.648345 -0.338206 14.392898
-2.529509 -0.463809 14.748391
-2.486350 -0.585252 15.240175
-3.698151 -0.566297 17.650442
-2.499515 -0.778151 16.189972
-3.856404 -0.686860 18.553692
-3.988646 -0.737970 19.071066
-2.759933 -0.942456 17.513289
-4.115202 -0.885385 20.037335
-2.396105 2.024842 1.279730
-2.392570 2.030661 1.245134
-2.328886 1.949834 1.538791
-2.420363 1.830134 2.281522
-2.460815 1.785211 2.570409
-2.514002 1.731527 2.923664
-2.560455 1.688734 3.211971
-2.516155 1.613217 3.511525
-2.486939 1.529320 3.877452
-2.517232 1.507155 4.037112
-2.494417 1.424996 4.405067
-2.490206 1.335588 4.839648
-2.584554 1.282356 5.258870
-2.653007 1.246819 5.547793
-2.648641 1.170003 5.919929
-2.648877 1.094437 6.293519
-2.817778 1.027263 6.905125
-2.940036 0.984032 7.321199
-2.839111 0.952360 7.310392
-2.876707 0.875677 7.751400
-2.857756 0.818955 8.000131
-3.082609 0.758093 8.673269
-3.026116 0.714443 8.795240
-3.108795 0.639297 9.303355
-3.078753 0.591131 9.491449
-3.173123 0.519552 10.001322
-3.302142 0.446581 10.575476
-3.193201 0.364470 10.800490
-3.199746 0.314721 11.057026
-3.120152 0.182458 11.578348
-3.019425 0.055410 12.038898
-3.010663 -0.034056 12.466225
-2.945863 -0.116545 12.766243
-2.778671 -0.276255 13.277974
-2.619610 -0.434585 13.796362
-2.517956 -0.553111 14.213293
-2.562216 -0.677150 14.899217
-2.438642 -0.791329 15.258355
-3.690164 -0.872265 17.731747
-2.474164 -0.985112 16.274245
-2.565440 -1.023702 16.616066
-3.924392 -1.068195 19.087478
-3.940071 -1.166039 19.596677
-3.888992 -1.298177 20.164626
-2.458629 1.794881 1.285741
-2.455552 1.801037 1.250777
-2.508516 1.705615 1.799323
-2.563500 1.623606 2.282533
-2.591636 1.586249 2.506485
-2.571291 1.471155 3.063427
-2.566149 1.476796 3.028499
-2.524133 1.394368 3.393255
-2.627755 1.298553 4.006757
-2.561206 1.248009 4.179729
-2.585719 1.129698 4.808705
-2.605369 1.115778 4.903545
-2.660117 0.991694 5.599306
-2.603095 0.942456 5.777513
-2.673358 0.902462 6.067167
-2.779614 0.846143 6.484141
-2.891593 0.791483 6.899837
-2.842080 0.743758 7.079723
-2.962301 0.691234 7.494860
-2.975606 0.620412 7.869666
-2.932068 0.573613 8.052296
-3.059871 0.466837 8.751304
-2.999673 0.428201 8.871927
-3.123217 0.332769 9.508259
-3.113877 0.280781 9.759641
-3.131284 0.222490 10.076159
-3.152070 0.164859 10.393532
-3.086528 0.079218 10.745303
-3.222855 -0.001353 11.322344
-3.140287 -0.079410 11.614581
-3.000910 -0.191885 12.010324
-2.926374 -0.314958 12.540276
-2.861058 -0.436785 13.075380
-2.589793 -0.566316 13.393473
-2.605616 -0.696324 14.070817
-3.512123 -0.916649 16.312139
-2.325770 -0.905035 14.778794
-2.299236 -1.022044 15.337735
-3.465726 -1.235466 17.867288
-3.533189 -1.308285 18.319513
-2.282561 -1.326843 16.858907
-2.294095 -1.401518 17.251003
-3.619165 -1.578582 19.793744
-2.292248 -1.581074 18.157039
-2.597973 1.587610 1.268006
-2.655233 1.465054 1.945354
-2.664398 1.448265 2.039225
-2.716206 1.362782 2.521393
-2.742856 1.323666 2.744434
-2.699313 1.233731 3.171473
-2.633110 1.177626 3.405936
-2.599304 1.088491 3.836830
-2.549470 1.021743 4.139440
-2.600025 0.973476 4.429121
-2.690964 0.893849 4.913178
-2.693131 0.796938 5.413515
-2.616761 0.763030 5.525459
-2.756188 0.665876 6.139365
-2.794389 0.641103 6.298073
-2.820178 0.547330 6.801594
-2.949787 0.474382 7.282937
-3.012441 0.441150 7.505170
-3.039473 0.359938 7.945089
-3.052864 0.288845 8.321789
-3.071116 0.218316 8.699560
-2.986723 0.193857 8.756336
-3.077203 0.096843 9.329465
-3.108512 0.027821 9.710170
-3.213304 -0.011034 9.995814
-3.136448 -0.091247 10.345583
-3.155586 -0.150203 10.664543
-3.219027 -0.271436 11.340143
-3.185967 -0.358665 11.761847
-2.926698 -0.426803 11.900225
-2.930567 -0.521932 12.392782
-2.822766 -0.630225 12.861687
-2.570744 -0.744598 13.243853
-2.572680 -0.875720 13.920003
-3.399082 -1.201083 16.270088
-2.254633 -1.097787 14.802174
-2.254962 -1.219430 15.428243
-2.206487 -1.289102 15.747006
-2.198498 -1.365644 16.134242
-3.492383 -1.642391 18.616762
-3.571939 -1.753406 19.252981
-3.608920 -1.823856 19.645679
-3.663359 -1.927412 20.222973
-2.610529 1.377142 1.292526
-2.648686 1.274317 1.842846
-2.656317 1.256661 1.937810
-2.687558 1.190925 2.292603
-2.709574 1.149480 2.517292
-2.762880 1.060722 3.001162
-2.743208 0.938815 3.625466
-2.676806 0.887611 3.862483
-2.643347 0.801275 4.296157
-2.549829 0.784969 4.340256
-2.610147 0.721367 4.696579
-2.576768 0.646907 5.068638
-2.645887 0.584084 5.424730
-2.607957 0.521428 5.733541
-2.759504 0.402935 6.414358
-2.813097 0.364159 6.638884
-2.837931 0.268819 7.144576
-2.879835 0.241627 7.303903
-2.861860 0.179892 7.616586
-2.903654 0.085520 8.124601
-3.049519 0.004958 8.606052
-2.963591 -0.013249 8.663313
-3.088275 -0.138228 9.366156
-3.003853 -0.156736 9.425627
-3.031463 -0.228118 9.808153
-2.970405 -0.313239 10.223557
-3.107684 -0.425631 10.866520
-2.933407 -0.459017 10.964268
-2.981233 -0.529715 11.352006
-3.079443 -0.665495 12.099442
-2.902593 -0.745069 12.435844
-2.697355 -0.860280 12.944932
-2.499027 -0.930571 13.223831
-2.365111 -1.021428 13.637423
-2.268804 -1.122671 14.121233
-2.191930 -1.269768 14.851503
-3.191310 -1.647483 17.245576
-2.096409 -1.447343 15.731902
-3.291944 -1.813287 18.149921
-3.435715 -1.878676 18.551695
-2.148205 -1.694155 17.035595
-3.493639 -2.059742 19.516752
-3.538649 -2.167180 20.093990
-2.716984 1.150644 1.319469
-2.735150 1.082503 1.674454
-2.740728 1.064317 1.769197
-2.774076 0.971300 2.253789
-2.792258 0.928216 2.478248
-2.737838 0.833481 2.971666
-2.776031 0.765415 3.326291
-2.753259 0.645173 3.952627
-2.640703 0.661981 3.864913
-2.600199 0.578507 4.299690
-2.576744 0.482124 4.801733
-2.614499 0.438779 5.027582
-2.689659 0.357968 5.448646
-2.712639 0.236201 6.082988
-2.705321 0.242984 6.047648
-2.741288 0.120947 6.683414
-2.763079 0.102773 6.778113
-2.911954 -0.014853 7.391064
-2.924310 -0.099665 7.832886
-2.888853 -0.147477 8.081896
-2.855511 -0.195474 8.331876
-2.997554 -0.287944 8.813770
-2.990713 -0.348589 9.129674
-3.050902 -0.446502 9.639809
-3.075232 -0.519848 10.021921
-3.081536 -0.581015 10.340560
-3.021121 -0.661145 10.757886
-2.868404 -0.692213 10.919515
-2.934700 -0.778999 11.371692
-2.902261 -0.917181 12.091464
-2.702423 -0.924691 12.130305
-2.511067 -1.034584 12.702495
-2.451203 -1.150933 13.308498
-2.373024 -1.255865 13.854998
-2.087009 -1.318985 14.183404
-3.035164 -1.790204 16.639412
-1.936836 -1.520817 15.234580
-1.911556 -1.595126 15.621633
-1.891018 -1.669803 16.010613
-3.242116 -2.149528 18.511497
-3.301503 -2.236950 18.966982
-2.012153 -1.947153 17.455558
-3.231340 -2.421528 19.928389
-2.805647 0.903929 1.413000
-2.828660 0.795704 1.964976
-2.845024 0.738183 2.256579
-2.859745 0.693340 2.483065
-2.797937 0.603012 2.978524
-2.830656 0.531610 3.335170
-2.768621 0.465800 3.703440
-2.727456 0.372818 4.203820
-2.649664 0.345302 4.380048
-2.591309 0.290794 4.688066
-2.675856 0.177020 5.242447
-2.747516 0.089704 5.665003
-2.714893 0.019968 6.041037
-2.746059 -0.013792 6.202929
-2.747674 -0.111712 6.710587
-2.796792 -0.159412 6.937145
-2.826636 -0.272380 7.510814
-2.881376 -0.319969 7.734389
-2.891784 -0.406113 8.177138
-2.855334 -0.451223 8.426969
-2.990750 -0.555104 8.908163
-2.979870 -0.615010 9.223835
-2.972379 -0.675380 9.540457
-2.947564 -0.722080 9.793548
-2.960385 -0.852763 10.466488
-2.920881 -0.886324 10.657673
-2.834911 -0.947621 11.012786
-2.875633 -1.082190 11.693929
-2.776387 -1.131034 11.990088
-2.587227 -1.180061 12.325776
-2.401452 -1.230023 12.664867
-2.303030 -1.325898 13.204831
-2.213969 -1.423505 13.749776
-2.073462 -1.492313 14.167279
-2.889866 -2.040481 16.662799
-1.783124 -1.665462 15.190764
-1.817730 -1.768343 15.710021
-1.791556 -1.840866 16.097755
-2.854512 -2.405003 18.570384
-2.906194 -2.497167 19.026682
-1.816062 -2.094761 17.405338
-2.946678 -2.687634 19.998123
-2.864242 0.699450 1.388094
-2.864779 0.693389 1.418845
-2.887604 0.544840 2.164730
-2.806412 0.487064 2.527862
-2.808102 0.480916 2.558128
-2.839474 0.381590 3.043794
-2.851584 0.348551 3.203987
-2.789065 0.274529 3.635573
-2.732790 0.199130 4.069185
-2.659652 0.164073 4.308875
-2.604756 0.100473 4.680657
-2.699678 -0.047264 5.363906
-2.704260 -0.053872 5.394194
-2.673689 -0.134457 5.833647
-2.723582 -0.198826 6.124420
-2.703796 -0.281429 6.565516
-2.677172 -0.350577 6.942920
-2.809398 -0.490874 7.557639
-2.891589 -0.572518 7.911116
-2.818229 -0.584322 8.031336
-2.810272 -0.656908 8.411295
-2.824600 -0.745782 8.856997
-2.772832 -0.774137 9.044879
-2.834741 -0.896024 9.621883
-2.961752 -0.997000 10.038497
-2.958785 -1.058553 10.357635
-2.822506 -1.080692 10.582054
-2.821020 -1.199815 11.196229
-2.690768 -1.223872 11.425629
-2.682077 -1.330476 11.981233
-2.582451 -1.372877 12.280191
-2.379374 -1.452357 12.853829
-2.250513 -1.524497 13.329521
-2.009286 -1.574909 13.784516
-1.773969 -1.627352 14.245169
-1.785542 -1.729040 14.759045
-1.684388 -1.808960 15.252306
-2.683290 -2.423862 17.606513
-2.628327 -2.513121 18.110375
-1.690065 -2.074778 16.615532
-2.835346 -2.724924 19.032408
-1.690059 -2.240198 17.466741
-2.737152 -2.896152 19.993113
-2.815222 0.473523 1.436006
-2.817204 0.415416 1.727619
-2.822004 0.356653 2.019068
-2.838834 0.243513 2.570845
-2.855078 0.169229 2.926704
-2.853315 0.176487 2.892152
-2.687687 0.116624 3.399678
-2.724219 0.011345 3.887336
-2.659169 -0.045940 4.257584
-2.591642 -0.090029 4.564106
-2.519695 -0.120368 4.806513
-2.562228 -0.201555 5.164834
-2.600145 -0.268560 5.457091
-2.679790 -0.397157 6.009501
-2.619345 -0.430974 6.255298
-2.583248 -0.496755 6.632778
-2.539716 -0.548081 6.946291
-2.594841 -0.619156 7.237886
-2.679668 -0.723025 7.658758
-2.690126 -0.826364 8.168805
-2.756708 -0.899473 8.456542
-2.813339 -1.039338 9.094403
-2.794931 -1.097258 9.410256
-2.668076 -1.122163 9.692978
-2.693407 -1.216875 10.140994
-2.666276 -1.260592 10.395739
-2.681610 -1.340394 10.780649
-2.680742 -1.403614 11.101659
-2.542755 -1.473142 11.623953
-2.482802 -1.484093 11.753425
-2.240344 -1.523961 12.254656
-2.170534 -1.638689 12.921482
-2.062375 -1.719211 13.462571
-1.909045 -1.763611 13.876650
-1.698876 -1.816299 14.402879
-1.556851 -1.865205 14.825800
-2.502328 -2.573477 17.242307
-1.407642 -2.002568 15.705242
-1.313584 -2.078509 16.205735
-1.347380 -2.190421 16.730338
-1.355590 -2.283179 17.189616
-2.615101 -3.035948 19.443421
-2.498450 -3.119612 20.010896
-2.842929 0.262235 1.428612
-2.840994 0.138217 2.046063
-2.842523 0.105286 2.206728
-2.850526 0.017677 2.627808
-2.777476 -0.084855 3.253448
-2.700814 -0.134045 3.620672
-2.710497 -0.169574 3.781063
-2.540183 -0.178193 4.098257
-2.562792 -0.244531 4.390431
-2.493320 -0.283885 4.697342
-2.454605 -0.386576 5.268431
-2.488226 -0.456518 5.560711
-2.541866 -0.559261 5.983206
-2.601331 -0.663659 6.404513
-2.511572 -0.644642 6.454975
-2.599066 -0.784444 7.006487
-2.532537 -0.799693 7.189249
-2.514930 -0.883715 7.633842
-2.610200 -1.012627 8.118872
-2.591796 -1.083466 8.499444
-2.656028 -1.162670 8.788267
-2.615084 -1.200233 9.040326
-2.656793 -1.330185 9.616837
-2.582296 -1.402732 10.096271
-2.643577 -1.467765 10.319654
-2.615012 -1.510119 10.575497
-2.594483 -1.627324 11.189172
-2.411955 -1.647471 11.583157
-2.324351 -1.691986 11.944858
-2.172835 -1.736937 12.411731
-1.958425 -1.722609 12.686319
-1.913571 -1.857202 13.425333
-1.732007 -1.868552 13.774185
-1.464972 -1.861090 14.167603
-1.486342 -1.985287 14.748387
-2.285593 -2.742237 17.209857
-2.177043 -2.794804 17.645210
-1.137855 -2.158957 16.170338
-2.249433 -3.014156 18.615121
-1.216273 -2.359634 17.038030
-1.221391 -2.454008 17.497274
-1.198907 -2.526251 17.891372
-2.767913 0.098329 1.261626
-2.841765 -0.120628 2.164722
-2.841180 -0.153658 2.324577
-2.400258 -0.229311 3.576193
-2.121621 -0.112097 3.574379
-1.951847 -0.121698 3.962490
-1.891120 -0.216857 4.541959
-1.771088 -0.345544 5.401955
-1.934177 -0.555647 6.082766
-2.037079 -0.614880 6.160033
-2.181271 -0.760008 6.566772
-2.403823 -0.905330 6.816594
-2.496035 -1.072362 7.433257
-2.543685 -1.152587 7.722672
-2.594027 -1.233789 8.011358
-2.556291 -1.283421 8.325803
-2.664667 -1.442546 8.871927
-2.635367 -1.495917 9.187340
-2.548853 -1.558655 9.663002
-2.391020 -1.524753 9.818076
-1.514720 -1.551885 11.713609
-1.709022 -1.701195 12.039498
-2.015351 -1.902507 12.389531
-1.823636 -1.892825 12.729204
-1.656838 -1.908044 13.138309
-1.500104 -1.991933 13.857030
-2.855249 -0.178114 1.262603
-2.839127 -0.246977 1.619556
-2.741843 -0.246603 1.851902
-2.729378 -0.345835 2.340369
-2.725382 -0.406948 2.632342
-2.634857 -0.425014 2.933621
-2.638308 -0.532546 3.422143
-2.559939 -0.599974 3.922237
-2.486096 -0.656041 4.358954
-2.414269 -0.699366 4.731945
-2.330593 -0.679958 4.843606
-2.348470 -0.752794 5.137113
-2.290207 -0.818116 5.579104
-2.314580 -0.894269 5.872308
-2.347986 -0.989175 6.230421
-2.422920 -1.176080 6.913669
-2.379538 -1.235451 7.292357
-2.295331 -1.203216 7.346031
-2.247315 -1.246540 7.661729
-2.300100 -1.351249 8.018508
-2.279922 -1.437571 8.465888
-2.364998 -1.586868 8.950976
-2.207793 -1.537936 9.103144
-2.302226 -1.692148 9.588429
-2.275326 -1.747423 9.908541
-2.310126 -1.891060 10.488443
-2.323225 -1.995461 10.939289
-2.120788 -1.960922 11.266785
-2.041130 -2.011578 11.692491
-1.930652 -2.018558 11.990559
-1.812124 -2.086564 12.589951
-1.623964 -2.062672 12.932290
-1.353912 -2.005387 13.317383
-1.151013 -2.027458 13.907545
-1.080215 -2.072878 14.287744
-0.999301 -2.166140 14.913318
-0.879992 -2.211433 15.409651
-1.671306 -3.149495 17.839777
-0.690822 -2.291318 16.233899
-0.506207 -2.314855 16.786838
-0.520571 -2.437209 17.317584
-0.594873 -2.565895 17.733370
-1.552912 -3.592630 20.172035
-2.727490 -0.406710 1.618473
-2.709830 -0.476551 1.976114
-2.708500 -0.482595 2.006523
-2.603465 -0.544325 2.568247
-2.598028 -0.592236 2.795247
-2.593235 -0.655294 3.087524
-2.505236 -0.713569 3.587166
-2.423217 -0.761235 4.023422
-2.343205 -0.780889 4.330178
-2.353392 -0.868307 4.689139
-2.273750 -0.858953 4.866477
-2.299679 -1.000649 5.422448
-2.244772 -1.081294 5.930217
-2.271559 -1.178791 6.288190
-2.296250 -1.260038 6.579997
-2.317147 -1.324068 6.806018
-2.268248 -1.379270 7.184664
-2.246973 -1.496065 7.760063
-2.275652 -1.564778 7.985437
-2.258164 -1.669365 8.496402
-2.178161 -1.632650 8.553632
-2.158392 -1.721659 9.001908
-2.178731 -1.879717 9.645655
-2.124033 -1.888796 9.836075
-2.107769 -1.965706 10.221170
-2.122913 -2.091519 10.736457
-2.033553 -2.131168 11.157396
-2.001517 -2.169716 11.416011
-1.853192 -2.196640 11.942572
-1.695231 -2.204039 12.409179
-1.456029 -2.087841 12.551849
-1.377450 -2.205980 13.290594
-1.197073 -2.172639 13.638441
-0.938040 -2.100472 14.030469
-0.804348 -2.128039 14.519689
-1.408083 -3.076829 17.061083
-1.315133 -3.132591 17.563201
-1.306370 -3.229897 18.017973
-0.672482 -2.471173 16.400682
-0.673043 -2.590132 16.925687
-0.471193 -2.575560 17.415593
-1.358683 -3.690913 19.914880
-1.001783 -3.636808 20.655659
-2.673374 -0.661138 1.790551
-2.567100 -0.685622 2.222480
-2.555510 -0.731742 2.451490
-2.540204 -0.806368 2.811364
-2.532330 -0.855146 3.039981
-2.525900 -0.904951 3.268422
-2.435155 -0.973231 3.835573
-2.352381 -0.985337 4.142839
-2.271629 -0.983605 4.385898
-2.196240 -1.048529 4.891400
-2.204690 -1.140495 5.250227
-2.128584 -1.126868 5.429090
-2.148182 -1.258447 5.919201
-2.170564 -1.376095 6.342359
-2.202653 -1.516199 6.829439
-2.133895 -1.508923 7.012112
-2.175001 -1.655492 7.498311
-2.135457 -1.732441 7.943040
-2.058048 -1.688347 7.998391
-2.097160 -1.802210 8.353841
-2.076183 -1.908918 8.865601
-2.071726 -2.043492 9.442816
-2.015477 -2.047089 9.632238
-1.970295 -2.074551 9.887263
-1.970543 -2.197759 10.402310
-1.898776 -2.275832 10.951629
-1.783294 -2.260334 11.244719
-1.656714 -2.221561 11.474765
-1.558361 -2.235328 11.837277
-1.428121 -2.281915 12.436034
-1.244630 -2.227549 12.777214
-1.066436 -2.266422 13.492324
-1.384692 -3.066133 15.853812
-0.789848 -2.293569 14.463346
-1.243328 -3.186708 16.796806
-0.515450 -2.310429 15.384509
-1.073647 -3.316439 17.865906
-0.281898 -2.377361 16.388689
-0.879128 -3.400136 18.819280
-0.124035 -2.476432 17.292797
-0.953060 -3.662240 19.687414
-0.945774 -3.811050 20.332994
-2.655278 -0.786978 1.266743
-2.623131 -0.850234 1.624866
-2.594282 -0.916327 1.982759
-2.480185 -0.959716 2.544694
-2.470523 -0.992555 2.706461
-2.369360 -1.031300 3.205770
-2.354858 -1.110168 3.564385
-2.264296 -1.158929 4.066481
-2.181499 -1.181485 4.439293
-2.181086 -1.188988 4.470092
-2.101720 -1.231798 4.910412
-2.105551 -1.393935 5.532044
-2.033329 -1.393297 5.777712
-2.036967 -1.437863 5.939696
-2.049766 -1.557293 6.363306
-2.001012 -1.678005 7.003440
-1.930165 -1.646106 7.121991
-1.974099 -1.859200 7.805326
-1.981257 -1.889888 7.900879
-1.945731 -1.989310 8.412208
-1.903661 -2.050059 8.794610
-1.844411 -2.046204 8.983112
-1.807677 -2.112157 9.367552
-1.807763 -2.276918 10.012323
-1.754011 -2.278686 10.203946
-1.635260 -2.248488 10.493767
-1.653539 -2.430154 11.142211
-1.508817 -2.328303 11.240739
-1.430065 -2.384644 11.731924
-1.307370 -2.446031 12.393870
-1.154861 -2.432549 12.865135
-0.979496 -2.366521 13.209211
-0.792209 -2.273925 13.490235
-0.591873 -2.249144 14.081602
-0.440286 -2.223985 14.503979
-0.342068 -2.298130 15.131765
-0.182416 -2.250805 15.495073
-0.151942 -2.357899 16.019074
-0.199974 -2.522466 16.498335
-0.811660 -3.679945 18.928200
-0.638537 -3.655990 19.429294
-0.564607 -3.722847 19.945090
-0.453676 -3.788803 20.584496
-2.565052 -1.022223 1.492385
-2.555333 -1.038822 1.589064
-2.416618 -1.105285 2.347504
-2.403706 -1.136644 2.509873
-2.360166 -1.262429 3.130459
-2.346528 -1.310870 3.357806
-2.253346 -1.335174 3.793124
-2.169440 -1.333518 4.099282
-2.094507 -1.287330 4.209699
-2.077305 -1.422510 4.766542
-2.000016 -1.428593 5.076293
-1.994337 -1.575319 5.632357
-1.922836 -1.551361 5.811045
-1.926032 -1.688442 6.298923
-1.929496 -1.753751 6.524134
-1.868131 -1.812516 6.966704
-1.811251 -1.876218 7.410587
-1.820727 -1.947545 7.635369
-1.774453 -2.040240 8.145492
-1.792116 -2.137548 8.434531
-1.723001 -2.082310 8.490311
-1.702595 -2.255397 9.197272
-1.668910 -2.343798 9.644895
-1.600925 -2.290673 9.704169
-1.558818 -2.335402 10.023913
-1.455743 -2.344853 10.441890
-1.467687 -2.552327 11.153853
-1.357149 -2.519973 11.447184
-1.276713 -2.572508 11.937999
-1.100960 -2.485114 12.273319
-0.948529 -2.458534 12.743579
-0.788982 -2.407866 13.152495
-0.563138 -2.301611 13.605431
-0.353505 -2.231830 14.131025
-0.314040 -2.351078 14.712616
-0.651133 -3.354825 17.117798
-0.548111 -3.387296 17.619501
-0.497765 -3.442709 18.008850
-0.011193 -2.533385 16.504093
0.050070 -2.578301 16.895792
0.225554 -2.552022 17.452925
0.346794 -2.550613 17.898895
-2.409193 -1.151532 1.484431
-2.362129 -1.222204 1.908216
-2.352073 -1.238757 2.003595
-2.316118 -1.302964 2.361337
-2.271533 -1.396042 2.849734
-2.157452 -1.447856 3.479386
-2.155311 -1.454204 3.509087
-2.070130 -1.442970 3.813136
-1.982897 -1.449503 4.184516
-1.883278 -1.540559 4.886776
-1.871850 -1.614755 5.179443
-1.858698 -1.726116 5.602679
-1.794210 -1.643042 5.584753
-1.784720 -1.758917 6.008333
-1.777938 -1.956199 6.691909
-1.712389 -1.931901 6.873799
-1.650346 -2.010365 7.383544
-1.653790 -2.082241 7.608887
-1.591480 -2.062649 7.793451
-1.611587 -2.291442 8.474092
-1.552477 -2.276290 8.660606
-1.506532 -2.355410 9.108011
-1.464827 -2.439891 9.556256
-1.401399 -2.381372 9.615787
-1.294544 -2.377837 10.032319
-1.271985 -2.525694 10.614689
-1.244387 -2.628468 11.067257
-1.142983 -2.614085 11.425852
-1.023088 -2.519337 11.591168
-0.874999 -2.500278 12.121327
-0.740301 -2.518704 12.722529
-0.594223 -2.485437 13.197356
-0.387877 -2.393061 13.717080
-0.185847 -2.307861 14.243378
-0.478144 -3.367986 16.599028
0.048250 -2.248220 14.983251
-0.247221 -3.370734 17.533758
0.235704 -2.308886 15.936452
-0.234054 -3.612826 18.392019
-0.202425 -3.711816 18.848154
0.454288 -2.474606 17.363964
0.031660 -3.754490 19.928401
0.293162 -3.645470 20.613823
-2.391451 -1.396332 1.271349
-2.320995 -1.481138 1.825318
-2.286288 -1.529258 2.117154
-2.166632 -1.546314 2.678823
-2.104985 -1.471260 2.717844
-2.075160 -1.526767 3.010899
-2.023287 -1.638489 3.565921
-1.945037 -1.606675 3.804926
-1.838042 -1.666346 4.439807
-1.754730 -1.672500 4.813793
-1.748658 -1.696005 4.909898
-1.668485 -1.707229 5.285628
-1.638106 -1.872035 5.907415
-1.636827 -1.880331 5.937646
-1.557392 -1.959050 6.511767
-1.547705 -2.064736 6.868692
-1.480288 -2.117195 7.313102
-1.477475 -2.188683 7.538577
-1.416042 -2.206381 7.853646
-1.356367 -2.226962 8.169819
-1.299703 -2.295946 8.617673
-1.248132 -2.394354 9.131653
-1.192463 -2.378047 9.320573
-1.139239 -2.387355 9.575554
-1.091795 -2.448953 9.961997
-1.056308 -2.593333 10.544596
-0.949574 -2.538275 10.835778
-0.919361 -2.669213 11.355724
-0.757429 -2.548681 11.687009
-0.671060 -2.591078 12.182263
-0.536039 -2.599627 12.784121
-0.374650 -2.461871 13.061654
-0.175443 -2.351035 13.580999
-0.023844 -2.251968 13.932269
0.110760 -2.223287 14.421175
0.216120 -2.305382 15.116038
0.360041 -2.221296 15.479270
