-0.041222 -4.666567 10.053669
0.003074 -3.988173 10.337555
0.036992 -3.479440 10.751368
0.052853 -3.257068 11.229377
0.073150 -2.958407 11.582988
0.085485 -2.797322 12.171935
0.090242 -2.751281 12.693935
0.097555 -2.670315 13.309462
0.089055 -2.830241 13.800349
0.069037 -3.174249 14.358062
0.038976 -3.696861 15.306035
0.263166 7.782008 1.582657
0.264892 7.713722 2.171229
0.264886 7.529727 2.417364
0.265611 7.452899 2.729409
0.266910 7.392087 3.185183
0.266688 7.208785 3.368231
0.266907 6.950197 3.779582
0.267761 6.714831 4.342393
0.267784 6.458530 4.694521
0.277648 6.615442 7.320944
0.267656 5.696281 5.684626
0.276995 5.641759 8.444798
-0.219709 7.921163 2.257703
-0.191653 7.455811 2.737441
-0.157652 6.860423 2.806806
-0.672575 7.572783 1.908244
-0.591515 6.906699 2.399314
-0.511280 6.248085 2.909098
-2.297090 6.709557 11.272482
-1.380003 3.738128 14.397955
-1.776763 4.622340 14.395890
-2.109041 5.363992 14.528730
-2.403003 6.020449 14.684563
-2.634617 6.539134 14.979375
-2.877810 7.081959 15.078124
-2.748703 6.779226 13.311169
-2.950780 7.230880 13.464164
-1.460281 3.316920 15.364528
-1.831289 4.012018 15.429048
-2.216949 4.735007 15.555920
-2.137572 4.569472 13.262489
-2.473210 5.199244 13.448549
-3.224758 6.624386 15.895543
-3.070561 6.321153 13.925192
-3.319194 6.788295 14.147097
-3.496274 7.120665 14.259782
-2.590677 4.801523 16.058898
-3.015456 5.501926 16.157266
-3.410399 6.153841 16.354680
-3.768286 6.743655 16.393705
-3.579809 5.635656 16.072549
-4.116039 6.407742 16.175246
-3.900657 6.085503 14.143298
-4.290561 6.648382 14.460888
-4.051665 5.560663 14.844820
-4.496933 6.124188 14.977270
-4.381932 5.967724 12.993646
-4.704980 6.377293 13.219041
1.598210 0.486979 11.779219
-0.928705 0.136129 11.956075
-1.865831 0.005838 11.971594
-2.826811 -0.127533 12.055081
-3.718010 -0.250870 12.231897
-4.488139 -0.357592 12.344916
-5.217553 -0.458048 12.629439
-5.800181 -0.538550 12.782373
-6.317869 -0.609671 13.034331
-6.054469 -0.579879 11.083883
-6.464416 -0.635858 11.380725
-7.786202 -0.811332 13.766859
-7.461253 -0.771884 12.128656
-7.774017 -0.815426 12.117271
2.073046 0.692998 13.199081
1.325622 0.541727 13.290904
0.493138 0.374109 13.637810
-0.316634 0.209681 13.585164
-1.148712 0.042019 13.896513
-2.013862 -0.133134 13.986922
-2.662557 -0.263487 14.330322
-3.190291 -0.370498 14.338000
-3.809211 -0.495181 14.577314
-4.428660 -0.620017 14.803927
-4.958330 -0.726549 15.057133
-5.489024 -0.833326 15.299806
-6.020575 -0.940314 15.531959
-6.552815 -1.047480 15.753603
-6.963443 -1.130116 15.936505
-6.356123 -1.013572 14.065632
-7.768130 -1.291442 16.467974
-1.149625 -0.025901 14.769324
-1.973618 -0.246738 14.761384
-2.830760 -0.475201 15.102796
-3.503615 -0.655084 15.220725
-4.054460 -0.802454 15.287947
-4.636596 -0.957960 15.424624
-5.316505 -1.138887 15.777606
-5.843870 -1.279383 16.006735
-6.304189 -1.402475 16.079340
-6.831711 -1.543080 16.289841
-7.273360 -1.660548 16.534926
-7.786728 -1.796763 16.911244
-7.214856 -1.651163 14.786305
-2.271089 -0.474913 14.792897
-3.019238 -0.725760 14.885360
-3.647428 -0.936531 14.923429
-4.336080 -1.167066 15.107634
-5.087219 -1.418079 15.428501
-5.656716 -1.608849 15.547116
-6.257640 -1.809939 15.728822
-6.740058 -1.971392 15.869460
-7.236674 -2.136701 16.258364
-6.716248 -1.969829 14.115354
-7.248734 -2.147543 14.405771
-7.610460 -2.267667 14.766572
-2.518930 -0.711808 14.176397
-3.336049 -1.036930 14.237300
-4.151099 -1.361284 14.282974
-4.821040 -1.627350 14.465203
-5.404923 -1.859060 14.671774
-5.244931 -1.803101 12.601771
-6.603001 -2.334420 15.119136
-7.102691 -2.532594 15.329134
-2.753748 -1.012175 11.036147
-3.712790 -1.464431 11.091028
-4.605442 -1.885028 11.233409
-5.261599 -2.193482 11.523295
-5.958419 -2.521876 11.616551
2.439231 3.318763 9.756396
1.865271 2.633290 10.086663
1.400038 2.078662 10.537336
1.086846 1.705271 10.837309
0.834378 1.404686 11.154673
0.531670 1.045367 11.734807
0.309009 0.779416 11.857276
0.201884 0.654171 12.415569
0.064898 0.492039 12.765242
0.010643 0.430242 13.349443
-0.027893 0.388396 14.141906
0.187097 0.648781 14.686914
-0.529488 7.470864 14.965409
-0.514525 6.977916 15.521776
-0.507685 6.737096 15.928702
-0.506547 6.645925 16.500044
-0.505170 6.547777 17.071382
-0.349100 0.769701 15.065685
-0.252475 -0.248074 15.510315
-0.209675 -0.704254 15.855181
-0.181717 -1.001495 16.059893
-0.150564 -1.334785 16.345474
-0.124984 -1.614597 16.749470
-0.110181 -1.791513 17.397507
-0.097780 -1.940477 17.961163
-0.091677 -2.018126 18.358541
-0.090316 -2.051218 18.882910
-0.088282 -2.091344 19.408923
0.351440 -3.948790 15.143661
0.450442 -4.575327 15.359041
0.539494 -5.135747 15.410170
0.619727 -5.649046 15.835383
0.675872 -6.008462 16.143266
0.555297 -5.204418 14.026852
0.755505 -6.522162 16.756893
0.770459 -6.625556 17.185532
0.780536 -6.696713 17.541541
0.814787 -6.926075 18.186196
0.832617 -7.047498 18.613469
0.825056 -7.007385 18.946945
0.823340 -7.009893 19.547932
0.823238 -7.022609 20.152355
0.811263 -6.962012 20.813203
0.794092 -6.867308 21.407413
0.744474 -6.569752 22.044042
0.690517 -6.247971 22.817322
0.491114 -3.427419 13.589259
0.639111 -4.095789 13.986627
0.748115 -4.586359 14.172441
0.856633 -5.078867 14.616025
0.701902 -4.351005 12.375360
0.773097 -4.674918 12.716560
1.024921 -5.844494 15.420706
0.856094 -5.058489 13.488335
1.081202 -6.109361 16.243098
1.136118 -6.363520 16.776919
1.157524 -6.466131 17.206946
1.160660 -6.487747 17.683312
1.156906 -6.477411 18.088654
1.160589 -6.504627 18.762582
1.149292 -6.462569 19.294610
1.129900 -6.386324 19.953926
1.075299 -6.151160 20.524172
1.032117 -5.968356 21.174637
0.955835 -5.642549 22.142814
0.705072 -3.393267 13.598279
0.852059 -3.903256 13.873868
0.990102 -4.384684 14.330692
1.095469 -4.749533 14.469508
1.183637 -5.056484 14.718003
1.264200 -5.339532 15.151892
1.043351 -4.553054 13.117018
1.360258 -5.680400 15.939828
1.419806 -5.891416 16.404682
1.436206 -5.952409 16.763533
1.162947 -4.986225 14.801829
1.467962 -6.073214 17.674908
1.470833 -6.091527 18.349689
1.441599 -5.998933 19.003543
1.403985 -5.876614 19.589473
1.393055 -5.845691 20.130053
1.311783 -5.571823 20.628236
1.221977 -5.272727 21.462001
0.834300 -3.129050 14.128724
1.035408 -3.691813 14.288080
1.226214 -4.224930 14.359980
1.395793 -4.702682 14.806585
1.472524 -4.919726 15.093271
1.581043 -5.225017 15.336615
1.650796 -5.424487 15.807337
1.711114 -5.596838 16.200757
1.784863 -5.807400 16.666007
1.806004 -5.870095 17.025855
1.840903 -5.971936 17.459482
1.834844 -5.959218 17.866072
1.912969 -6.183936 18.519950
1.895194 -6.139814 19.051363
1.864835 -6.061891 19.709802
1.823809 -5.953510 20.300496
1.726889 -5.688240 20.800507
1.664864 -5.524007 21.657272
1.519728 -5.127564 22.483153
1.512742 -4.201649 14.256919
1.735726 -4.722920 14.590175
1.874304 -5.047901 14.914182
2.050290 -5.459432 15.191593
1.770249 -4.790452 13.144168
2.247410 -5.923158 15.817936
1.963811 -5.246799 13.871816
2.455255 -6.413983 16.690900
2.466541 -6.442707 16.973854
2.083794 -5.536816 15.134978
2.581702 -6.719180 17.971290
2.597265 -6.757851 18.254896
2.576170 -6.713435 18.780130
2.641486 -6.871353 19.472179
2.560022 -6.685860 19.912692
2.514928 -6.586208 20.500883
2.493888 -6.544892 21.363952
2.339774 -6.192738 22.056544
2.641535 -5.810090 12.269991
3.250949 -7.033397 14.583160
2.956511 -6.436618 12.720749
3.089358 -6.703145 13.206302
3.173502 -6.871108 13.403450
3.297587 -7.119686 13.809010
3.355342 -7.236255 14.110492
1.138533 -2.221349 16.528481
1.678416 -3.035467 16.511452
2.244850 -3.891738 16.829474
2.671421 -4.533552 16.587852
3.125322 -5.218693 16.681309
3.528351 -5.827287 16.802910
3.832004 -6.286494 17.001786
4.156155 -6.776988 17.260037
3.859907 -6.317692 15.271508
4.106791 -6.691581 15.517839
1.483315 -2.427075 17.066781
2.093970 -3.235019 17.111931
2.593462 -3.896313 17.223167
3.091589 -4.555705 17.317547
3.565722 -5.182841 17.321735
3.259360 -4.764580 15.057119
3.639241 -5.268118 15.246095
3.984203 -5.726057 15.536613
4.255300 -6.086065 15.786886
4.506554 -6.419377 15.958792
1.689389 -2.400165 17.264883
2.383570 -3.208536 17.182246
2.957225 -3.876848 17.168568
3.377565 -4.367561 17.348662
3.831211 -4.896376 17.396830
4.299493 -5.443585 17.696358
3.890422 -4.955257 15.503112
4.972065 -6.228425 17.922354
4.594963 -5.778401 15.926640
4.889242 -6.122561 16.167445
1.796900 -2.250655 16.903695
2.565146 -3.041172 16.907940
3.153527 -3.646167 16.822471
3.664450 -4.172586 16.962562
4.148817 -4.671241 17.014497
4.595303 -5.131447 17.172733
4.289008 -4.805882 15.087731
2.118604 -2.300894 16.233124
2.932246 -3.040510 16.245427
3.489040 -3.546434 16.208546
4.054827 -4.061737 16.428442
4.593774 -4.552218 16.557408
5.079219 -4.993334 16.530072
5.510647 -5.386730 16.796224
5.503599 -5.371601 14.939423
1.856380 -1.835684 14.716831
2.688162 -2.500514 14.419202
3.493639 -3.146295 14.574913
4.175965 -3.692841 14.594322
4.833728 -4.220475 14.784762
-3.011120 -0.611356 10.737010
-1.732117 -0.462927 10.934432
-0.789607 -0.353283 11.004187
0.008171 -0.261264 11.288226
0.616260 -0.191496 11.611114
1.226378 -0.121448 11.921324
1.770021 -0.059503 12.332432
2.196040 -0.011050 12.680083
2.541846 0.028937 12.774786
3.065015 0.088881 13.075568
3.403406 0.127079 13.434239
3.559252 0.143769 13.857322
3.966381 0.189466 14.362998
4.193207 0.214860 14.663621
4.422477 0.240550 14.961211
4.562870 0.255750 15.295130
4.558422 0.253515 15.785448
-4.750250 -1.120748 11.729889
-3.405158 -0.879067 11.814025
-2.441684 -0.706331 11.980944
-1.521385 -0.542039 12.339640
-0.867964 -0.424939 12.466594
-0.254825 -0.315779 12.789940
0.387873 -0.201558 13.185939
0.947831 -0.101266 13.311205
1.437922 -0.014936 13.831112
1.843631 0.057137 14.089301
2.220280 0.123300 14.541045
2.538491 0.179554 14.821788
2.703171 0.208646 14.972745
3.089637 0.276636 15.407165
3.424448 0.334940 15.952875
3.662379 0.376677 16.254543
3.884299 0.414843 16.752010
4.003304 0.435335 17.011514
4.096112 0.449706 17.669894
-2.597495 -0.904586 11.592905
-1.648154 -0.672948 11.754288
-0.792942 -0.464372 11.925993
-0.098747 -0.295644 12.226976
0.451777 -0.161496 12.370481
1.081921 -0.008757 12.761273
1.594609 0.115502 13.082074
2.046073 0.224409 13.508189
2.414716 0.313971 13.678665
2.722001 0.388127 13.960226
3.000891 0.454650 14.434026
3.313408 0.530122 14.705589
3.633358 0.606443 15.247997
3.927895 0.676853 15.705190
4.160247 0.732629 16.001150
4.360679 0.780885 16.216529
4.367880 0.780879 16.710597
3.318544 0.765753 9.757058
4.783993 1.220792 10.061295
4.769239 1.223795 7.974967
5.834352 1.545757 10.604837
5.693747 1.509318 8.592059
6.709269 1.816046 11.166298
6.442695 1.740155 9.220165
6.657082 1.805326 9.648841
6.988844 1.906894 10.115490
7.170908 1.962560 10.391603
7.421856 2.038907 10.876382
7.406336 2.033115 11.140401
7.440254 2.042196 11.545991
-0.061729 -0.341779 10.902709
0.990806 0.302153 11.237672
1.632208 0.695057 11.319125
2.233852 1.062843 11.582882
2.651946 1.318238 11.811829
3.138353 1.614575 12.271338
3.398022 1.772657 12.545779
3.635674 1.917577 12.737430
3.922230 2.091861 13.080817
4.181870 2.248897 13.607252
3.517382 1.850604 11.375902
4.508054 2.446050 14.300542
4.595623 2.498724 14.549204
4.901577 2.683916 15.133918
4.838580 2.643962 15.460584
4.711814 2.563642 16.098449
-5.171228 -3.897284 12.345280
-4.972848 -3.762235 12.851965
-4.642861 -3.536886 13.526970
-4.512592 -3.449021 14.052772
-4.429230 -3.392748 14.378237
-4.342232 -3.335344 15.031101
-4.275546 -3.291568 15.584898
-4.251724 -3.277993 16.271066
-4.356980 -3.353002 16.796091
-4.516840 -3.467350 17.694593
0.133742 -3.721932 11.270370
0.131676 -3.702704 11.764516
0.128343 -3.735257 12.126134
0.123207 -3.800223 12.582344
0.112901 -3.988712 13.099812
0.101165 -4.232344 13.490811
0.091365 -4.439958 13.788534
0.081631 -4.645576 14.088513
0.064877 -5.006672 14.555394
0.044638 -5.493542 14.772820
0.020927 -6.039236 15.196590
0.002590 -6.456367 15.557692
-0.017608 -6.938960 15.797074
0.106511 6.891650 3.495679
0.110779 6.673930 3.948123
0.113223 6.490028 4.533799
0.113371 6.442538 4.769984
0.113469 6.396616 5.005986
0.119996 6.116877 5.404233
0.129278 5.759099 5.749752
0.136154 5.504026 5.950605
0.139320 5.319409 6.413790
0.140132 5.236792 6.727098
0.144882 5.024829 7.063068
0.152498 4.730844 7.348946
0.165024 4.261260 7.742071
0.172416 3.972672 8.037359
0.179712 3.686476 8.336271
0.196906 3.096893 8.572364
0.209161 2.683211 8.704597
0.222287 2.226078 8.923831
0.236218 1.727024 9.233065
0.249189 1.272084 9.467243
0.262089 0.818140 9.708402
0.278797 0.234034 9.999766
0.296149 -0.317363 9.997520
0.317334 -1.072229 10.445406
0.332287 -1.574057 10.590514
0.347920 -2.115219 10.833528
0.366595 -2.747771 11.046862
0.384535 -3.341783 11.176583
0.404374 -4.049544 11.600879
0.422806 -4.680368 11.847328
0.445454 -5.476688 12.267155
0.465719 -6.127895 12.304543
-0.478026 7.528109 2.038560
-0.463792 7.386874 2.210768
-0.443901 7.189340 2.454793
-0.404104 6.802681 2.781769
-0.364679 6.419181 3.114272
-0.334545 6.118413 3.512280
-0.319310 5.956486 3.899011
-0.286492 5.637578 4.169629
-0.259188 5.373633 4.368966
-0.235918 5.139917 4.703683
-0.199804 4.796941 4.851751
-0.157748 4.383398 5.290173
-0.145508 4.259811 5.478566
-0.090093 3.720494 5.951169
-0.045224 3.298172 6.063691
0.009263 2.777760 6.342690
0.058794 2.318616 6.334236
0.117937 1.761240 6.495907
0.157906 1.376023 6.765702
0.211893 0.858530 7.077032
0.270774 0.302250 7.263734
0.314610 -0.124515 7.640260
0.367830 -0.636309 7.978242
0.421968 -1.145219 8.101816
0.476112 -1.654530 8.231902
0.538712 -2.252415 8.551985
0.615127 -2.981798 8.934613
0.663119 -3.442625 9.226322
0.716950 -3.950781 9.389272
0.774673 -4.500544 9.655510
0.846175 -5.181800 9.990164
0.923797 -5.913255 10.201094
0.994876 -6.592011 10.562527
-1.009969 7.210472 3.810218
-0.958503 6.920726 4.198337
-0.877801 6.476859 4.471950
-0.846080 6.297912 4.722695
-0.799508 6.040623 4.917033
-0.728861 5.652850 5.131146
-0.673821 5.347339 5.406842
-0.594942 4.912473 5.706967
-0.516522 4.479857 6.014310
-0.464191 4.195042 6.095457
-0.387576 3.778366 6.204268
-0.269743 3.133350 6.505211
-0.193155 2.716396 6.627644
-0.083629 2.111353 7.083412
0.008879 1.609623 7.170588
0.093336 1.146969 7.397124
0.185516 0.639765 7.716237
0.302276 0.005292 7.865076
0.419115 -0.629939 8.024469
0.544843 -1.309240 8.059808
0.645304 -1.858150 8.283914
0.753144 -2.450023 8.609241
0.853196 -2.997317 8.852356
0.984432 -3.717755 9.253335
1.124922 -4.484371 9.534522
1.244094 -5.127249 9.536149
1.357334 -5.753205 10.019846
-1.440123 6.781733 7.234006
-1.326025 6.336439 7.391521
-1.201708 5.854321 7.428907
-1.065282 5.318865 7.749869
-0.918636 4.746485 7.954866
-0.750152 4.090450 8.120827
-0.581058 3.436490 8.092180
-0.422703 2.820954 8.201939
-0.242772 2.117907 8.486334
-0.094665 1.543408 8.536145
0.074731 0.882448 8.763541
0.379801 -0.297956 8.736551
1.718792 -5.496601 9.395722
4.905905 -5.568873 24.601691
5.001479 -5.689382 25.259000
5.079912 -5.786593 25.608898
5.092739 -5.805161 25.966377
5.173467 -5.906998 26.526741
-4.972296 4.856242 7.945026
-1.183499 1.452613 8.977799
-0.679575 0.999248 9.202670
-0.073070 0.455177 9.266486
0.369481 0.057947 9.343802
0.807127 -0.336630 9.648992
1.175588 -0.669604 10.006960
1.550652 -1.006865 10.151794
2.082627 -1.486618 10.539699
2.525947 -1.884886 10.662677
2.998386 -2.310040 10.888577
3.498717 -2.761012 11.221573
4.067302 -3.272986 11.532270
4.677653 -3.821483 11.723970
5.428618 -4.495595 11.862021
-5.573308 4.663220 6.732614
-5.028302 4.242522 7.045052
-4.803744 4.069613 7.114036
-4.438160 3.787734 7.279028
-4.103793 3.528857 7.578575
-3.707319 3.224079 7.629794
-3.133314 2.781644 7.868816
-2.735173 2.475466 7.936629
-2.160528 2.032349 8.202200
-1.900521 1.831419 8.382908
-1.396213 1.443319 8.507532
-0.963497 1.108244 8.902536
-0.563721 0.800531 9.009422
-0.163545 0.492463 9.122766
0.198942 0.212347 9.373413
0.658241 -0.144048 9.895153
1.161979 -0.532142 10.079954
1.457108 -0.759428 10.175572
1.888216 -1.092165 10.417052
2.349568 -1.448853 10.760118
2.882600 -1.860385 11.076560
3.280798 -2.167381 11.252343
3.708380 -2.497680 11.531197
4.163788 -2.850108 11.916657
4.709315 -3.269893 12.046420
5.264582 -3.699637 12.521549
5.864491 -4.162810 12.878753
-6.024527 4.360411 7.016579
-5.711703 4.151481 7.220965
-5.002522 3.679545 7.433330
-4.587389 3.403861 7.473918
-4.275410 3.195337 7.700637
-3.892782 2.940260 7.881299
-3.398854 2.609710 8.300953
-3.163998 2.453286 8.391190
-2.819842 2.222715 8.720468
-2.549521 2.042171 8.897081
-2.099823 1.741266 9.272621
-1.792152 1.536746 9.331885
-1.414504 1.284649 9.559750
-1.003485 1.009794 9.878332
-0.627947 0.758994 10.121150
-0.286636 0.531440 10.285248
0.152806 0.236972 10.714512
0.633149 -0.083832 11.026850
1.093573 -0.389396 11.042999
1.572800 -0.709594 11.375035
1.942104 -0.956575 11.664292
2.370155 -1.243843 12.145636
2.783793 -1.519460 12.321452
3.197185 -1.794959 12.503796
3.803222 -2.200703 13.043269
4.293079 -2.526818 13.209353
4.679598 -2.786220 13.644854
5.061988 -3.040687 13.759213
5.390759 -3.262778 14.341111
5.717785 -3.481490 14.598098
6.013225 -3.680872 15.092869
6.176392 -3.791327 15.415622
6.360985 -3.916716 15.843635
6.586747 -4.070855 16.482008
6.720387 -4.161065 16.708819
6.834755 -4.240801 17.273840
6.822827 -4.235486 17.653921
6.846417 -4.255156 18.241868
6.846160 -4.258285 18.724550
6.923638 -4.312845 19.186673
6.899150 -4.299177 19.563776
6.887841 -4.294961 20.044429
6.954705 -4.342482 20.507021
6.935542 -4.333046 20.986407
6.842817 -4.275617 21.584087
6.708093 -4.188165 21.865742
6.782741 -4.242261 22.534714
6.808863 -4.261317 22.787327
6.955592 -4.363170 23.446921
-6.494457 3.962978 9.351260
-6.179681 3.786868 9.369409
-5.906054 3.631679 9.707057
-5.600056 3.457887 10.121879
-5.284834 3.281439 10.153615
-4.794937 3.004884 10.560046
-4.522233 2.851344 10.724113
-4.026784 2.572843 10.953048
-3.643550 2.357226 11.159828
-3.327119 2.179937 11.216969
-2.911738 1.945753 11.514726
-2.419546 1.668852 11.777604
-2.071624 1.473337 11.929453
-1.772438 1.304238 12.208839
-1.394634 1.091408 12.453872
-0.937294 0.834316 12.667201
-0.420812 0.542987 13.059878
0.145064 0.224755 13.343200
0.459996 0.048002 13.446498
0.942395 -0.223912 13.784270
1.532610 -0.556550 14.189881
1.983285 -0.810289 14.460396
2.515668 -1.109562 14.708141
2.963999 -1.362109 14.996824
3.243938 -1.520950 15.353254
3.471769 -1.649446 15.524110
3.819964 -1.848383 16.176917
4.175635 -2.049492 16.522172
4.337767 -2.142137 16.828043
4.582615 -2.280879 17.110883
4.719563 -2.361558 17.740819
4.789349 -2.402771 18.077190
4.876301 -2.454229 18.512853
4.874218 -2.456053 18.970643
4.971116 -2.513724 19.506171
4.926912 -2.490699 19.765093
4.945485 -2.505348 20.418536
5.068713 -2.575692 20.640199
5.162458 -2.632266 21.277744
5.136154 -2.620529 21.732751
5.105902 -2.606577 22.186507
5.233244 -2.679902 22.512577
5.369468 -2.758858 22.940444
5.512020 -2.842018 23.470312
5.631212 -2.910823 23.801929
5.686175 -2.945766 24.447541
5.791771 -3.006333 24.681709
5.916649 -3.079673 25.221063
6.024736 -3.142317 25.559955
6.227805 -3.259369 26.098645
6.417462 -3.367616 26.437144
6.614623 -3.482098 27.088083
6.793045 -3.582760 27.226998
6.893309 -3.643140 27.889182
7.072113 -3.746087 28.345316
7.159791 -3.798110 28.805273
-6.744160 3.440812 9.607437
-6.267162 3.218000 9.913116
-5.944811 3.067337 10.133857
-5.623575 2.917158 10.359738
-5.303515 2.767490 10.590755
-4.949411 2.601557 10.901502
-4.621347 2.449348 10.947078
-4.188492 2.247152 11.225048
-3.859915 2.094648 11.279720
-3.428674 1.893108 11.572293
-3.032607 1.708298 11.794437
-2.456313 1.438728 12.223560
-2.210789 1.324294 12.340546
-1.754726 1.110533 12.748777
-1.458022 0.973113 12.751785
-0.890647 0.707407 13.223315
-0.417796 0.486986 13.454042
0.113199 0.238495 13.866959
0.525369 0.047154 13.941529
0.995467 -0.172155 14.198297
1.434360 -0.378404 14.676380
2.073153 -0.675557 14.889018
2.452167 -0.853062 15.205498
2.690146 -0.964314 15.372178
2.968078 -1.097205 16.038505
3.314935 -1.259341 16.278950
3.597122 -1.392327 16.646615
3.811684 -1.494791 17.140709
4.087244 -1.624767 17.517842
4.140686 -1.650999 17.754114
4.234832 -1.697297 18.184124
4.325184 -1.741844 18.615131
4.430662 -1.794012 19.144311
4.423477 -1.793525 19.596802
4.466692 -1.815029 19.834294
4.502026 -1.836059 20.577758
4.540498 -1.855369 20.815711
4.636475 -1.903764 21.444591
4.684461 -1.928099 21.781179
4.742998 -1.957937 22.216153
4.899466 -2.033664 22.736629
5.006161 -2.083882 22.865514
5.266408 -2.208871 23.577613
5.399383 -2.273155 24.008379
5.511573 -2.326574 24.241744
5.737014 -2.434278 24.768122
5.872947 -2.501245 25.408016
5.984436 -2.555010 25.748280
6.093641 -2.607729 26.090212
6.295485 -2.703965 26.530532
6.499745 -2.802630 27.179435
6.692128 -2.894541 27.628812
6.879349 -2.983440 27.978994
7.064189 -3.071256 28.332223
7.155694 -3.116520 28.792505
-6.614377 2.794358 7.221428
-6.385160 2.707523 7.413028
-5.985652 2.555264 7.896856
-5.717997 2.453575 8.168722
-5.497144 2.371018 8.170941
-5.148919 2.238272 8.597952
-4.886410 2.138439 8.880784
-4.422643 1.963498 9.145128
-4.081951 1.834680 9.389251
-3.742639 1.706346 9.638605
-3.366420 1.563707 9.971887
-3.030589 1.436605 10.232468
-2.743309 1.326860 10.622883
-2.363726 1.184101 10.769244
-2.068973 1.072755 10.963605
-1.690015 0.930172 11.119457
-1.170321 0.732921 11.615227
-0.672811 0.545672 11.829711
-0.296208 0.403845 12.005941
0.200201 0.216915 12.235817
0.641870 0.049627 12.599867
1.135815 -0.136491 12.847462
1.628772 -0.322293 13.103794
2.239905 -0.552664 13.426187
2.730289 -0.737623 13.702056
3.219320 -0.922129 13.986666
3.617924 -1.073083 14.311524
3.925145 -1.190110 14.673858
4.257369 -1.317100 15.137714
4.558117 -1.431771 15.510399
4.739692 -1.501505 15.817958
4.944835 -1.580658 16.225797
5.146496 -1.658528 16.636685
5.344641 -1.735102 17.050588
5.539233 -1.810366 17.467471
5.616952 -1.841501 17.810682
5.685158 -1.871648 18.576194
5.663442 -1.865754 18.941572
5.749866 -1.900757 19.385764
5.814069 -1.926850 19.730641
5.910583 -1.966243 20.276753
5.892552 -1.962326 20.740671
5.947209 -1.984858 21.086677
5.999427 -2.006481 21.433117
6.103928 -2.050100 22.183164
6.030088 -2.023473 22.342775
6.190460 -2.086673 22.878885
6.344983 -2.147706 23.418183
6.473923 -2.197958 23.757089
6.525568 -2.220632 24.311387
6.749842 -2.307105 24.747262
6.883873 -2.360546 25.297649
6.906401 -2.371119 25.651553
7.118851 -2.453232 26.097140
7.229308 -2.496649 26.448022
7.344550 -2.543127 27.008068
7.542287 -2.619170 27.359729
7.648818 -2.663063 28.030126
-7.091445 2.414724 7.841545
-6.698885 2.297787 7.924065
-6.133753 2.127907 8.301483
-5.865561 2.047909 8.375958
-5.304416 1.879095 8.773009
-5.036554 1.799146 8.855819
-4.686210 1.693813 9.092801
-4.172243 1.539286 9.440759
-3.905113 1.459486 9.534959
-3.643368 1.380060 9.835135
-3.213396 1.251255 10.047237
-2.869887 1.147790 10.311204
-2.528032 1.044784 10.580379
-1.989808 0.882293 11.057532
-1.551783 0.752164 11.090479
-1.003554 0.587817 11.380511
-0.580419 0.460781 11.636246
-0.193835 0.345058 11.812688
0.227169 0.218578 12.081360
0.803627 0.045118 12.495775
1.399374 -0.132863 12.708089
1.961684 -0.300446 12.839799
2.499648 -0.462158 13.198902
3.093607 -0.639792 13.441978
3.627371 -0.800390 13.823208
4.158192 -0.960181 14.215535
4.505388 -1.064019 14.358164
4.998203 -1.213980 14.993565
5.251390 -1.290167 15.175852
5.467191 -1.356624 15.586941
5.732104 -1.438852 16.200421
5.913586 -1.494576 16.518482
6.185799 -1.577077 16.813614
6.434784 -1.654659 17.440357
6.514635 -1.680421 17.789711
6.542103 -1.691987 18.364944
6.448472 -1.667147 18.858622
6.498152 -1.683357 19.106580
6.604218 -1.718107 19.659720
6.573815 -1.711281 20.028818
6.557876 -1.709344 20.498512
6.553473 -1.711426 21.068648
6.637188 -1.739549 21.622374
6.686895 -1.756379 21.973250
6.760295 -1.781452 22.528584
6.886312 -1.820241 22.765554
7.034555 -1.866851 23.209088
7.093848 -1.887764 23.768667
7.232969 -1.931693 24.216414
7.376316 -1.977504 24.769989
7.601898 -2.047065 25.215267
7.727500 -2.087006 25.666746
7.753257 -2.097375 26.125958
7.770266 -2.104531 26.481028
7.880546 -2.139330 26.832178
-7.310223 1.872095 9.260554
-6.788925 1.760252 9.176953
-6.266880 1.647077 9.294563
-5.665946 1.514841 9.765790
-5.184385 1.410705 9.829179
-4.621896 1.288204 10.051492
-4.146676 1.184175 10.330955
-3.955839 1.143393 10.272793
-3.366662 1.013366 10.799693
-2.922422 0.917539 10.817320
-2.414625 0.805846 11.207241
-2.057969 0.728575 11.279192
-1.627292 0.634366 11.520487
-1.072128 0.513037 11.812556
-0.393128 0.364688 12.162373
0.088756 0.260020 12.304983
0.570684 0.155306 12.454064
1.086861 0.042654 12.698706
1.760448 -0.104814 13.097445
2.430853 -0.251691 13.512416
2.970094 -0.368221 13.569726
3.729595 -0.534263 13.979008
4.269456 -0.651021 14.052533
4.871547 -0.782356 14.326523
5.438719 -0.907554 14.838440
5.942980 -1.018108 15.163786
6.473274 -1.134912 15.598950
6.783940 -1.204166 15.995606
6.970430 -1.246243 16.320371
7.325804 -1.326379 16.931245
7.625323 -1.393315 17.342345
7.778987 -1.427768 17.572474
8.022873 -1.484106 18.222008
7.981154 -1.476725 18.498126
7.979855 -1.479268 18.982442
7.916734 -1.469810 19.693531
7.885365 -1.465248 20.070505
7.754781 -1.439401 20.463663
7.717521 -1.433553 20.837902
7.820785 -1.459696 21.505743
7.775278 -1.452050 21.876312
7.837555 -1.468151 22.336412
7.785770 -1.459142 22.705399
7.949088 -1.497557 23.258363
-7.020461 1.252755 9.763961
-6.495455 1.180077 9.883044
-5.842599 1.089673 10.035835
-5.396746 1.028601 10.024052
-4.661728 0.925933 10.350293
-4.253388 0.870371 10.275019
-3.773685 0.802945 10.561130
-3.257226 0.729969 10.935669
-2.768644 0.662392 11.036309
-2.369226 0.606760 11.185935
-1.714781 0.515656 11.422559
-1.114690 0.431213 11.797080
-0.571373 0.356670 11.803715
0.026304 0.272424 12.201515
0.606801 0.192190 12.311210
1.257986 0.101190 12.607634
1.907754 0.010307 12.917358
2.555883 -0.080428 13.240389
3.262637 -0.178546 13.449440
3.842964 -0.259039 13.608239
4.613448 -0.367139 14.033237
5.192781 -0.447612 14.212440
5.771890 -0.528101 14.399588
6.381153 -0.613350 14.695449
6.857480 -0.681925 15.261887
7.270804 -0.740740 15.633438
7.612937 -0.790576 16.141230
7.870313 -0.827030 16.342879
8.230467 -0.880000 16.965970
-7.538319 0.810438 7.159451
-7.080376 0.778753 7.308523
-6.445739 0.734612 7.555564
-6.125974 0.713396 7.500651
-5.706217 0.683441 7.797142
-5.203190 0.648132 8.049218
-4.656947 0.609426 8.386889
-4.506391 0.598939 8.448054
-4.093849 0.569320 8.770848
-3.641310 0.536517 9.179388
-3.361481 0.517112 9.278297
-2.914330 0.484594 9.700548
-2.505357 0.456247 9.842555
-2.055681 0.424660 10.071900
-1.696804 0.398899 10.351778
-1.249573 0.367403 10.594209
-0.673832 0.326965 10.887089
-0.190897 0.292482 11.231660
0.251857 0.261151 11.497858
0.747990 0.226913 11.643841
1.446514 0.177690 12.027574
1.941899 0.143405 12.190545
2.450082 0.106438 12.672357
2.815530 0.081144 12.792884
3.283415 0.047325 13.198421
3.874814 0.004784 13.675199
4.365020 -0.029370 13.876301
4.759240 -0.057266 14.113310
5.373777 -0.100239 14.392806
5.952365 -0.142159 14.911739
6.120598 -0.154709 15.125921
6.498936 -0.183558 15.716998
6.815100 -0.207104 16.112549
6.977750 -0.219320 16.334091
7.218023 -0.238526 16.864456
7.427457 -0.255090 17.295735
7.511697 -0.262781 17.649404
7.542259 -0.268167 18.232315
7.663326 -0.279524 18.793814
7.617597 -0.277997 19.065593
7.512942 -0.273788 19.562489
7.538770 -0.279423 20.244753
7.600990 -0.285636 20.599183
7.677434 -0.293400 21.057629
7.650816 -0.294316 21.531884
7.732877 -0.303053 22.094456
7.893834 -0.316441 22.541156
7.938900 -0.321514 22.898191
7.993159 -0.327803 23.359811
8.131336 -0.339089 23.707056
-6.137758 0.303250 5.016661
-5.827879 0.302281 5.285601
-5.704242 0.301481 5.465412
-5.314781 0.300943 5.684108
-5.010006 0.299908 5.962995
-4.574076 0.298960 6.268383
-4.092192 0.297612 6.658751
-3.805255 0.297652 6.743300
-3.328100 0.296215 7.147692
-3.128055 0.295767 7.290133
-2.743672 0.293808 7.756633
-2.371414 0.294203 7.806074
-1.905480 0.292594 8.237161
-1.576675 0.292112 8.426620
-1.117508 0.290406 8.872578
-0.702232 0.290283 9.026628
-0.112232 0.289716 9.314330
0.254069 0.288688 9.611752
0.577064 0.288052 9.826311
0.989919 0.287797 10.002821
1.523165 0.286193 10.454491
2.012343 0.284968 10.825472
2.460052 0.284143 11.113237
2.906070 0.283274 11.407971
3.220061 0.282451 11.652555
3.625950 0.281981 11.864571
4.233052 0.280411 12.333917
4.765394 0.279735 12.622377
5.296228 0.279006 12.919578
5.764528 0.277364 13.357138
6.129770 0.277199 13.502648
6.561560 0.274083 14.187448
6.764537 0.272649 14.503839
7.061192 0.271536 14.793856
7.385849 0.269867 15.190408
7.707196 0.268163 15.591921
7.859593 0.265239 16.153929
8.049132 0.263701 16.484358
8.068181 0.260971 16.969621
8.082329 0.258236 17.454110
8.138425 0.254392 18.146829
8.118470 0.252201 18.525075
8.116969 0.249453 19.006941
8.012468 0.246415 19.506855
7.883552 0.243942 19.899804
7.886534 0.240638 20.480730
7.865514 0.237890 20.956483
7.938595 0.235406 21.415826
8.106224 0.233171 21.861569
8.156388 0.231228 22.218554
8.230484 0.228134 22.785405
-0.725028 0.244431 7.515400
-0.433659 0.265300 7.847596
-0.145056 0.285931 8.183458
0.273734 0.316473 8.565183
0.732091 0.349561 9.042408
1.190793 0.383892 9.306944
1.515898 0.408018 9.530314
1.930629 0.439363 9.715958
2.426646 0.475978 10.090944
2.879670 0.509714 10.381845
3.422927 0.550682 10.641132
3.965137 0.591516 10.909252
4.413524 0.624759 11.223081
5.027701 0.670004 11.703555
5.470923 0.702746 12.034294
6.063614 0.748086 12.204365
6.633079 0.790218 12.618275
7.293679 0.839587 13.011697
3.033791 2.071916 9.113269
3.674505 2.437477 9.293660
4.358395 2.828573 9.348902
5.080575 3.240859 9.514810
-6.367489 -3.933337 4.367847
-5.841576 -3.579140 4.718567
-5.622361 -3.429495 4.573381
-5.250849 -3.179506 4.853297
-4.702204 -2.809188 5.101385
-4.282010 -2.524494 5.134887
-3.801629 -2.201005 5.461501
-3.379706 -1.915243 5.510325
-2.802703 -1.525099 5.671649
-2.196165 -1.114097 5.712373
-1.758011 -0.818994 6.002865
-1.403202 -0.579316 6.135297
-0.792943 -0.166007 6.207338
-0.324665 0.150267 6.389957
0.481741 0.694930 6.701529
1.241952 1.210284 6.720429
1.745180 1.550956 6.801361
2.328635 1.944690 7.076797
2.724445 2.211134 7.359662
3.154832 2.501932 7.510649
3.811354 2.945276 7.776687
4.467746 3.388422 8.058573
-5.682266 -4.044653 3.063284
-5.230218 -3.692978 3.479164
-4.974344 -3.494136 3.744694
-4.742599 -3.312753 3.806643
-4.382167 -3.032047 4.096146
-4.214312 -2.901260 4.222658
-3.962626 -2.705814 4.503264
-3.541299 -2.377040 4.752882
-3.161877 -2.080642 4.933146
-2.741757 -1.752941 5.200204
-2.282420 -1.395123 5.557550
-1.984449 -1.161623 5.598353
-1.392484 -0.699132 5.871430
-0.879250 -0.297304 5.991057
-0.540300 -0.032397 6.134648
-0.016687 0.375827 6.495633
0.390650 0.694640 6.605093
0.874507 1.072146 6.900407
1.351936 1.446179 6.978924
1.797849 1.794427 7.203216
2.350663 2.226132 7.485707
2.795751 2.573588 7.729995
3.240299 2.920556 7.983250
3.826913 3.379532 8.162028
4.269102 3.722776 8.673981
-5.676105 -4.786632 7.214263
-5.302242 -4.446121 7.437403
-4.832491 -4.018057 7.689188
-4.590127 -3.797337 7.836800
-4.347995 -3.576858 7.988157
-3.942836 -3.208530 8.318756
-3.607627 -2.901561 8.303389
-3.172339 -2.504818 8.525949
-2.769338 -2.138701 8.887044
-2.431792 -1.829742 8.891072
-1.866970 -1.313936 9.050457
-1.334989 -0.829307 9.354127
-0.831790 -0.368840 9.374942
-0.299637 0.115720 9.707981
0.205823 0.578086 9.750992
0.974710 1.281099 9.857708
1.647683 1.896552 9.933656
2.254931 2.451408 10.065324
2.795434 2.944757 10.250096
3.502353 3.590179 10.468962
4.073058 4.110188 10.781415
-5.111946 -4.949499 8.433708
-4.799643 -4.622312 8.596209
-4.397995 -4.201378 8.787942
-4.026349 -3.811479 8.915900
-3.594986 -3.360077 9.203294
-3.342655 -3.094968 9.243688
-2.943326 -2.678473 9.677097
-2.661684 -2.383272 9.807194
-2.347664 -2.053011 9.816542
-2.041654 -1.734638 10.244400
-1.581037 -1.251937 10.468259
-1.148037 -0.797705 10.621493
-0.714627 -0.343127 10.785181
-0.128338 0.272145 10.964457
0.305869 0.727362 11.152268
0.740161 1.182581 11.350610
1.327835 1.798936 11.574948
1.953756 2.456460 11.686609
2.516813 3.047420 11.850348
3.105974 3.664920 12.125559
-0.098773 0.314459 11.884253
-0.052919 0.366842 12.311116
0.048602 0.487823 12.700612
0.265228 0.750597 13.019185
0.458620 0.985636 13.253704
0.651242 1.219698 13.491915
0.944448 1.575743 13.881143
1.235495 1.929061 14.279191
1.624010 2.403230 14.529978
2.111195 2.996869 14.950051
-0.502244 1.986904 16.131450
-0.448787 1.577322 16.495123
-0.403106 1.241824 17.122676
-0.380681 1.088908 17.688180
-0.359893 0.931353 17.867224
-0.358341 0.938167 18.286251
-0.344045 0.844419 18.728362
-0.341418 0.842525 19.144622
-0.354491 0.972911 19.715767
-0.346883 0.923104 19.953002
-0.355019 1.006012 20.346925
-0.365981 1.119660 20.920249
-0.386798 1.307053 21.387886
-0.401263 1.427448 21.498530
-0.434927 1.720912 22.045719
-0.465277 1.979909 22.417235
0.540311 -4.057769 16.081512
0.647647 -4.587622 16.655858
0.842512 -5.638874 14.678783
0.745691 -5.065031 17.402800
0.903741 -5.924746 15.560075
0.782618 -5.229768 18.193664
0.802325 -5.318594 18.585054
0.781797 -5.201912 18.994114
0.784473 -5.204863 19.355278
0.912440 -5.916750 17.328769
0.776416 -5.145494 19.974673
0.759076 -5.044998 20.385709
0.848790 -5.558880 18.464589
0.716725 -4.812210 20.961257
0.701667 -4.723218 21.376240
0.769083 -5.129328 19.258149
0.643518 -4.410263 21.941118
0.592626 -4.139623 22.325248
0.565924 -3.996185 22.575483
0.575423 -4.105258 20.523892
0.429493 -3.278580 23.337313
0.362511 -2.925715 23.729956
0.283484 -2.521251 23.792567
0.158497 -1.871092 24.245311
0.632056 -3.250741 14.743353
0.756933 -3.691049 15.227928
0.836479 -3.963682 15.904102
0.888626 -4.144026 16.271474
0.935056 -4.302171 16.712516
0.995637 -4.514751 16.995583
1.232558 -5.411199 15.051599
1.005387 -4.530199 17.920755
0.979684 -4.430183 18.261068
0.965961 -4.376670 18.448150
0.905053 -4.146850 18.917898
0.918185 -4.189656 19.132724
0.885741 -4.061930 19.631823
0.864485 -3.977863 19.976727
0.844124 -3.897012 20.322452
0.802818 -3.742704 20.568435
0.761972 -3.590013 20.816337
0.717557 -3.422715 21.145336
0.647663 -3.163832 21.457322
0.541436 -2.768979 21.997023
0.480281 -2.544852 22.158151
0.353570 -2.077815 22.616345
0.213776 -1.570738 22.738281
0.818231 -3.022651 15.222260
0.996868 -3.512335 15.543234
1.125728 -3.862078 15.982744
1.206464 -4.076509 16.537973
1.274157 -4.258035 16.900139
1.253925 -4.193102 17.428087
1.569041 -5.101854 15.316414
1.323473 -4.373675 18.153225
1.298220 -4.299253 18.417451
1.266611 -4.205914 18.759488
1.472797 -4.811478 16.725104
1.206786 -4.028587 19.446341
1.399509 -4.597044 17.399965
1.145599 -3.846126 20.214136
1.086761 -3.677631 20.537779
0.990238 -3.403684 20.921780
0.972115 -3.348906 21.192991
0.882935 -3.096517 21.505017
0.799429 -2.861127 21.741133
0.881294 -3.124451 19.569834
0.587478 -2.261812 22.451159
0.426957 -1.809145 22.916020
0.174641 -1.105407 23.182606
1.357901 -3.704778 15.901703
1.550217 -4.134278 16.369765
1.667810 -4.395353 16.765285
1.728937 -4.526751 17.276560
2.109272 -5.418591 15.196469
1.809161 -4.698489 17.997833
1.855831 -4.799815 18.316945
2.151349 -5.497552 16.361967
1.811029 -4.687256 19.093351
1.775596 -4.602143 19.430778
1.733993 -4.501948 19.845370
1.669417 -4.352139 20.084225
1.894807 -4.892838 17.988409
1.807462 -4.689370 18.370714
1.777702 -4.618196 18.632107
1.466043 -3.871111 21.489754
1.657560 -4.335476 19.360022
1.386579 -3.683603 22.007531
1.277756 -3.431300 22.399038
1.130782 -3.092637 22.779919
1.219286 -3.325896 20.473596
0.854654 -2.458823 23.321658
0.591545 -1.857068 23.683709
2.968717 -6.182557 16.092946
3.212106 -6.634017 17.005467
3.242584 -6.666240 19.106541
3.161498 -6.504427 19.734849
3.378975 -6.937276 18.143042
3.364073 -6.907722 18.243440
3.284474 -6.753848 18.453876
3.201613 -6.589059 19.049705
3.098462 -6.392446 19.094547
2.985066 -6.170731 19.599230
2.909663 -6.024706 19.820174
2.826487 -5.862993 20.115677
2.724034 -5.667587 20.170108
2.382534 -4.986920 22.749251
2.214359 -4.662876 23.107521
2.255084 -4.766442 20.969674
1.846616 -3.956892 23.679007
3.821887 -6.511817 20.478274
3.089773 -2.265068 16.532804
6.162920 -3.604339 13.167221
5.442431 -3.217899 13.260634
4.939858 -2.948479 13.304472
4.406879 -2.662237 13.431546
3.711219 -2.289322 13.489684
3.008946 -1.910995 13.837250
2.502885 -1.639445 13.921468
1.996193 -1.367507 14.013446
1.103049 -0.886563 14.423211
0.485687 -0.554875 14.590120
0.032004 -0.312225 14.542810
-0.666070 0.064516 14.992878
-1.367212 0.441098 15.164216
-2.152718 0.862754 15.319217
-2.938670 1.284746 15.489455
-3.943888 1.825137 15.810911
6.264714 -3.123520 11.229398
5.603671 -2.824294 11.536440
5.011225 -2.556734 11.713209
4.519230 -2.335692 11.675451
4.040795 -2.119484 11.840296
3.479662 -1.866293 11.971313
2.884994 -1.597457 12.192326
2.291214 -1.328948 12.424934
1.761900 -1.090381 12.505853
1.199917 -0.836550 12.678211
0.606439 -0.567956 12.946065
-0.016720 -0.285391 13.313690
-0.577418 -0.031916 13.521409
-1.193597 0.245803 13.615665
-1.754235 0.499379 13.843911
-2.486908 0.831920 14.327024
-3.131675 1.123300 14.549878
-3.949954 1.492415 14.724262
-4.795984 1.874723 15.012713
-5.702162 2.283406 15.192844
-6.670102 2.719168 15.260958
-7.603911 3.141151 15.580541
6.686958 -2.714708 10.829855
6.111342 -2.506292 10.908646
5.607324 -2.324572 10.850258
4.884180 -2.060936 11.247179
4.389650 -1.881341 11.403724
4.001162 -1.741409 11.336480
3.350118 -1.504499 11.620917
2.785737 -1.298547 11.963012
2.273750 -1.113659 11.952324
1.710930 -0.908131 12.317510
1.043552 -0.666238 12.450583
0.495422 -0.467636 12.548429
-0.118786 -0.244065 12.827716
-0.731854 -0.020825 13.120236
-1.343572 0.202008 13.426001
-1.892033 0.400965 13.562869
-2.532051 0.634724 13.984764
-3.168966 0.865559 14.108991
-3.925233 1.139955 14.306703
-4.800288 1.457755 14.585938
-5.556374 1.732274 14.814748
-6.402399 2.039197 15.029459
-7.456967 2.421850 15.309343
7.265341 -2.315921 9.516321
6.881917 -2.207852 9.797594
6.575038 -2.122979 9.748530
5.946149 -1.946440 10.088970
5.474611 -1.815233 10.147899
4.971385 -1.673580 10.486249
4.498860 -1.542010 10.560303
3.939673 -1.386621 10.595224
3.513853 -1.267203 10.806025
2.803961 -1.068006 11.176773
2.256597 -0.914517 11.445152
1.694452 -0.758085 11.517755
1.255442 -0.636033 11.554966
0.673303 -0.472226 11.936394
0.198411 -0.339632 12.072441
-0.558460 -0.127642 12.401846
-1.066951 0.014906 12.644412
-1.607648 0.166976 12.985918
-2.326964 0.368273 13.269410
-2.767627 0.491076 13.356122
-3.426361 0.676454 13.790805
-4.202894 0.893110 13.986393
-4.979592 1.109895 14.196163
-5.602105 1.284918 14.579383
-6.406589 1.510179 14.918626
-7.401262 1.786003 14.882633
7.335153 -1.792771 9.838004
6.898071 -1.703566 9.808805
6.549652 -1.631051 10.027284
5.873309 -1.490307 10.447669
5.519463 -1.417734 10.485306
4.875182 -1.284976 10.659818
4.230335 -1.152026 10.847387
3.836660 -1.070758 10.979766
3.354883 -0.971699 11.073354
2.835093 -0.864364 11.253665
2.315435 -0.757005 11.442604
1.651323 -0.618131 11.971631
1.240977 -0.534463 11.930314
0.526935 -0.385937 12.363380
0.079881 -0.294199 12.419254
-0.345369 -0.205663 12.690913
-1.018997 -0.065689 13.074567
-1.781650 0.092383 13.439762
-2.385617 0.217238 13.672861
-2.864640 0.316254 13.856128
-3.528773 0.452785 13.981264
-4.224485 0.596385 14.211781
-4.919725 0.739960 14.454644
-5.673799 0.896792 14.908416
-6.489359 1.065556 15.252015
-7.557998 1.285103 15.429255
7.233674 -1.203458 9.814716
6.917635 -1.163803 9.765617
6.437456 -1.101732 10.007955
5.878723 -1.028837 10.406575
5.568337 -0.988698 10.566157
4.916249 -0.905284 10.742227
4.302262 -0.827053 10.854028
3.865217 -0.770615 11.064686
3.377532 -0.708443 11.159439
2.813930 -0.635717 11.421524
2.288481 -0.568218 11.612875
1.763317 -0.500705 11.812867
1.274847 -0.438263 11.937527
0.622928 -0.354375 12.199818
0.098952 -0.286858 12.426690
-0.366786 -0.225935 12.786971
-1.014777 -0.142342 13.084299
-1.627972 -0.063589 13.304529
-2.300875 0.022046 13.409330
-2.885038 0.098509 13.869582
-3.621386 0.193373 14.185328
-4.294164 0.279187 14.324085
-5.058968 0.378369 14.765519
-5.666027 0.456748 15.055701
-6.557456 0.570642 15.272564
-7.477396 0.688823 15.608713
6.056256 -0.594362 8.393549
5.558794 -0.568392 8.643132
5.235914 -0.551563 8.800474
4.870410 -0.532174 9.037648
4.506275 -0.512824 9.280048
4.143577 -0.493515 9.527671
3.782381 -0.474250 9.780511
3.333962 -0.450913 9.992753
2.935295 -0.429276 10.337208
2.449838 -0.403568 10.644822
1.993628 -0.380907 10.671084
1.380677 -0.348579 11.036130
0.884839 -0.323407 11.159929
0.350737 -0.295819 11.376178
-0.294125 -0.261222 11.863094
-0.715624 -0.240584 11.834861
-1.448608 -0.201711 12.309137
-1.943001 -0.176378 12.473635
-2.472247 -0.148762 12.736802
-3.094003 -0.116728 12.974147
-3.815737 -0.078075 13.507125
-4.401513 -0.048223 13.673245
-4.956897 -0.018532 14.074048
-5.414650 0.004715 14.189771
-6.125684 0.041283 14.449781
-6.896607 0.082038 14.925821
-7.633924 0.120653 15.317260
4.138592 -0.206811 9.581747
3.824188 -0.210852 9.961033
3.635173 -0.213743 10.107984
3.197006 -0.219983 10.529770
2.853676 -0.224057 11.003555
2.578439 -0.228846 11.115828
2.060752 -0.236774 11.516855
1.620901 -0.244053 11.762227
1.255783 -0.250777 11.846180
0.652890 -0.260456 12.234843
0.124168 -0.269581 12.463878
-0.461352 -0.280489 12.576641
-1.245027 -0.293940 12.929002
-1.703090 -0.302533 13.006857
-2.262469 -0.311544 13.362001
-2.913482 -0.322490 13.694917
-3.308695 -0.329019 13.917208
-3.861289 -0.337722 14.303083
-4.632010 -0.350458 14.736224
-5.309156 -0.362924 14.892628
-5.854046 -0.371267 15.314866
-6.626239 -0.385651 15.463956
-7.387316 -0.397842 15.959281
-8.130943 -0.412110 16.029739
3.249011 0.040472 12.792144
3.005336 0.018886 13.106707
2.856262 0.006616 13.462787
2.368530 -0.037855 13.871369
1.823715 -0.088422 14.172106
1.405219 -0.127084 14.434667
0.956422 -0.169781 14.500226
0.352089 -0.226591 14.708253
-0.281839 -0.285681 15.014148
-1.132310 -0.365325 15.359829
-1.865735 -0.435700 15.362431
-2.496624 -0.494263 15.709456
-3.192726 -0.559709 15.947359
-3.915399 -0.627088 16.292988
-4.662124 -0.696133 16.751088
-5.546493 -0.779698 16.980169
-6.623661 -0.881952 17.176878
0.924299 -0.103343 14.617195
1.533721 0.006030 15.260760
1.965384 0.084135 15.826245
2.177958 0.122705 16.123283
2.085243 0.108265 16.405838
1.874757 0.073715 16.741384
1.573021 0.023192 17.050593
1.130265 -0.050939 17.504936
0.573898 -0.146502 17.659201
-3.240206 -0.802023 18.646577
-4.296275 -0.983961 18.844993
-5.490393 -1.188693 19.240281
-0.289721 -0.338843 14.562204
0.342019 -0.180510 15.123318
0.620325 -0.108036 15.834471
1.016006 -0.008810 16.195693
1.337090 0.073558 16.803842
1.461698 0.105673 17.065399
1.398634 0.093516 17.631381
1.366257 0.088395 18.112952
1.146982 0.034969 18.179100
0.745569 -0.061305 18.561125
4.224210 1.106981 13.986416
4.176996 1.093800 14.368097
4.074687 1.061878 14.634934
3.710842 0.945245 15.065296
3.379569 0.838856 15.424340
3.044216 0.729527 15.516013
2.483913 0.548746 15.983304
1.852825 0.342508 16.072927
1.130754 0.106329 16.140768
0.304334 -0.161909 16.564049
-0.378066 -0.383696 16.864356
-1.010173 -0.589985 17.001256
-1.758173 -0.833805 17.211570
-2.505918 -1.077458 17.436042
-3.460420 -1.388497 17.719935
-4.414132 -1.699144 18.026096
-5.366687 -2.009279 18.354543
6.171672 2.229007 15.213884
6.620691 2.398552 13.140019
5.041498 1.772401 15.577155
5.416632 1.910851 13.324497
3.824652 1.280686 15.953169
3.272904 1.057811 16.136863
2.671028 0.815641 16.492306
2.082114 0.576623 16.504354
1.369728 0.290087 16.941216
0.868049 0.086785 17.002043
0.140828 -0.207336 17.184801
-0.497338 -0.465048 17.408757
-1.313821 -0.793025 17.978972
-2.106802 -1.114262 18.093723
-3.123091 -1.525217 18.361779
-4.007008 -1.883329 18.483630
-4.751679 -2.183346 18.859467
-5.383614 -2.437974 19.173575
-5.540719 -2.499768 19.497146
-5.767326 -2.587294 20.224797
-5.809441 -2.602881 20.470532
-6.006108 -2.678833 21.103670
-6.119984 -2.724267 21.233513
-6.109480 -2.716515 21.800785
-6.197429 -2.748201 22.454620
-6.320389 -2.796675 22.689850
-6.580774 -2.898491 23.323719
-6.791732 -2.982734 23.552059
-6.929712 -3.036000 23.999727
-7.081266 -3.093488 24.657081
-7.294132 -3.177812 24.998215
6.235464 2.865659 14.752376
5.593255 2.541676 14.916809
4.234497 1.869186 17.297373
3.644742 1.573421 17.723460
3.016469 1.254863 17.632955
2.364643 0.927189 17.981551
-3.177738 -1.869574 19.286192
-3.521140 -2.041066 19.647896
-3.774451 -2.166796 20.035588
-3.920534 -2.238725 20.349703
-3.992804 -2.272552 20.780531
-4.002919 -2.273572 21.422518
-3.889643 -2.213288 21.884918
-3.948606 -2.240383 22.315293
-3.927323 -2.226156 22.856380
-3.977864 -2.248986 23.287092
-4.092686 -2.305658 23.512841
-4.226210 -2.370544 23.934526
-4.364919 -2.437416 24.456309
-4.668189 -2.588291 24.865781
-4.960971 -2.734452 25.182247
-5.169316 -2.837167 25.610222
-5.374063 -2.938033 26.042372
-3.172393 -2.525105 13.892978
-2.900201 -2.331997 14.472004
-2.778529 -2.243930 14.982585
-2.857007 -2.294030 15.619621
-2.812019 -2.261647 15.782412
-2.903266 -2.319967 16.513140
-2.956550 -2.355394 16.742432
-3.151780 -2.487620 17.232396
-3.401838 -2.658746 17.605665
-3.668892 -2.840973 18.080610
-3.993034 -3.063649 18.441576
-4.475114 -3.396298 18.766084
-4.875170 -3.671750 19.121506
-5.433988 -4.057708 19.446085
