19.567411 38.419968 11.971880
19.597259 36.596310 14.054981
19.427012 36.509329 14.340517
18.988151 36.405250 14.937205
18.541360 36.538094 15.267658
18.111337 36.750349 15.487809
17.714677 36.795734 15.865348
18.099749 35.324731 17.154115
17.870472 35.037674 17.735761
17.612283 34.998530 18.061181
17.125535 35.090932 18.481882
15.889918 40.082277 11.969076
16.227767 38.286840 13.896708
16.052439 38.102585 14.298489
15.636508 38.043155 14.777127
15.045726 38.113100 15.263043
14.597983 38.284286 15.482833
14.779451 36.791119 17.182580
14.580052 36.571679 17.651947
14.205467 36.478456 18.132885
13.774439 36.451610 18.585246
12.757346 41.084021 12.126936
12.702889 40.834350 12.505655
13.108938 39.372541 14.090070
12.882694 39.159108 14.570722
12.605809 39.095856 14.896391
12.011513 39.118728 15.384979
12.105411 38.374244 16.290487
11.975999 37.989916 16.913265
11.788938 37.757054 17.385475
11.667935 37.540549 17.778308
11.419692 37.457817 18.104806
10.749643 37.402054 18.763844
9.217934 42.352975 11.500141
9.037565 42.064121 12.039620
8.930602 41.708453 12.618083
9.344268 40.334760 14.236104
9.139077 40.184867 14.599218
8.670601 40.200370 14.926617
8.408751 40.022712 15.370892
8.490776 39.614476 15.882225
8.511467 39.268223 16.352350
8.349994 38.935832 16.938797
8.199196 38.600149 17.521906
7.972270 38.409437 17.958459
7.791376 38.328487 18.206787
7.242672 38.262501 18.708247
5.861908 43.001428 11.295438
5.495446 42.792700 11.828623
5.414966 42.429831 12.408814
5.341214 42.149012 12.864961
5.486641 41.693635 13.439553
5.792647 41.039852 14.203932
5.339350 40.849415 14.764492
5.140767 40.762698 15.014870
5.129651 40.307805 15.686275
5.175901 39.964467 16.158989
5.154421 39.677053 16.592206
4.969104 39.302059 17.255418
4.886596 39.067866 17.648912
4.655468 38.942843 17.975520
4.242025 38.809049 18.428511
2.657139 43.327965 11.271097
2.373875 43.121997 11.725784
2.325653 42.671334 12.427901
2.411940 42.363414 12.846559
2.387589 41.911886 13.537751
2.378026 41.459662 14.222414
2.197114 41.276238 14.590790
2.251465 40.937180 15.072610
2.390681 40.547246 15.587440
2.190009 40.245911 16.143176
2.189168 39.957364 16.577338
2.139923 39.635635 17.086171
2.019021 39.362799 17.558211
1.824604 39.137786 17.996019
1.423249 38.974358 18.447245
0.913785 38.938044 18.762770
-1.637149 43.173416 11.684943
-1.593358 42.839499 12.184498
-1.666328 42.433786 12.838064
-1.585987 42.019169 13.448763
-1.515563 41.687015 13.935760
-1.715026 41.370674 14.498007
-1.490703 41.032274 14.937815
-1.289215 40.577694 15.565492
-1.405631 40.298456 16.039766
-1.567222 39.980588 16.590386
-1.616668 39.737340 16.984339
-1.627084 39.413594 17.488206
-1.665006 39.170029 17.878393
-2.049919 38.972150 18.326170
-2.601084 38.850965 18.716893
-4.900580 42.942355 11.645365
-4.975211 42.611286 12.183219
-4.817301 42.242355 12.722261
-4.708744 41.834523 13.334656
-4.559358 41.548947 13.745115
-4.822152 41.256762 14.269071
-4.576682 40.935189 14.711939
-4.366016 40.376570 15.535248
-4.462015 40.088703 16.010698
-4.500983 39.842005 16.407318
-4.496944 39.517709 16.914865
-4.437266 39.235823 17.341983
-4.772738 38.934279 17.898800
-4.918363 38.799288 18.146928
-5.328289 38.646352 18.489329
-8.326743 42.493977 11.452789
-8.432936 42.113641 12.067663
-8.245508 41.760043 12.605437
-8.049888 41.409001 13.138193
-8.038219 41.001752 13.781736
-8.222178 40.735251 14.225544
-8.051018 40.345264 14.822869
-7.742073 39.852846 15.566097
-7.764935 39.604379 15.962276
-7.740636 39.281250 16.471110
-7.618327 39.050225 16.822484
-7.669651 38.758189 17.291030
-7.803853 38.494356 17.724723
-8.105455 38.165159 18.281743
-8.508793 38.098750 18.434653
-12.032941 41.493886 11.687417
-11.962138 41.130611 12.265358
-11.830028 40.820111 12.760429
-11.552618 40.537128 13.214016
-11.505135 40.132366 13.857481
-11.261498 39.806066 14.379339
-11.101894 39.384786 15.050742
-10.975728 39.160408 15.408965
-11.023281 38.861779 15.882449
-11.014835 38.493249 16.467786
-10.914068 38.224925 16.895405
-10.978621 37.881125 17.440361
-11.087545 37.607284 17.873549
-11.320173 37.303341 18.352653
-11.788742 37.103541 18.662792
-15.558576 40.368144 11.546533
-15.459761 40.010856 12.126540
-15.261886 39.639639 12.743943
-15.143290 39.289930 13.315044
-15.015222 38.943817 13.881933
-14.786982 38.585706 14.483339
-14.507430 38.285556 15.001110
-14.391850 37.898695 15.630459
-14.371910 37.649263 16.027760
-14.254600 37.387661 16.459417
-14.204145 37.023784 17.042328
-14.073529 36.767345 17.467890
-14.192185 36.432794 17.978194
-14.457933 36.172960 18.347574
-14.907829 35.932172 18.658257
-18.918260 38.928525 11.500568
-18.880368 38.590937 12.038653
-18.567910 38.353292 12.500171
-18.465462 37.955335 13.151205
-18.311159 37.619976 13.719510
-18.292593 37.362480 14.126943
-17.992302 37.085019 14.647108
-17.536494 36.741877 15.314851
-17.602093 36.327279 15.943218
-17.463225 36.077026 16.374169
-17.382684 35.718927 16.956627
-17.261537 35.419904 17.458597
-17.138692 35.292498 17.693095
-17.252512 34.896304 18.278766
-17.612940 34.563462 18.694128
-18.268672 34.401493 18.757195
-22.024302 37.229051 11.562582
-21.905581 36.832113 12.220286
-21.609537 36.561729 12.757452
-21.306624 36.296494 13.289570
-21.284136 35.857901 13.971259
-20.964707 35.603848 14.493078
-20.670526 35.295886 15.087080
-20.460176 34.993561 15.637707
-20.276219 34.811448 15.993110
-20.052519 34.517980 16.535689
-20.061832 34.109770 17.157623
-19.837336 33.994365 17.427558
-19.805334 33.650187 17.968450
-20.142691 33.290791 18.379631
-20.663375 32.917817 18.735670
-25.035727 35.347620 11.420752
-24.944480 35.019666 11.959715
-24.631268 34.770810 12.501091
-24.526692 34.266735 13.310134
-24.257913 34.088325 13.722262
-24.226089 33.773756 14.208999
-23.883947 33.548115 14.731430
-23.377175 33.283669 15.401117
-23.348318 32.923021 15.955015
-23.147242 32.757328 16.311420
-23.010749 32.414853 16.896611
-22.729211 32.207681 17.358588
-22.669675 31.864625 17.902879
-22.732263 31.676504 18.149667
-23.035543 31.286929 18.566484
-23.708273 30.842043 18.865349
-28.067556 32.798097 11.770987
-27.826040 32.561492 12.273079
-27.462395 32.409911 12.734120
-27.144534 32.133669 13.344267
-27.114200 31.756645 13.907832
-26.756925 31.559584 14.430165
-26.366616 31.193542 15.218053
-26.066362 31.058306 15.613249
-25.930103 30.660621 16.277255
-25.694519 30.579026 16.552005
-25.541976 30.193471 17.209394
-25.347481 29.936598 17.709325
-25.224712 29.724880 18.096335
-25.375325 29.454577 18.385390
-25.930752 28.918551 18.787314
-29.576763 29.542498 13.801817
-29.313397 29.283347 14.365937
-28.774428 29.100665 15.039844
-28.496683 28.857999 15.592420
-28.391974 28.573421 16.067635
-27.271668 27.730754 18.108311
-27.590414 27.332645 18.409363
-27.987266 26.964334 18.608160
-33.149407 27.944051 11.397837
-32.962215 27.721755 11.857074
-32.628447 27.417502 12.555249
-32.371851 27.096110 13.206601
-32.080592 26.921783 13.696419
-31.982845 26.557664 14.261146
-31.496003 26.523904 14.742397
-30.929089 26.461354 15.333241
-30.794320 26.250145 15.730896
-30.576547 26.010288 16.240589
-30.265527 25.809744 16.782489
-30.036336 25.583344 17.284804
-29.894183 25.266715 17.827183
-29.828607 24.982221 18.258725
-30.018286 24.654386 18.517907
-30.560015 24.056248 18.815146
-35.355417 24.945767 11.528945
-35.168771 24.597232 12.144883
-34.779315 24.542260 12.604516
-34.503542 24.175259 13.332869
-34.281462 23.992119 13.781373
-33.808919 23.857442 14.422542
-33.399805 23.897539 14.785219
-33.091601 23.637394 15.415002
-32.860161 23.348092 16.003302
-32.703925 23.091556 16.475643
-32.372818 22.985654 16.939071
-32.038420 22.885943 17.398208
-31.953497 22.604541 17.829285
-31.946481 22.222642 18.305334
-32.106510 21.879523 18.565571
-37.415127 21.747751 11.587667
-37.106389 21.676667 12.010273
-36.721251 21.507810 12.628785
-36.409345 21.377454 13.122406
-36.176116 21.140432 13.650460
-35.776498 20.861347 14.410544
-35.291300 20.979615 14.812743
-34.881146 20.791532 15.480836
-34.706511 20.476773 16.032592
-34.454975 20.409878 16.387128
-34.193901 20.219335 16.893055
-33.837455 19.959470 17.583474
-33.733079 19.748780 17.938949
-33.625771 19.541091 18.294252
-33.821776 19.013238 18.678581
-34.331515 18.279001 18.950812
-39.047489 18.649201 11.523392
-38.728048 18.384494 12.182030
-38.331827 18.323805 12.720309
-38.078261 18.031034 13.329182
-37.833422 17.957048 13.699790
-37.416784 17.782395 14.381210
-36.854368 17.859980 14.974795
-36.497529 17.594199 15.679395
-36.327636 17.558743 15.920023
-36.046240 17.321902 16.504030
-35.778658 17.220315 16.930648
-35.411817 17.055545 17.542067
-35.225593 16.972483 17.851844
-35.142876 16.538653 18.402729
-35.292296 15.998243 18.786241
-35.826708 15.226864 18.948613
-40.583479 14.789885 11.708763
-40.266811 14.777242 12.129005
-39.847530 14.611385 12.823502
-39.455225 14.668485 13.276742
-39.232566 14.285575 13.918565
-38.824496 14.290091 14.440837
-38.271531 14.419775 15.034132
-37.976447 14.194076 15.623816
-37.718915 14.169343 15.978961
-37.416669 13.960217 16.562538
-37.196212 13.761259 17.031183
-36.846927 13.753170 17.489289
-36.603937 13.507816 18.029966
-36.532144 13.261272 18.350884
-36.738705 12.761904 18.546808
-37.093036 11.890895 18.896229
-41.624802 12.041154 11.383192
-41.485367 11.723004 11.835518
-41.138613 11.591852 12.414007
-40.819711 11.610342 12.830879
-40.416754 11.626577 13.363529
-40.198214 11.396803 13.849902
-39.774696 11.363024 14.451816
-39.214972 11.467901 15.123540
-38.939353 11.392071 15.559832
-38.643393 11.259665 16.070524
-38.325246 11.074098 16.655290
-38.063495 11.079168 17.005820
-37.719043 10.851670 17.660944
-37.520569 10.800409 17.972349
-37.364902 10.386628 18.525836
-37.574216 9.747463 18.771269
-42.566399 8.495354 11.279415
-42.318554 8.183866 11.852836
-41.982975 8.153303 12.351061
-41.562965 8.128907 12.964785
-41.181529 7.981704 13.611067
-40.881219 7.844249 14.135225
-40.524010 8.045712 14.499166
-39.891431 8.206252 15.283205
-39.648482 8.026165 15.756233
-39.342162 7.923633 16.264091
-39.033902 7.829274 16.768892
-38.773997 7.858962 17.116822
-38.386101 7.608366 17.845800
-38.243975 7.503926 18.121876
-38.193289 7.199286 18.410479
-38.206260 6.454549 18.921659
-42.947428 4.925735 11.553234
-42.611188 4.916650 12.054144
-42.221669 4.781160 12.708342
-41.802655 4.593627 13.436791
-41.630394 4.596330 13.689063
-41.179393 4.566915 14.371129
-40.728042 4.748329 14.929009
-40.276043 4.745283 15.596948
-40.019443 4.781010 15.953982
-39.700746 4.515084 16.580957
-39.413421 4.505959 17.009801
-39.095540 4.447813 17.512674
-38.807091 4.451735 17.935459
-38.678420 4.227330 18.257822
-38.579544 3.560193 18.798143
-38.864080 2.707015 18.883449
-43.280144 1.295013 11.458952
-42.994845 1.237080 11.919051
-42.626468 1.195955 12.497420
-42.257601 1.165108 13.071737
-41.855706 1.082510 13.720330
-41.618035 0.978992 14.129396
-41.149063 1.133494 14.769211
-40.698915 1.494525 15.284109
-40.394542 1.298162 15.837735
-40.121881 1.166753 16.312924
-39.765667 1.069216 16.899145
-39.546800 1.193784 17.173271
-39.191076 1.114535 17.750216
-38.892150 0.831210 18.336139
-38.871828 0.507272 18.518095
-38.794399 -0.180238 18.956334
-43.060109 -2.773867 11.741897
-42.727545 -2.720498 12.241362
-42.320073 -2.781506 12.894543
-42.031824 -2.791442 13.345776
-41.705470 -2.853399 13.873194
-41.459769 -2.931470 14.280516
-40.965957 -2.647777 14.955488
-40.475534 -2.350598 15.620796
-40.231942 -2.406131 16.017493
-39.869715 -2.475233 16.602993
-39.624668 -2.383142 16.953813
-39.262868 -2.434363 17.532821
-39.019253 -2.465241 17.921513
-38.813644 -2.710493 18.321038
-38.761569 -3.164970 18.550164
-38.691602 -4.151026 18.980431
-42.730255 -6.419483 11.672263
-42.439095 -6.423470 12.131903
-42.105601 -6.479072 12.668338
-41.700398 -6.357620 13.283218
-41.383401 -6.114902 13.735412
-41.010529 -6.197903 14.339254
-40.284003 -6.055053 15.456355
-38.227382 -7.231213 18.927169
-42.119777 -9.740758 11.547386
-41.860638 -9.807078 11.962796
-41.572090 -9.782151 12.419062
-41.189667 -9.857840 13.030690
-40.788542 -9.470112 13.642496
-40.298310 -9.172402 14.401422
-40.156962 -9.554718 14.650040
-39.828868 -9.540650 15.169747
-39.395809 -9.161287 15.832758
-39.146441 -9.172655 16.229166
-38.705141 -9.129576 16.926657
-38.385812 -9.078418 17.430095
-38.068222 -9.019130 17.930258
-37.847459 -9.095417 18.285408
-37.602329 -9.520844 18.701445
-37.543075 -10.011812 18.826716
-41.133211 -13.203428 11.620988
-40.869700 -13.247121 12.036185
-40.532567 -13.247858 12.571042
-40.293155 -13.367989 12.942929
-39.924365 -12.949515 13.555843
-39.417172 -12.434625 14.394753
-39.153314 -12.668683 14.797864
-38.879818 -12.582037 15.237554
-38.518785 -12.349865 15.825794
-38.167898 -12.422654 16.377692
-37.933386 -12.183488 16.765654
-37.518336 -12.185457 17.424057
-37.306699 -12.026964 17.770369
-36.996487 -12.251981 18.247626
-36.817948 -12.586820 18.508675
-36.498882 -13.115731 18.979808
-39.964768 -16.612290 11.505502
-39.530084 -16.776543 12.157950
-39.291497 -16.565164 12.575672
-38.859911 -16.302294 13.307676
-38.462933 -15.800891 14.032305
-38.181628 -15.610634 14.513160
-38.009299 -15.739632 14.759194
-37.551682 -15.970585 15.434592
-37.289582 -15.852464 15.870926
-36.900180 -15.615353 16.531370
-36.644479 -15.483307 16.960375
-36.337903 -15.379418 17.463976
-36.140656 -15.202950 17.809658
-35.865875 -15.368881 18.209821
-35.606812 -15.718503 18.548902
-35.313142 -16.378562 18.881145
-38.054941 -20.240543 11.852218
-37.848255 -20.193611 12.188786
-37.463015 -20.264708 12.762249
-36.746974 -19.015864 14.297219
-36.553866 -18.946235 14.620433
-36.197793 -19.162307 15.099406
-35.844719 -19.463420 15.544842
-35.649417 -19.194792 15.939052
-35.395219 -18.766692 16.478796
-35.041673 -18.766133 17.027432
-34.802517 -18.605251 17.453075
-34.454662 -18.493868 18.030526
-34.222046 -18.604945 18.353647
-33.875191 -19.048062 18.741201
-36.298557 -23.283110 11.801823
-35.905934 -23.328881 12.376486
-35.031217 -21.991213 14.328100
-34.843193 -21.906319 14.653110
-34.529567 -22.062924 15.056172
-34.138754 -22.613866 15.392517
-33.958672 -22.424804 15.754048
-33.692970 -21.725788 16.483351
-33.409591 -21.484157 17.026202
-33.008754 -21.375573 17.685313
-32.830579 -21.354445 17.965638
-32.413855 -21.511173 18.525146
-32.145231 -21.881730 18.760125
-34.403517 -26.309203 11.507211
-34.013764 -26.236320 12.124792
-33.695478 -26.123124 12.660834
-33.253645 -24.751173 14.122494
-32.936606 -24.796363 14.563146
-32.684294 -24.810675 14.926624
-32.347864 -25.028914 15.293647
-32.097786 -25.034640 15.658903
-31.789669 -24.617177 16.359674
-31.539369 -24.261296 16.938844
-31.328223 -24.064688 17.366220
-30.942069 -23.917032 18.022661
-30.633744 -24.005269 18.425042
-30.336491 -24.353315 18.657643
-31.737182 -29.234492 11.890618
-31.442896 -29.007608 12.469921
-31.076294 -28.125984 13.618307
-30.791347 -27.627965 14.377516
-30.491264 -27.551719 14.857729
-30.221234 -27.631956 15.183809
-29.847990 -27.908274 15.516684
-29.639623 -27.707661 15.955330
-29.540094 -27.046573 16.567557
-29.134812 -26.971273 17.196401
-28.881603 -26.767337 17.701056
-28.755632 -26.532833 18.046906
-28.356480 -26.697209 18.496300
-27.993719 -26.936182 18.840903
-29.459696 -31.678611 11.627625
-29.157968 -31.520728 12.167249
-28.721700 -31.638822 12.661116
-28.554447 -30.282650 14.009129
-28.297521 -30.259857 14.376322
-28.080432 -29.892545 14.974341
-27.645811 -30.064506 15.421438
-27.166783 -30.573606 15.650009
-26.982289 -29.337470 16.922154
-26.771890 -29.027625 17.463591
-26.508226 -28.890636 17.934333
-26.217795 -29.010027 18.229397
-25.772524 -29.227137 18.653609
-25.290795 -29.701551 18.914518
-26.628956 -34.003791 11.794856
-26.300957 -33.747019 12.455944
-25.784076 -32.701853 14.096267
-25.529353 -32.656629 14.465588
-25.242906 -32.365223 15.105687
-24.895008 -32.404420 15.515758
-24.403181 -31.359974 17.123238
-24.310540 -31.111991 17.473914
-23.896916 -31.045019 18.067586
-23.636235 -31.051979 18.395795
-23.113878 -31.229613 18.900507
-23.349788 -36.313437 11.835879
-23.083092 -36.102935 12.374670
-22.994821 -34.915025 13.725592
-22.714876 -34.771271 14.210191
-22.467909 -34.702337 14.577003
-22.062392 -34.552702 15.217522
-21.671742 -34.641260 15.590540
-21.174783 -33.633014 17.240458
-21.233125 -33.381506 17.434615
-20.917602 -33.110536 18.095042
-20.488142 -33.166672 18.548343
-20.027752 -33.387127 18.866223
-20.089602 -38.203914 11.933222
-19.887077 -37.891069 12.514152
-20.108978 -37.098374 13.176338
-20.180257 -36.461492 13.826248
-19.775136 -36.533112 14.190638
-19.418817 -36.520604 14.597487
-19.065402 -36.503245 15.006684
-18.259983 -35.941305 16.536703
-18.345656 -35.359000 17.108333
-18.286405 -35.011200 17.571404
-18.172071 -34.652208 18.107958
-17.801173 -34.682809 18.481562
-17.094977 -35.001012 18.895605
-16.773777 -39.430975 12.377158
-16.846385 -38.641962 13.276352
-16.904497 -38.005444 14.002222
-16.496427 -38.040958 14.367424
-15.981705 -38.221612 14.660717
-15.248569 -36.753819 17.203563
-15.282111 -36.415027 17.587295
-15.077987 -36.019425 18.279190
-14.767867 -36.121082 18.464751
-14.097520 -36.305030 18.909946
-13.362811 -40.917849 12.142836
-12.811364 -39.266318 14.802161
-12.401582 -39.172155 15.292849
-12.091296 -37.704776 17.494629
-12.096545 -37.350430 17.954464
-11.795676 -37.162223 18.470837
-11.543876 -37.167264 18.689887
-9.787897 -41.708804 12.473837
-10.227118 -40.424947 13.903628
-9.620865 -40.586860 14.154652
-9.069578 -40.246872 15.056038
-8.796083 -38.824206 17.235679
-8.826677 -38.471494 17.699013
-8.793811 -38.181306 18.125658
-8.369351 -38.092431 18.580809
-7.861642 -38.148722 18.900593
-6.163102 -42.547519 12.270099
-6.840051 -41.015049 14.033521
-5.968854 -41.023664 14.598134
-5.417693 -41.150878 14.779593
-5.380485 -40.778269 15.342023
-5.535244 -39.190062 17.531769
-5.601577 -38.841989 17.990204
-5.447284 -38.664440 18.348658
-4.829029 -38.621536 18.820089
-2.583133 -42.890140 12.327088
-2.901830 -42.250974 13.108968
-3.100019 -41.637938 13.917032
-2.763022 -41.565548 14.207426
-2.228822 -41.481266 14.622263
-2.142132 -41.160118 15.148646
-1.585543 -40.858227 15.900493
-2.173299 -39.744162 17.245853
-2.263015 -39.401766 17.708525
-2.146961 -39.127471 18.180841
-1.847764 -39.036272 18.478869
1.088047 -42.952122 12.331787
0.442800 -41.947029 13.607691
0.638016 -41.553527 14.291586
1.081727 -41.378370 14.742900
1.324317 -41.225908 15.076608
1.482433 -41.026046 15.448237
2.048756 -40.847581 15.955103
1.345012 -39.906007 17.109503
1.312287 -39.615604 17.541431
1.239528 -39.243997 18.081422
1.409596 -39.003839 18.519776
1.865990 -38.971883 18.756680
4.705212 -42.703949 12.340246
4.304937 -42.208881 13.001465
4.065379 -41.597811 13.889176
3.996745 -41.350442 14.256501
4.562386 -41.138803 14.746313
4.736105 -41.008358 14.999034
5.478750 -40.530443 15.954787
4.610298 -39.615548 17.140537
4.599784 -39.288078 17.649396
4.621972 -39.039614 18.043967
4.772525 -38.784882 18.484427
5.315278 -38.627443 18.883094
7.813785 -41.691499 13.025948
7.417847 -41.190360 13.758667
7.490063 -40.814202 14.364190
7.881813 -40.689957 14.619505
8.286384 -40.439454 15.076350
8.497493 -40.246160 15.413666
8.979181 -40.020135 15.843407
7.730890 -39.131376 17.060763
7.785583 -38.834571 17.538202
7.785635 -38.463341 18.125085
8.005296 -38.224298 18.536011
8.542982 -38.141752 18.747348
10.814538 -40.235845 14.051201
11.107692 -40.055714 14.342177
11.534937 -39.848853 14.677858
11.825690 -39.539839 15.173450
12.153690 -39.302665 15.555594
11.153112 -38.416052 16.946619
10.959781 -38.120677 17.412400
10.944869 -37.870031 17.810158
11.148175 -37.613286 18.221278
11.345954 -37.355282 18.634303
14.240234 -39.219759 13.981466
14.470970 -38.944925 14.389713
14.878211 -38.703157 14.724930
15.232203 -38.387614 15.183219
15.538425 -38.123517 15.565625
14.186064 -37.281342 17.057687
14.095966 -36.966936 17.566160
14.313654 -36.643171 18.053426
14.362364 -36.410659 18.415955
14.501207 -36.191015 18.747552
17.545863 -37.769386 14.162203
17.842959 -37.484928 14.534573
18.450316 -37.168738 14.879647
18.422542 -36.910555 15.291500
17.283349 -35.895046 17.167270
17.260330 -35.594844 17.643848
17.294740 -35.357401 18.007725
17.383092 -35.010514 18.529865
17.787817 -34.792205 18.771747
20.768486 -36.259841 13.982237
20.073417 -34.229773 17.376139
20.854237 -33.082451 18.850445
24.286408 -33.803820 14.582030
24.524652 -33.471691 14.961237
24.452225 -33.223408 15.371608
23.220634 -32.712712 16.764066
23.036251 -32.488037 17.195613
22.868547 -32.207396 17.702945
22.882206 -31.910480 18.142909
22.889881 -31.615501 18.582988
23.288077 -31.216255 18.982192
27.136903 -31.658414 14.486777
27.186186 -31.269329 15.022430
27.205923 -30.947894 15.478211
25.858130 -30.793871 16.554615
25.693815 -30.459629 17.145404
25.705809 -30.096288 17.667127
25.694447 -29.797093 18.110169
25.555604 -29.640643 18.425854
25.827577 -29.227192 18.856227
29.702827 -29.336469 14.368477
29.669296 -29.144967 14.661425
29.682673 -28.755500 15.195731
28.261337 -28.237552 16.990948
28.142065 -27.961664 17.466471
27.915402 -27.777966 17.894072
27.986280 -27.334506 18.460511
28.113977 -27.050648 18.761038
28.512163 -26.683229 18.974501
32.761019 -27.268858 13.073105
32.309991 -27.070385 13.728288
32.115329 -26.796880 14.260954
31.978796 -26.636516 14.592695
30.904637 -26.020398 16.343882
30.592885 -25.810926 16.892911
30.445564 -25.607579 17.291188
30.217220 -25.314974 17.878471
30.158156 -24.962003 18.399252
30.265737 -24.605636 18.780027
34.441151 -24.362620 13.644504
34.232690 -24.034733 14.258757
34.180849 -23.710990 14.715126
34.118577 -23.459384 15.091237
33.047303 -23.319056 16.311527
32.546200 -23.277296 16.852398
32.384629 -23.021962 17.329988
32.303572 -22.605102 17.931567
32.217514 -22.507521 18.137788
32.209145 -22.058053 18.709380
36.295505 -20.844634 14.193814
36.215161 -20.666552 14.487405
36.292412 -20.125714 15.030179
34.713264 -20.154323 16.711884
34.611194 -19.866760 17.155923
34.422968 -19.631380 17.633057
34.223780 -19.339143 18.187975
34.187974 -19.016999 18.600122
38.560505 -18.025668 13.135139
38.077783 -18.019578 13.710397
37.737442 -17.784331 14.361868
37.778726 -17.305875 14.822622
37.757242 -17.086567 15.081425
37.028842 -17.268423 15.746057
36.359182 -17.280568 16.522161
36.098937 -17.233838 16.878550
35.864607 -16.822131 17.592984
35.687076 -16.793875 17.832245
35.617185 -16.410700 18.322550
35.630357 -16.036750 18.705163
40.086605 -14.665702 13.008457
39.521931 -14.684393 13.703802
39.175604 -14.067559 14.734873
39.148824 -13.918993 14.911666
38.426062 -14.092662 15.657585
37.746375 -14.095750 16.513236
37.410538 -14.131408 16.903172
37.188737 -13.927519 17.379565
36.947267 -13.669017 17.933358
36.861570 -13.355177 18.343619
36.771469 -13.044532 18.756369
40.602385 -11.327929 13.724520
40.312631 -11.160663 14.255304
40.360189 -10.686797 14.596241
39.443553 -10.772054 15.750760
38.804679 -10.960601 16.445177
38.454140 -10.963082 16.912407
38.216542 -10.779888 17.386958
37.996809 -10.662830 17.781118
37.777144 -10.307260 18.378841
37.773835 -10.055335 18.598381
39.290080 -7.654855 16.887974
39.001154 -7.620733 17.319215
38.772451 -7.520633 17.714635
38.524378 -7.182575 18.313311
38.500144 -6.930596 18.533770
41.408919 -4.336248 14.554748
41.291016 -4.073029 14.890669
40.513528 -4.166913 15.968444
39.884926 -4.403939 16.739669
39.594490 -4.391870 17.171583
39.267671 -4.142372 17.804260
39.053457 -3.935726 18.245752
38.868301 -3.788325 18.607950
39.953474 -1.100824 16.951514
39.628689 -1.062643 17.460361
39.469917 -0.975252 17.743253
39.169165 -0.683663 18.341743
39.031373 -0.338193 18.721202
42.081244 1.904512 13.490050
42.008128 2.176354 13.703787
41.523125 2.335812 14.511826
41.440263 2.462063 14.686606
41.290274 2.978762 15.109870
39.949514 2.136733 16.867781
39.583495 2.200685 17.456671
39.299782 2.423703 17.977477
39.093131 2.542160 18.340506
38.846148 2.970180 18.880644
41.774454 5.484463 13.326109
41.187794 5.728710 14.303308
40.966348 6.009723 14.714668
40.806538 6.595410 15.097709
40.703548 6.847326 15.316308
39.658600 5.892279 16.744008
39.288865 5.922998 17.332143
39.083831 5.893864 17.647897
38.770493 6.218665 18.213565
38.598263 6.269716 18.495801
41.054145 9.061725 13.535371
40.811315 9.333318 13.945920
40.478521 9.336757 14.473796
40.280901 9.546358 14.806831
40.023746 10.164099 15.272727
38.834222 9.225343 17.069873
38.604041 9.092511 17.422236
38.354250 9.088572 17.817839
38.064647 9.567103 18.322045
37.841009 9.866801 18.704819
40.372697 12.124934 13.207286
39.441588 12.560050 14.669019
39.013937 13.479217 15.313149
38.228824 12.509327 16.596292
37.888090 12.350380 17.143248
37.601078 12.144193 17.606707
37.288840 12.377438 18.093578
37.094220 12.624156 18.393212
39.276471 15.522171 13.096681
38.921715 15.710214 13.624599
38.653049 16.026767 13.994618
38.434653 15.889377 14.362919
38.150809 16.105126 14.774144
37.892810 16.499272 15.114049
37.593345 16.612151 15.567532
37.209129 16.068559 16.267111
36.726035 15.583640 17.112758
36.521967 15.413443 17.464051
36.116555 15.466003 18.095120
35.946471 15.568747 18.346070
35.687160 15.921173 18.695184
37.608492 18.799285 13.457359
37.357241 18.873030 13.826875
36.976713 18.833933 14.431963
36.727999 18.896391 14.800925
36.451350 19.453521 15.064358
35.544105 18.637459 16.724849
35.179349 18.452240 17.349384
34.993849 18.358170 17.666960
34.644215 18.440345 18.187330
34.298715 18.704015 18.646557
36.022540 21.607701 13.408319
35.646042 22.096435 13.774044
35.452273 21.927310 14.142919
35.080289 21.758242 14.784234
34.882081 22.228443 14.885340
34.564412 22.480164 15.262910
33.629058 21.351239 17.177744
33.455778 21.149469 17.529313
33.047612 21.133602 18.160154
32.688656 21.273523 18.648857
32.476826 21.722549 18.779882
34.160751 24.398962 13.401336
33.745679 24.855465 13.766031
33.566189 24.671459 14.135124
33.200670 24.565073 14.738040
32.900756 25.043855 14.919012
32.436255 25.317677 15.458512
31.796339 23.950517 17.168530
31.593105 23.661759 17.631014
31.189951 23.610876 18.259177
30.986810 23.761733 18.477878
31.836304 27.123914 13.686564
31.450687 27.517800 13.974831
30.885054 27.451701 14.832449
29.776148 26.739195 16.907415
29.614031 26.345019 17.406603
29.376774 26.052262 17.945303
29.121791 26.109296 18.273276
28.680542 26.464699 18.667488
29.575223 29.638970 13.580572
28.581250 29.727666 14.878561
27.796569 30.236621 15.555674
27.491499 29.105462 16.871314
27.391243 28.609280 17.402217
27.029066 28.406001 18.061726
26.772312 28.440305 18.387989
26.304855 28.756090 18.781398
24.816264 31.310058 16.919378
24.727198 30.894169 17.415092
24.474502 30.739904 17.884252
24.028861 30.759540 18.445094
23.658861 31.028466 18.679897
24.020913 35.735869 12.108796
24.147736 34.128862 13.589726
23.726984 34.006568 14.227096
23.556392 33.776707 14.668992
23.196108 33.962931 14.918655
22.700018 34.152075 15.330898
22.163184 34.418088 15.714574
21.990981 34.338475 16.005520
22.064879 33.501307 16.767464
22.133855 32.827897 17.368743
21.830184 32.652117 17.917824
21.507277 32.640222 18.323560
21.097562 32.791275 18.669277
21.119094 37.595195 11.959731
21.201353 35.930831 13.722702
20.998193 35.772634 14.128810
20.802440 35.611228 14.530121
20.384700 35.604658 15.009755
19.944682 35.754644 15.339999
19.504547 35.899671 15.675904
19.397452 34.551940 17.299879
19.109506 34.352676 17.847642
18.839814 34.234980 18.283809
18.430510 34.441263 18.516548
18.175309 37.399212 13.901535
17.921612 37.218397 14.381858
17.622129 37.109605 14.822793
17.236466 37.232827 15.073403
16.663693 37.412295 15.449860
16.210898 37.517921 15.791128
16.368638 36.358293 17.024867
16.502066 35.867904 17.477558
16.172194 35.631979 18.103088
15.860648 35.654561 18.398244
15.255711 35.872336 18.761834
14.642600 40.471536 12.079610
14.519464 40.296950 12.418848
14.976937 38.757040 13.972173
14.805526 38.566423 14.377022
14.323371 38.480295 14.937205
13.986118 38.497824 15.229050
13.208990 38.669590 15.732640
13.442459 37.175892 17.435364
13.310923 36.964306 17.830001
13.058178 36.892028 18.158530
12.504015 36.902988 18.661015
11.203994 41.801442 11.586738
11.010912 41.520890 12.126341
11.182273 39.929184 14.161817
10.967514 39.704773 14.642287
10.565209 39.590487 15.124217
10.229509 39.661304 15.299356
10.298975 38.816741 16.396762
10.183136 38.512866 16.905667
10.075348 38.206551 17.411385
9.721625 37.982534 18.003861
9.479593 37.886607 18.330911
8.973126 37.957068 18.644835
7.656728 42.641145 11.551320
7.554310 42.283951 12.132538
7.326008 41.964047 12.747974
7.651338 41.318103 13.444306
7.856368 40.711622 14.167875
7.660871 40.470265 14.648356
7.319045 40.516517 14.819817
6.866532 40.341349 15.384362
7.067923 39.530108 16.402848
6.919055 39.191652 16.989583
6.838116 38.876969 17.495173
6.730421 38.732582 17.776180
6.439296 38.591080 18.180517
5.947659 38.534427 18.603013
4.036523 43.032455 11.719407
3.895598 42.723436 12.257836
3.974396 42.329082 12.796660
4.215496 41.740616 13.529890
4.524254 41.264666 14.057703
4.286182 40.980116 14.615593
3.954892 40.914218 14.903127
3.926229 40.628332 15.342933
3.862130 40.228179 15.972275
3.657206 39.933687 16.525884
3.651631 39.645319 16.956127
3.597104 39.325400 17.461162
3.447829 39.141319 17.819356
3.117357 38.943661 18.301546
2.738490 38.911345 18.566626
0.624249 43.298470 11.524531
0.441279 42.947540 12.141214
0.487096 42.528693 12.758678
0.544435 42.110242 13.370369
0.613189 41.692303 13.976157
0.536339 41.371962 14.498620
0.584960 41.119141 14.861919
0.624751 40.668039 15.531223
0.549200 40.428905 15.929398
0.450102 40.072102 16.517387
0.521939 39.820026 16.869134
0.358801 39.508530 17.416847
0.224988 39.313058 17.774661
-0.088430 39.089216 18.256293
-0.513033 38.988923 18.599620
-2.843828 43.309753 11.286193
-3.018150 43.026712 11.782047
-3.025001 42.656028 12.360931
-3.001298 42.204746 13.055475
-2.985616 41.835345 13.625187
-2.959863 41.466633 14.190620
-2.868231 41.137503 14.673497
-2.714553 40.848227 15.074611
-2.663384 40.482550 15.627229
-2.738561 40.119206 16.216449
-2.836518 39.834933 16.689904
-2.792319 39.550202 17.118808
-2.973049 39.185671 17.743482
-3.220380 38.976970 18.146928
-3.503212 38.844972 18.442344
-4.091454 38.782357 18.727064
-6.965485 42.741448 11.518964
-7.025599 42.407436 12.056673
-6.877502 42.125698 12.475435
-6.753448 41.723057 13.089232
-6.648059 41.401178 13.578826
-6.728014 41.028055 14.181738
-6.572410 40.631643 14.780183
-6.268438 40.248625 15.331521
-6.352578 39.957456 15.805813
-6.293821 39.677516 16.237373
-6.188126 39.322938 16.778524
-6.340742 38.945786 17.400512
-6.393709 38.775345 17.678798
-6.620706 38.546914 18.079071
-7.064976 38.331848 18.496274
-7.643611 38.216347 18.779846
-10.353930 42.029189 11.491626
-10.386758 41.691901 12.028472
-10.324297 41.327322 12.604506
-10.251896 40.965035 13.176471
-10.118745 40.653159 13.665776
-10.116173 40.322658 14.190313
-9.879823 39.988369 14.710721
-9.686647 39.488485 15.495871
-9.653763 39.285855 15.816106
-9.616573 38.963678 16.325927
-9.437876 38.666096 16.790565
-9.475839 38.371988 17.259089
-9.506621 38.078626 17.726117
-9.713695 37.832073 18.126487
-10.138299 37.580854 18.543701
-10.852576 37.510311 18.686672
-13.690566 41.024655 11.653967
-13.518576 40.641359 12.274932
-13.374833 40.335911 12.770282
-13.086942 40.063490 13.224111
-12.977259 39.712161 13.789673
-12.903506 39.312654 14.428945
-12.548964 38.979479 14.984170
-12.367569 38.689617 15.457636
-12.444665 38.339096 16.007830
-12.340195 38.072858 16.438024
-12.307812 37.707860 17.019437
-12.357294 37.362331 17.563797
-12.417931 37.135354 17.919264
-12.603112 36.873952 18.319945
-13.098584 36.606140 18.707400
-17.265291 39.886919 11.216179
-17.288656 39.617777 11.634239
-17.173689 39.264813 12.214731
-16.824514 38.944882 12.795120
-16.818218 38.434501 13.599098
-16.720041 38.164522 14.045378
-16.392996 37.928758 14.488513
-16.008531 37.630338 15.042887
-15.930296 37.315492 15.555307
-15.916282 36.895248 16.219252
-15.819638 36.586898 16.725531
-15.648154 36.389043 17.074621
-15.696979 35.987611 17.695074
-15.797755 35.817791 17.939812
-16.052213 35.547506 18.308517
-16.645237 35.186268 18.745308
-20.474795 38.224162 11.382713
-20.383502 37.947913 11.842577
-20.277062 37.547681 12.499786
-19.950144 37.326000 12.957673
-19.694618 36.990142 13.567401
-19.796505 36.679078 14.013516
-19.523247 36.352793 14.614626
-19.088948 35.968266 15.362365
-19.008882 35.778768 15.683928
-18.864832 35.358310 16.385639
-18.711592 35.115406 16.815557
-18.581796 34.819378 17.319545
-18.605542 34.583619 17.676394
-18.799125 34.180568 18.232865
-19.096812 33.943556 18.495689
-19.606687 33.644605 18.780117
-23.580520 36.439656 11.284345
-23.595199 36.107045 11.780812
-23.330076 35.780642 12.402129
-23.123073 35.335748 13.174934
-22.830347 35.207779 13.509103
-22.937943 34.826343 14.034900
-22.484809 34.650003 14.519258
-22.021820 34.302099 15.268061
-22.009953 33.939830 15.822161
-21.723939 33.770987 16.214985
-21.628373 33.364147 16.876716
-21.332019 33.203944 17.261423
-21.265855 32.916394 17.728464
-21.381469 32.615445 18.128572
-21.721456 32.181193 18.622820
-22.373031 31.879773 18.766487
-26.647250 34.157976 11.477840
-26.539978 33.835960 12.015527
-26.214427 33.602828 12.554941
-25.973411 33.366110 13.048417
-25.781206 33.005034 13.694886
-25.709501 32.757435 14.101787
-25.407967 32.420208 14.779465
-24.865306 32.242087 15.369624
-24.684448 32.020660 15.804218
-24.540977 31.680497 16.390469
-24.348715 31.467788 16.819171
-24.189277 31.138606 17.398974
-24.078904 30.919057 17.788119
-24.074125 30.626675 18.220225
-24.359064 30.226144 18.635615
-25.011434 29.752093 18.936383
-29.294094 32.070595 11.208289
-29.254024 31.740547 11.703625
-29.077537 31.309732 12.440254
-28.682406 31.244027 12.819637
-28.486903 30.830001 13.546336
-28.417429 30.521146 14.033057
-28.031269 30.404611 14.477745
-27.516892 30.138536 15.226682
-27.302430 29.994658 15.585479
-27.043959 29.685591 16.209564
-26.852195 29.425388 16.716239
-26.640040 29.232274 17.142921
-26.449677 28.921469 17.720067
-26.422025 28.630186 18.151633
-26.571986 28.292683 18.519687
-27.093454 27.793752 18.846372
-31.935926 29.385416 11.297595
-31.866508 29.061160 11.792552
-31.527733 28.812814 12.412288
-31.234351 28.687463 12.828220
-30.971446 28.429124 13.397480
-30.908404 27.990931 14.040430
-30.513556 27.908221 14.484458
-29.965328 27.753032 15.155283
-29.775845 27.433538 15.744996
-29.567446 27.185630 16.254290
-29.333655 27.070546 16.606190
-29.035444 26.800489 17.220972
-28.817992 26.508769 17.796865
-28.758095 26.283595 18.150431
-28.873066 25.996643 18.439809
-29.440608 25.423556 18.733009
-34.282122 26.476315 11.493915
-34.071140 26.335630 11.873426
-33.724829 26.046080 12.570946
-33.346944 25.908415 13.105255
-33.070870 25.607315 13.750707
-33.016209 25.421342 14.039250
-32.633301 25.235971 14.639023
-32.086520 24.996917 15.462850
-31.843010 24.958908 15.742659
-31.625796 24.599637 16.406167
-31.386664 24.441345 16.834834
-31.144022 24.287934 17.260627
-30.986610 24.039132 17.726762
-30.908789 23.818367 18.081577
-31.002015 23.276074 18.682847
-31.517342 22.717519 18.903601
-36.287302 23.499718 11.619407
-35.982106 23.415940 12.040318
-35.687736 23.193009 12.615267
-35.387687 22.978530 13.186149
-35.086310 22.702828 13.831215
-34.771036 22.574875 14.315254
-34.284174 22.602822 14.794594
-33.883392 22.396732 15.461552
-33.723757 22.075050 16.012058
-33.558241 21.889617 16.406771
-33.306794 21.751973 16.835135
-33.050309 21.556471 17.337590
-32.786118 21.305842 17.913698
-32.763401 20.925394 18.389924
-32.914364 20.638081 18.572573
-38.279018 20.053383 11.662987
-37.889555 19.824267 12.362781
-37.572709 19.633629 12.936712
-37.173983 19.569068 13.468191
-37.005973 19.301602 13.953537
-36.600549 19.252808 14.475610
-36.038831 19.376077 14.991281
-35.771785 19.046978 15.658246
-35.519530 18.988856 16.013284
-35.240445 18.678323 16.673975
-34.968521 18.504925 17.177184
-34.795147 18.472866 17.412620
-34.578126 18.134958 18.031299
-34.451148 17.873677 18.462451
-34.698922 17.284961 18.816336
-39.793471 16.858359 11.654639
-39.392375 16.734013 12.275853
-39.055300 16.497027 12.929015
-38.652661 16.464949 13.460841
-38.471387 16.280414 13.868593
-38.063897 16.262868 14.392063
-37.486634 16.230181 15.141375
-37.222450 16.121207 15.577331
-36.955933 16.017902 16.010574
-36.664043 15.793616 16.595049
-36.379456 15.641263 17.099272
-36.078109 15.435495 17.677168
-35.873592 15.300166 18.065096
-35.813789 15.049874 18.387052
-36.029083 14.501277 18.662527
-38.845398 13.069431 14.970839
-38.403460 12.973390 15.638613
-38.214193 12.893446 15.958935
-37.921463 12.754211 16.468157
-37.643064 12.684167 16.897265
-37.309100 12.439461 17.554175
-37.094438 12.319085 17.943759
-37.014678 12.072619 18.266995
-37.028387 11.580764 18.684068
-37.352930 10.698749 19.036411
-42.038218 10.149210 11.586047
-41.687880 10.027759 12.165995
-41.316746 9.846713 12.820804
-40.951386 10.015585 13.197498
-40.640587 9.789888 13.803042
-40.300572 9.772417 14.288401
-39.766020 9.960546 14.885035
-39.403796 9.896127 15.437455
-39.082382 9.712013 16.025632
-38.842880 9.530661 16.497999
-38.537149 9.425096 17.003779
-38.206133 9.269382 17.583359
-37.958422 9.110647 18.049660
-37.770750 8.887491 18.482367
-37.916848 8.366880 18.681471
-38.192553 7.516217 18.955474
-42.745671 6.681597 11.541595
-42.386444 6.587634 12.122842
-42.048969 6.571897 12.621411
-41.627174 6.566155 13.235433
-41.322707 6.431846 13.763863
-41.016165 6.306118 14.289680
-40.498268 6.537054 14.887809
-40.072579 6.573833 15.479631
-39.767942 6.284253 16.109951
-39.508730 6.314103 16.465444
-39.167795 6.175332 17.049559
-38.935100 6.272549 17.322587
-38.620228 6.019567 17.943759
-38.529179 5.843620 18.190668
-38.432378 5.301054 18.685897
-38.668002 4.483920 18.879901
-43.095243 2.935240 11.707216
-42.729076 2.876004 12.286671
-42.337770 2.966108 12.824424
-41.940706 2.862599 13.473635
-41.685689 2.884843 13.843468
-41.347469 2.924858 14.328379
-40.790600 3.080297 15.079205
-40.483648 3.197513 15.476316
-40.187835 2.992789 16.027760
-39.837802 2.875578 16.613863
-39.499260 2.957446 17.077026
-39.244105 3.020929 17.425162
-38.992756 2.770876 17.934138
-38.788118 2.448381 18.411688
-38.762151 1.939974 18.720595
-43.228902 -0.946644 11.602107
-42.859508 -0.973461 12.181105
-42.513572 -0.786406 12.640265
-42.074423 -0.917536 13.367457
-41.822961 -0.872795 13.736942
-41.519355 -1.219375 14.339886
-41.122449 -0.783743 14.780167
-40.511726 -0.677535 15.678488
-40.307099 -0.688149 15.997566
-39.985071 -0.719741 16.505537
-39.699795 -0.691076 16.933355
-39.340721 -0.757745 17.512073
-39.061398 -0.848385 17.977440
-38.866150 -1.101242 18.376928
-38.755665 -1.652500 18.762794
-43.114303 -4.349324 11.379191
-42.866289 -4.592569 11.831498
-42.495649 -4.585004 12.409994
-42.206788 -4.307818 12.789604
-41.798512 -4.341506 13.437877
-41.511119 -4.332452 13.885602
-41.222438 -4.456046 14.370180
-40.698087 -4.342440 15.161564
-40.339987 -4.002660 15.633177
-40.015837 -4.013887 16.143795
-39.770224 -4.052913 16.538713
-39.364476 -4.145620 17.198526
-39.165393 -3.989767 17.469392
-38.837876 -4.104013 18.012339
-38.586622 -4.251789 18.444651
-38.499998 -4.968406 18.768509
-42.578666 -7.950416 11.423216
-42.277129 -8.087806 11.918493
-41.896713 -8.189482 12.533901
-41.632168 -7.887892 12.912887
-41.222176 -7.885124 13.561363
-40.859131 -7.816988 14.126943
-40.607183 -7.860338 14.531371
-40.202719 -7.824070 15.166690
-39.678721 -7.423208 15.943218
-39.475757 -7.396711 16.260937
-39.138084 -7.504267 16.809476
-38.877878 -7.290413 17.193137
-38.468294 -7.334367 17.847113
-38.251522 -7.420688 18.201525
-38.071662 -7.816069 18.538178
-37.942159 -8.390542 18.818698
-41.861780 -11.479250 11.276334
-41.499658 -11.647756 11.851290
-41.184993 -11.525751 12.351061
-40.846748 -11.309181 12.888334
-40.414075 -11.410846 13.575368
-40.155862 -10.989342 13.985675
-39.802756 -10.884416 14.546481
-39.401931 -11.040632 15.182905
-39.177144 -10.691210 15.540086
-38.831973 -10.559873 16.088307
-38.534462 -10.600839 16.560737
-38.216042 -10.543303 17.066432
-37.948139 -10.437942 17.491932
-37.578015 -10.626585 18.079583
-37.344858 -10.915126 18.449664
-37.197866 -11.348661 18.682825
-40.568727 -14.998611 11.570609
-40.283633 -14.943419 12.029089
-39.927803 -14.841305 12.605738
-39.262035 -14.473038 13.708196
-38.848341 -13.981577 14.428118
-38.608409 -14.385928 14.754104
-38.301243 -14.421220 15.235495
-37.933844 -14.081988 15.861940
-37.669247 -13.970114 16.295512
-37.302694 -13.927306 16.881253
-37.043049 -13.802005 17.308772
-36.617541 -13.681688 17.998100
-36.336952 -13.762863 18.431342
-36.208165 -14.149953 18.583736
-35.900613 -14.947560 18.964503
-38.979800 -18.393201 11.855620
-38.701087 -18.310747 12.313862
-38.435837 -18.312806 12.728642
-38.043812 -17.713627 13.501157
-37.727969 -17.152789 14.144235
-37.382308 -17.392942 14.621861
-37.044283 -17.717519 15.065173
-36.841880 -17.556259 15.424802
-36.563045 -17.148272 15.969450
-36.248855 -16.952983 16.513126
-35.945497 -16.842825 17.017293
-35.536355 -16.786808 17.672757
-35.245143 -16.753421 18.137575
-34.968802 -16.997505 18.505621
-34.753153 -17.399182 18.736899
-37.591666 -21.659314 11.403174
-37.260884 -21.690105 11.899966
-36.986432 -21.492828 12.399838
-36.050966 -20.197880 14.348619
-35.684466 -20.313968 14.866796
-35.380058 -20.667703 15.195932
-35.073194 -20.644910 15.677012
-34.887671 -20.275621 16.107755
-34.647462 -20.024520 16.576125
-34.295096 -19.916511 17.160742
-33.947508 -19.798440 17.741967
-33.768855 -19.785203 18.022032
-33.417174 -19.936675 18.503490
-33.113954 -20.247701 18.847603
-35.258394 -24.819174 11.967207
-35.072762 -24.383582 12.471763
-34.710778 -23.857228 13.288088
-34.553377 -23.134079 13.899423
-33.189256 -27.728123 11.581724
-32.870890 -27.609220 12.120162
-32.557521 -27.482821 12.656284
-32.161419 -26.185142 14.079639
-31.777728 -26.240135 14.598612
-31.396964 -26.286662 15.118901
-31.162208 -26.537493 15.294104
-30.817001 -26.388416 15.891140
-30.654779 -25.917337 16.434502
-30.464619 -25.624829 16.901254
-30.139481 -25.452388 17.484571
-29.820835 -25.270916 18.064418
-29.488315 -25.437699 18.436115
-29.114214 -25.785022 18.749648
-30.632891 -30.522262 11.666988
-30.376970 -30.441617 12.084307
-29.985465 -30.399330 12.659999
-29.788133 -28.961865 14.045548
-29.400245 -28.984298 14.566164
-29.235246 -28.859520 14.891519
-28.872806 -29.033359 15.259729
-28.331525 -29.411170 15.718206
-28.140484 -28.259832 16.873716
-27.918418 -27.958965 17.414420
-27.676752 -27.742328 17.917158
-27.297310 -27.800606 18.398334
-27.018681 -28.099905 18.553263
-26.496063 -28.601279 18.890280
-27.956014 -32.951577 11.739890
-27.618073 -32.708408 12.400686
-27.185900 -31.498151 14.041429
-26.862888 -31.475988 14.486992
-26.470055 -31.294513 15.165587
-26.160278 -31.424611 15.458976
-25.632398 -30.401326 17.060493
-25.468444 -30.163332 17.487276
-25.212871 -30.014593 17.955903
-24.733590 -30.132034 18.484014
-24.466752 -30.318164 18.671201
-25.160215 -35.156519 11.693657
-24.844460 -34.886647 12.352916
-24.271110 -33.914351 14.028142
-24.056068 -33.773200 14.434846
-23.888947 -33.379593 15.032402
-23.503285 -33.489109 15.402238
-22.954551 -32.513775 17.049939
-22.787873 -32.178226 17.589384
-22.608340 -32.008045 17.980821
-22.224821 -32.001586 18.462981
-21.838761 -32.247835 18.697749
-21.946784 -37.209575 11.847427
-21.729426 -36.907684 12.427563
-21.912636 -36.106109 13.090252
-21.771938 -35.553378 13.855456
-21.172492 -35.888345 14.182110
-20.971235 -35.727999 14.589295
-20.795230 -35.400971 15.149112
-20.513917 -35.396158 15.479089
-19.987121 -34.370437 17.205806
-19.865675 -34.106564 17.633766
-19.749485 -33.839866 18.058741
-19.257273 -33.874127 18.589553
-18.801361 -34.166621 18.796841
-18.286293 -38.975014 12.125970
-17.343925 -37.138134 15.303886
-16.690618 -35.868172 17.502869
-16.721426 -35.615108 17.772031
-16.337798 -35.455578 18.364877
-15.854341 -35.618849 18.677941
-15.234494 -40.074985 12.399550
-15.531937 -39.232860 13.181856
-15.569480 -38.755556 13.750697
-15.158051 -38.778163 14.115897
-14.612827 -38.773542 14.643672
-14.388544 -38.651490 15.013018
-13.872669 -37.353689 17.151255
-13.856585 -37.000825 17.613757
-13.665470 -36.685640 18.196067
-13.413311 -36.704275 18.413836
-12.798953 -36.792620 18.889995
-11.788430 -41.181986 12.487893
-12.096658 -40.435537 13.227823
-12.168115 -39.878750 13.914303
-12.015684 -39.761088 14.201636
-11.220346 -39.898713 14.692334
-10.949898 -39.996759 14.790421
-10.811229 -37.951960 17.652116
-10.580568 -37.688918 18.200967
-10.395761 -37.620279 18.450008
-9.766218 -37.746969 18.814593
-7.934655 -42.238024 12.305476
-7.777728 -42.108480 12.602106
-8.419533 -40.550406 14.340886
-7.875686 -40.706126 14.513979
-7.200748 -40.810624 14.854284
-7.141795 -40.525439 15.300119
-7.209252 -39.018239 17.382284
-7.273609 -38.581057 17.953854
-6.999182 -38.356403 18.469918
-6.509513 -38.306227 18.894937
-4.625556 -42.736967 12.204851
-5.093153 -41.209387 14.165562
-4.347719 -41.236776 14.575841
-3.790410 -41.341476 14.758893
-3.753066 -41.052070 15.206464
-3.315447 -40.838253 15.784935
-3.900617 -39.438122 17.487428
-4.002055 -39.006973 18.059280
-3.722859 -38.844510 18.466594
-3.132806 -38.892132 18.753256
-0.760085 -42.846951 12.523090
-1.171276 -42.253141 13.225233
-1.427537 -41.845896 13.719104
-1.028931 -41.726799 14.090333
-0.573367 -41.570279 14.545501
-0.477777 -41.328691 14.957067
0.165577 -40.849347 15.990959
-0.522229 -39.793800 17.259729
-0.677175 -39.489703 17.645948
-0.601739 -39.127773 18.230067
-0.205953 -38.951421 18.686635
0.335728 -38.983105 18.898093
2.840909 -42.881151 12.309547
2.251713 -41.747919 13.860289
2.414943 -41.546606 14.229023
2.851660 -41.353318 14.680521
3.005537 -41.148543 15.051364
3.575828 -40.740015 15.882853
2.836317 -39.829059 17.036875
2.720885 -39.380727 17.691342
2.763586 -39.014141 18.274196
3.047901 -38.885896 18.571867
3.549793 -38.792726 18.890930
6.548503 -42.424755 12.424899
6.043400 -41.909336 13.126924
5.749702 -41.430297 13.817288
5.727009 -41.142958 14.264472
6.091992 -40.957454 14.635017
6.591263 -40.760650 15.052291
6.861211 -40.533026 15.468616
7.162141 -40.382163 15.770850
6.311876 -39.457068 17.043013
6.289977 -39.129231 17.554085
6.126118 -38.813596 18.015354
6.353983 -38.464444 18.613808
6.760553 -38.418069 18.774423
9.517597 -41.262297 13.120113
8.993106 -40.874271 13.691689
8.998170 -40.544688 14.214774
9.483362 -40.313014 14.622657
9.953933 -40.200274 14.840712
10.301568 -39.855789 15.416016
10.498329 -39.654548 15.751570
9.437590 -38.828079 16.973693
9.430436 -38.457949 17.560060
9.330551 -38.184378 17.985563
9.448120 -37.914485 18.423378
9.966792 -37.692727 18.818330
12.674604 -39.931407 13.733335
12.561300 -39.579747 14.297287
13.069486 -39.254647 14.787286
13.616595 -38.996278 15.169380
13.664467 -38.810785 15.461345
13.886059 -38.540283 15.879351
12.648584 -37.668731 17.325986
12.659873 -37.369782 17.799902
12.720922 -37.140046 18.161415
12.813173 -36.859583 18.601847
13.275057 -36.643280 18.921533
15.898268 -38.598066 13.937890
16.109295 -38.189991 14.542368
16.463470 -37.986203 14.798113
16.986909 -37.680961 15.182486
15.787602 -36.782246 16.822256
15.721758 -36.416975 17.410556
15.894897 -36.137596 17.819083
15.968045 -35.848655 18.261230
16.098900 -35.622852 18.593098
16.666106 -35.319542 18.966309
19.255641 -37.161623 13.826567
19.028631 -36.769308 14.509054
19.493095 -36.484977 14.804055
20.081915 -36.142330 15.150327
20.191381 -35.954827 15.407337
18.968075 -35.235918 16.914205
18.811269 -34.990596 17.345689
18.800187 -34.637174 17.899127
18.874582 -34.287459 18.419667
18.958416 -34.108298 18.671831
19.472055 -33.815656 18.964158
22.366537 -35.479611 13.697281
22.293608 -35.103703 14.302691
22.795719 -34.839180 14.481262
23.201966 -34.390052 14.983995
23.075088 -34.080571 15.512306
21.928455 -33.579119 16.789089
21.708238 -33.234394 17.412838
21.619830 -33.000660 17.808526
21.598836 -32.820965 18.091729
21.735312 -32.460042 18.580675
22.148951 -32.075150 18.982220
25.122342 -33.319871 14.041802
25.673506 -32.628414 14.751681
25.851658 -32.169129 15.330524
