1.317172 0.756713 8.146892
1.251611 0.715639 8.813017
1.294132 0.742554 9.020442
1.186887 0.675122 9.547058
1.195915 0.680797 9.500873
1.067042 0.599588 9.720175
0.682702 0.415888 0.156920
1.302519 0.867877 1.449839
1.294403 0.862070 1.679690
1.263745 0.839872 1.966029
1.788880 1.223051 3.580818
1.815764 1.242705 3.745538
1.822874 1.247982 3.965198
1.415660 0.951591 4.359518
1.466211 0.988455 4.466981
1.534370 1.038474 5.308484
1.623976 1.103730 5.300558
1.415862 0.952211 5.407230
1.190206 0.787943 5.574246
1.023766 0.666846 5.838039
0.800164 0.504078 6.013325
0.617184 0.371111 6.669300
0.690786 0.424734 6.712418
0.841712 0.534831 7.108714
1.014827 0.661371 8.133702
1.154800 0.763368 8.256759
1.184526 0.785304 8.893095
1.296267 0.866624 8.758113
1.200642 0.797192 9.226400
1.201109 0.797729 9.661330
1.247049 0.831279 9.865985
1.037486 0.678772 10.122742
0.741407 0.463277 10.423945
0.864135 0.636915 0.482287
1.135796 0.864312 1.077288
1.210015 0.926676 1.738275
1.295625 0.998249 1.741358
1.176206 0.898657 2.256576
1.895290 1.500429 3.519677
1.929897 1.529539 3.892922
1.720475 1.354627 4.251452
1.349099 1.044444 4.872131
1.345111 1.041242 5.149611
1.364271 1.057490 5.632370
1.222632 0.939173 5.837330
1.026205 0.775011 5.953127
0.846049 0.624425 6.013937
0.690930 0.494871 6.285613
0.683423 0.488756 6.624080
0.796666 0.583675 7.139190
1.050992 0.796594 7.762280
1.169224 0.895527 7.946699
1.189678 0.912755 8.216027
1.188577 0.912016 8.598374
1.255095 0.967847 9.060814
1.294745 1.001093 9.268496
1.266133 0.977461 9.872705
1.115645 0.851862 10.319055
0.862077 0.639932 10.444167
0.585970 0.408985 10.201842
1.204738 1.060705 1.586276
1.263599 1.116965 1.646017
1.256680 1.110580 2.092122
1.363801 1.213211 2.682045
1.648828 1.485780 3.239258
1.830223 1.659508 4.114753
1.820576 1.650431 4.387861
1.582903 1.423381 4.389549
1.407963 1.256417 4.698274
1.470795 1.316731 5.274266
1.521715 1.365559 5.640009
1.305489 1.159110 5.862203
1.105594 0.968236 6.032720
1.080187 0.943867 5.839013
0.820410 0.695906 6.243883
0.719768 0.599811 6.339141
0.561754 0.449191 6.995463
0.768817 0.647212 7.419317
1.049652 0.915718 7.863772
1.149989 1.011692 8.102762
1.251808 1.109079 8.339431
1.228363 1.087143 9.253184
1.286659 1.142880 9.344971
1.284654 1.140970 9.356475
1.225205 1.084356 9.708357
1.018973 0.887528 10.077266
0.716636 0.598728 10.123655
1.275652 1.294745 1.197676
1.246332 1.262918 1.483485
1.178440 1.189078 1.882205
1.233927 1.249750 2.156550
1.214085 1.228376 2.655041
1.773750 1.839664 4.169483
1.821567 1.891738 4.015336
1.511476 1.553788 4.550475
1.428073 1.462969 4.839669
1.502908 1.544735 5.094086
1.364019 1.393515 5.607524
1.298319 1.321837 5.581668
1.180130 1.193169 6.044324
1.044482 1.045347 6.305533
0.823370 0.804178 6.331520
0.743396 0.716963 6.367317
0.609099 0.570796 6.961552
0.774724 0.751574 7.180055
0.943248 0.935886 8.085589
1.027880 1.028359 8.379480
1.139856 1.150793 8.923258
1.308711 1.334887 8.757766
1.200955 1.217690 9.389444
1.274158 1.297527 9.366629
1.077861 1.083863 10.206311
0.986658 0.984468 10.368550
0.704651 0.676888 10.417638
1.243524 1.468779 1.211198
1.255204 1.483667 1.383060
1.117905 1.310224 2.005335
1.224136 1.444765 2.109107
1.097493 1.284810 2.730290
1.715926 2.068515 4.120945
1.666657 2.006247 4.295432
1.558479 1.869535 4.690347
1.454156 1.737704 5.087950
1.408402 1.679735 5.004971
1.219919 1.441256 5.219849
1.138620 1.338699 5.831270
1.167872 1.375823 5.990339
0.997375 1.160087 6.159649
0.814956 0.929296 6.390859
0.680410 0.759164 6.717488
0.607239 0.666557 6.755683
0.689327 0.770810 7.324804
0.880434 1.012947 7.684139
1.014700 1.183108 8.009223
1.131733 1.331518 8.442746
1.193078 1.409413 8.844463
1.224303 1.449061 9.049321
1.179234 1.392179 9.341950
1.136223 1.337904 9.635383
0.966461 1.123181 9.944097
0.738342 0.834573 10.238223
1.174750 1.595166 1.110349
1.132111 1.533295 1.451097
1.074937 1.450294 1.848092
1.187959 1.615047 2.112122
1.104090 1.493243 2.618631
1.621882 2.248254 4.176263
1.656444 2.298653 4.283123
1.584555 2.194150 4.565869
1.313151 1.799329 5.181143
1.202039 1.638027 5.953660
1.211567 1.651872 5.909088
1.043822 1.407745 6.132042
0.900078 1.198500 6.246163
0.689272 0.891824 6.710163
0.558275 0.701315 7.096652
0.603046 0.766781 7.516209
0.862414 1.144610 7.728350
0.994829 1.337603 7.994553
1.038264 1.401151 8.455785
1.094549 1.483371 8.856351
1.123400 1.525785 9.477694
1.092370 1.480750 9.712835
1.035897 1.398506 9.700572
0.929924 1.244438 10.086697
1.070932 1.678079 1.093271
1.080438 1.694235 1.264124
1.057267 1.655510 1.762479
1.083684 1.700301 2.090466
0.950844 1.476767 2.821033
1.487456 2.382762 4.096516
1.590461 2.556525 4.136308
1.416876 2.264112 4.646794
1.343624 2.140616 4.726154
1.247945 1.979746 5.435442
1.296134 2.061243 5.739667
1.291216 2.052770 5.492465
1.105820 1.740344 5.873713
0.988557 1.543010 6.501330
0.863034 1.331149 6.298035
0.693665 1.045729 6.643663
0.565594 0.830033 7.086206
0.575214 0.846454 7.359325
0.750492 1.142263 7.602480
0.884190 1.368141 8.125879
0.965927 1.506392 8.669467
1.018238 1.594909 9.068218
1.003693 1.570762 9.608511
1.002493 1.568746 9.618631
0.994667 1.555594 9.685094
0.855387 1.320895 9.991889
1.017050 1.859233 1.272566
0.942889 1.713547 1.778260
0.979729 1.786338 2.050462
0.939927 1.708419 2.656527
1.343618 2.504971 4.262801
1.405204 2.626249 4.206145
1.324113 2.467022 4.851554
1.259446 2.339901 5.187925
1.289158 2.398516 5.290532
1.225155 2.272497 5.371580
1.163669 2.151645 5.710846
1.061907 1.951425 6.016683
0.934535 1.700892 6.495040
0.847580 1.529548 6.438513
0.698146 1.235444 6.782117
0.610767 1.063269 6.728831
0.549218 0.942354 7.144246
0.648397 1.138255 7.791937
0.877646 1.590195 8.197776
0.920781 1.675493 8.599535
0.916314 1.667039 9.028670
0.939838 1.713545 9.231660
0.976397 1.785637 9.321661
0.889067 1.613906 9.701826
0.838066 1.513473 9.746338
0.873461 1.878501 0.950765
0.863148 1.854969 1.611733
0.895135 1.929917 1.671172
0.856587 1.840028 2.065104
0.879143 1.893343 2.605852
0.919929 1.989482 3.296349
1.251047 2.765713 4.321690
1.201263 2.649409 4.602348
1.171225 2.579239 4.775915
1.115145 2.448485 5.369696
1.122125 2.464787 5.326484
1.023229 2.233566 5.683758
0.979535 2.131527 5.970904
0.863405 1.859824 6.190369
0.746276 1.586082 6.730977
0.707542 1.495370 6.710367
0.586786 1.212607 6.682715
0.473716 0.948383 7.241282
0.577679 1.191949 7.399617
0.734916 1.560805 8.153011
0.846941 1.823187 8.246455
0.828854 1.781340 8.788207
0.875252 1.890293 9.128877
0.863177 1.862135 9.251318
0.771730 1.648532 9.800727
0.717684 1.522135 9.959706
0.620874 1.295649 10.157040
0.456772 0.911462 10.203220
0.819051 2.136458 1.176688
0.733570 1.893625 1.850063
0.711456 1.830986 2.189635
0.739255 1.910500 2.462197
0.727622 1.877427 2.530827
1.013091 2.693215 4.673740
1.057701 2.820264 4.616642
1.009211 2.682464 4.950808
0.956099 2.531835 5.596905
0.902366 2.378881 5.734479
0.886804 2.334669 5.854753
0.819693 2.143716 6.105535
0.702289 1.809609 6.493943
0.599515 1.517076 6.778262
0.535575 1.334825 6.725072
0.446078 1.080005 6.903055
0.502637 1.241660 7.351567
0.629290 1.603443 8.162301
0.760896 1.978518 8.227367
0.765605 1.992285 8.543925
0.729240 1.889565 9.361660
0.737490 1.912961 9.260490
0.684440 1.762553 9.944291
0.668087 1.715696 9.707991
0.561768 1.413336 10.243756
0.463711 1.133876 10.194637
0.620254 2.047901 1.033052
0.629743 2.083841 1.580677
0.619383 2.045833 1.862470
0.586954 1.926262 2.311490
0.601865 1.981989 2.637702
0.601680 1.981615 2.861496
0.834863 2.848185 4.470367
0.783764 2.659761 5.170706
0.794496 2.699404 5.073155
0.793614 2.696508 5.339728
0.750903 2.538387 5.476262
0.710137 2.387838 5.870849
0.646560 2.152692 6.233281
0.570131 1.869714 6.455570
0.484060 1.551161 6.796910
0.488072 1.565968 6.751629
0.526896 1.710577 7.253923
0.602036 1.989667 7.666709
0.595204 1.965456 8.460946
0.623532 2.070435 8.443409
0.631774 2.101348 8.703797
0.579042 1.907003 9.496632
0.585360 1.930278 9.395989
0.531940 1.732887 9.834448
0.509035 1.648560 10.241615
0.438148 1.385579 10.078122
0.329241 0.981970 10.123726
0.512034 2.228772 1.382470
0.479945 2.069161 1.887507
0.466906 2.004553 2.225828
0.488716 2.113682 2.228820
0.493972 2.140691 2.611150
0.471925 2.031215 3.058263
0.627591 2.813049 4.662962
0.649152 2.920925 4.661434
0.597907 2.665662 5.269056
0.614830 2.749949 5.063832
0.600912 2.681115 5.494415
0.543583 2.395150 5.962352
0.530364 2.329340 6.139918
0.476598 2.060641 6.304955
0.437583 1.865917 6.563725
0.440014 1.879164 7.146240
0.491469 2.136909 7.307757
0.487241 2.117135 8.046987
0.492605 2.144460 8.309125
0.507672 2.220019 8.403712
0.480160 2.083319 8.915561
0.501380 2.189460 8.897085
0.475812 2.062488 9.409462
0.458891 1.977701 9.341768
0.420668 1.788046 10.196185
0.381819 1.593619 10.167242
0.378405 2.263907 1.367325
0.368274 2.191417 1.706231
0.387596 2.331265 1.656735
0.361785 2.145769 2.216213
0.341500 2.000157 2.721570
0.378071 2.266060 3.080035
0.351329 2.073396 3.482378
0.467164 2.915304 4.504913
0.449831 2.791171 5.041803
0.439813 2.719054 5.214870
0.445666 2.761877 5.371949
0.411303 2.513877 5.726768
0.399032 2.425591 5.956764
0.360263 2.145984 6.430342
0.351565 2.083448 6.607905
0.355933 2.116484 7.128940
0.373894 2.247239 7.368342
0.358895 2.139497 7.711956
0.369153 2.214064 7.807358
0.365856 2.191325 8.234900
0.363536 2.175650 8.661240
0.361066 2.157935 8.727255
0.346618 2.054331 9.127786
0.346329 2.053371 9.552895
0.327279 1.915782 9.708724
0.310096 1.791565 9.809763
0.263231 1.453782 10.460837
0.215722 1.108805 10.162858
0.226008 2.507829 1.177154
0.217576 2.377404 1.407607
0.209018 2.246246 1.853472
0.210353 2.269280 2.235182
0.210049 2.265798 2.458075
0.213731 2.325172 2.780955
0.198049 2.084281 3.501997
0.211770 2.302761 4.221824
0.254593 2.974423 4.677004
0.236364 2.693386 5.337337
0.236276 2.693534 5.603076
0.230427 2.603452 5.831646
0.220109 2.443046 5.970520
0.215808 2.376843 6.146168
0.208603 2.267688 6.743493
0.210707 2.303517 7.261051
0.214061 2.355042 7.105572
0.207171 2.251097 7.755355
0.213056 2.343269 7.795199
0.202173 2.176461 8.359947
0.206083 2.238410 8.508543
0.204261 2.212686 8.989024
0.198585 2.125973 9.333246
0.194055 2.056854 9.622719
0.189735 1.991008 9.912958
0.177945 1.806308 9.823868
0.162210 1.564298 10.494316
0.134836 1.137220 10.601957
0.060775 2.222406 1.914173
0.060369 2.422228 1.964947
0.060515 2.242535 2.520462
0.060414 2.192045 3.065980
0.060040 2.366006 3.165452
0.060167 2.186260 3.773989
0.059377 2.569423 3.898640
0.058815 2.753850 4.457865
0.058744 2.650818 5.202000
0.058482 2.806833 5.088413
0.058721 2.579064 5.644582
0.059110 2.290604 6.115486
0.058939 2.359570 6.216901
0.058573 2.522753 6.352387
0.058526 2.455781 6.836836
0.058351 2.527419 6.935634
0.058434 2.430706 7.221674
0.058395 2.329180 7.870340
0.058313 2.259727 8.463477
0.058128 2.337856 8.555480
0.058139 2.319873 8.620502
0.058192 2.228161 8.962778
0.058077 2.145408 9.719395
0.058255 2.098087 9.483334
0.058486 1.907881 9.862787
0.058687 1.795587 9.907433
-0.098674 2.419673 1.551147
-0.096096 2.379000 2.043140
-0.093891 2.344976 2.321017
-0.090421 2.290855 2.865040
-0.100367 2.436723 3.019842
-0.089178 2.267287 3.834905
-0.101172 2.443697 3.929035
-0.099925 2.422418 4.462061
-0.105666 2.504038 5.030812
-0.120951 2.729605 5.009507
-0.099356 2.408269 5.529492
-0.102478 2.453468 5.686768
-0.105012 2.488329 6.153695
-0.110740 2.570907 6.507447
-0.111670 2.583200 6.770360
-0.096638 2.357869 7.440582
-0.097079 2.362670 7.757223
-0.104474 2.471829 7.742123
-0.097580 2.368305 8.083058
-0.099604 2.396751 8.342162
-0.103845 2.458513 8.490017
-0.096660 2.350391 8.886299
-0.088989 2.234798 9.339721
-0.081035 2.114730 9.850894
-0.075948 2.040355 9.727538
-0.066681 1.902831 9.884311
-0.276096 2.516243 1.355705
-0.246434 2.296352 1.964767
-0.261621 2.407507 2.179180
-0.261691 2.406852 2.612132
-0.266387 2.440387 2.987589
-0.252514 2.337123 3.427303
-0.264147 2.421293 3.950973
-0.264811 2.424884 4.428498
-0.273331 2.487284 4.533512
-0.291077 2.617316 4.732743
-0.265676 2.429208 5.181161
-0.281095 2.541981 5.431279
-0.297941 2.664560 5.933958
-0.290196 2.605586 6.668432
-0.274421 2.488605 7.006826
-0.284256 2.560704 7.103487
-0.274057 2.485041 7.332515
-0.274659 2.488620 7.647456
-0.284810 2.563052 7.741931
-0.269031 2.444919 8.493671
-0.277560 2.507278 8.640117
-0.277205 2.504635 8.649765
-0.265027 2.414115 8.989351
-0.244561 2.261864 9.606879
-0.232891 2.176182 9.538078
-0.199481 1.928585 10.196685
-0.465847 2.531418 1.280762
-0.469732 2.549583 1.450713
-0.448994 2.450326 1.839424
-0.435809 2.386693 2.385085
-0.413679 2.280351 3.039171
-0.460681 2.503767 3.029310
-0.444810 2.427647 3.414083
-0.448803 2.445869 3.840944
-0.439114 2.398775 4.430004
-0.451320 2.456143 4.796070
-0.454959 2.473057 5.011080
-0.403455 2.227165 5.629211
-0.477913 2.581236 5.530895
-0.488895 2.632700 5.942905
-0.469564 2.539868 6.480923
-0.456445 2.476656 6.963931
-0.475150 2.565483 7.007500
-0.451808 2.453937 7.347536
-0.442087 2.406881 7.828945
-0.444121 2.415989 8.144190
-0.459904 2.490837 8.238508
-0.438596 2.388228 8.991072
-0.441057 2.400009 8.945250
-0.420414 2.301190 9.340717
-0.411696 2.259446 9.515993
-0.392894 2.169377 9.913636
-0.337422 1.905183 10.215990
-0.614448 2.490720 1.295741
-0.555267 2.273796 1.907078
-0.584599 2.380887 1.912031
-0.590665 2.402506 2.293926
-0.598158 2.429339 2.673518
-0.607065 2.461339 3.050732
-0.558880 2.284569 3.657416
-0.615567 2.491198 3.907200
-0.578028 2.353020 4.715738
-0.619700 2.505327 4.603256
-0.593282 2.408551 4.835139
-0.586601 2.383350 5.419337
-0.624644 2.520838 6.442011
-0.648508 2.607911 6.486313
-0.617008 2.492008 7.130660
-0.616116 2.488738 7.140718
-0.598075 2.422126 7.675566
-0.631562 2.544492 7.606222
-0.595100 2.410246 8.412685
-0.606834 2.453303 8.258011
-0.610881 2.467648 8.569829
-0.615937 2.485681 8.880368
-0.592721 2.400445 9.219811
-0.553813 2.257533 9.836631
-0.527438 2.161252 9.824665
-0.455907 1.899660 10.126951
-0.741760 2.341167 1.489846
-0.689434 2.189518 1.990933
-0.716368 2.267225 2.049176
-0.678360 2.156747 2.705922
-0.755093 2.378084 2.907475
-0.732638 2.312585 3.501812
-0.731115 2.307649 3.983465
-0.772638 2.427319 4.187470
-0.760872 2.392981 4.513562
-0.781430 2.452221 4.619513
-0.703717 2.227203 5.180786
-0.793099 2.485151 5.305742
-0.785507 2.461591 6.775279
-0.802726 2.511138 6.928496
-0.784563 2.458159 7.408823
-0.826204 2.578468 7.341680
-0.757422 2.379120 8.009100
-0.766523 2.405109 8.268085
-0.771470 2.419048 8.580754
-0.777676 2.436619 8.892142
-0.753410 2.366233 9.177504
-0.708892 2.237064 9.739660
-0.725003 2.283818 9.529816
-0.675338 2.140179 9.739233
-0.570826 1.837819 10.266020
-0.891988 2.234181 1.172201
-0.921163 2.301604 1.448380
-0.857266 2.152924 1.950284
-0.912720 2.281406 2.112504
-0.921962 2.302687 2.281900
-0.933046 2.328049 2.661504
-0.935445 2.333216 3.093605
-0.986739 2.451813 3.511780
-0.984532 2.446251 3.992070
-0.902099 2.254382 4.703687
-0.944990 2.353635 4.959635
-0.888143 2.221695 5.043367
-0.960172 2.388455 5.389976
-1.010696 2.504940 6.161734
-0.937247 2.333819 6.973795
-0.995420 2.468868 6.854695
-1.008832 2.499785 7.063334
-0.971043 2.411866 7.348745
-1.010054 2.502039 7.695556
-1.006495 2.493442 8.064471
-0.973226 2.416007 8.349893
-0.938766 2.335432 9.046403
-0.904566 2.255784 9.388789
-0.908714 2.265445 9.346195
-0.895056 2.233226 9.929842
-0.855560 2.141621 9.917685
-0.772524 1.948988 9.939589
-1.078917 2.248615 1.421759
-1.075727 2.242379 1.434209
-1.055677 2.202857 1.928373
-1.092669 2.274828 2.200370
-1.104854 2.298303 2.580062
-1.032910 2.157295 3.342115
-1.064403 2.218499 3.661365
-1.097594 2.283017 3.978297
-1.057311 2.204055 4.416669
-1.041309 2.172357 5.004161
-1.070704 2.229842 4.851461
-1.089703 2.266584 5.270764
-1.167557 2.417991 5.923733
-1.124087 2.332730 6.462961
-1.165186 2.412897 6.507827
-1.119023 2.322583 6.791747
-1.151692 2.386257 6.890093
-1.077972 2.241746 7.699177
-1.151611 2.385595 7.521069
-1.072689 2.231133 8.079732
-1.067126 2.219653 8.859901
-1.116570 2.316157 8.841633
-1.115262 2.313595 8.852332
-1.094154 2.271937 9.436251
-1.105276 2.293719 9.337254
-1.023437 2.133758 9.654638
-0.916238 1.924082 10.254091
-1.162956 2.068316 1.433478
-1.091662 1.948675 2.321841
-1.181862 2.099023 2.635814
-1.256323 2.223210 2.791933
-1.165528 2.071068 3.605425
-1.282749 2.266754 3.591635
-1.170456 2.078800 4.303039
-1.224669 2.169115 4.559264
-1.269490 2.243898 4.609459
-1.101191 1.962402 5.391280
-1.164706 2.068067 5.898407
-1.296029 2.287162 6.070437
-1.338063 2.357079 6.423303
-1.384433 2.434452 6.467759
-1.227042 2.171092 7.351614
-1.274203 2.249789 7.392784
-1.285322 2.268165 7.652358
-1.315124 2.317807 7.801641
-1.286956 2.270410 8.332160
-1.310851 2.310155 8.533618
-1.270705 2.242938 8.817031
-1.253511 2.213861 9.345393
-1.245276 2.200069 9.410314
-1.159396 2.056195 10.136139
-1.133004 2.012303 9.903632
-0.964865 1.731218 10.485199
-0.812581 1.477045 10.437061
-1.332997 2.034465 1.738742
-1.244291 1.906361 2.239944
-1.276381 1.952380 2.565541
-1.310652 2.001541 2.888969
-1.316430 2.009587 3.320354
-1.415790 2.152655 3.419507
-1.311692 2.002145 4.285367
-1.469137 2.229028 4.160145
-1.353084 2.061397 4.869721
-1.376991 2.095899 4.771611
-1.334455 2.034346 5.207187
-1.467674 2.225937 5.697645
-1.534837 2.322528 5.945617
-1.458270 2.211818 6.591389
-1.498445 2.269627 6.691367
-1.453458 2.204480 7.226597
-1.451225 2.201256 7.238334
-1.384028 2.104010 7.937670
-1.427126 2.166032 8.033253
-1.442885 2.188567 8.292220
-1.417233 2.151275 8.823448
-1.445707 2.192163 9.025049
-1.358461 2.066091 9.639902
-1.306879 1.991532 10.037363
-1.263904 1.929703 9.915091
-1.165812 1.788194 10.237110
-1.448547 1.920348 1.172631
-1.533752 2.027043 1.337064
-1.358004 1.806347 2.057605
-1.464621 1.939915 2.162180
-1.446250 1.916603 2.651106
-1.536525 2.029658 2.807566
-1.459157 1.932277 3.511282
-1.488012 1.968226 3.882393
-1.417107 1.879069 4.375292
-1.543439 2.037385 4.411991
-1.522779 2.011301 4.736872
-1.420108 1.882235 5.391623
-1.618608 2.131018 5.405056
-1.584866 2.088326 6.089439
-1.673575 2.199399 6.279407
-1.667400 2.191474 6.596569
-1.675544 2.201529 6.858387
-1.569426 2.068232 7.360073
-1.593392 2.098149 7.565874
-1.566137 2.063710 8.043943
-1.465342 1.937049 8.603989
-1.565009 2.061866 8.777680
-1.509006 1.991476 9.117618
-1.585323 2.087171 9.044052
-1.514833 1.998559 9.493294
-1.472736 1.945629 9.779184
-1.402498 1.857570 9.823020
-1.218623 1.626867 10.236455
-1.033998 1.395496 10.186333
-1.623965 1.877288 1.442797
-1.576306 1.824855 1.776839
-1.670687 1.928243 1.937873
-1.667350 1.924350 2.371440
-1.575815 1.823612 3.077520
-1.596310 1.845993 3.242222
-1.572529 1.819629 3.779694
-1.735358 1.998044 3.971587
-1.659848 1.914993 4.461040
-1.702174 1.961341 4.566480
-1.417901 1.649273 5.310545
-1.632641 1.884698 5.323110
-1.763191 2.027504 5.919048
-1.749288 2.011923 6.544906
-1.745027 2.007080 6.861518
-1.768414 2.032774 6.762657
-1.716569 1.975644 7.296616
-1.706940 1.964887 7.665820
-1.757476 2.020242 7.760724
-1.752383 2.014459 8.127530
-1.604857 1.852298 8.905038
-1.639210 1.889852 9.105602
-1.620643 1.869210 9.634532
-1.584698 1.829676 9.865034
-1.626130 1.875244 9.600171
-1.490930 1.726784 10.029743
-1.279639 1.494849 10.557046
-1.168659 1.373282 10.359697
-1.682861 1.683011 1.626327
-1.742051 1.739018 1.685632
-1.692802 1.692117 2.232374
-1.713145 1.711187 2.611486
-1.737355 1.733917 2.988234
-1.700065 1.698448 3.318847
-1.712734 1.710227 3.746751
-1.766779 1.761235 4.061933
-1.704057 1.701633 4.499090
-1.714991 1.711877 4.715308
-1.609871 1.612184 5.057854
-1.678729 1.677089 5.623878
-1.930408 1.915258 5.835828
-2.002033 1.982917 6.136033
-1.866705 1.854391 6.943223
-1.783451 1.775401 7.282751
-1.876160 1.863205 7.215716
-1.864754 1.852221 7.585512
-1.881641 1.868078 7.844925
-1.854866 1.842669 7.965089
-1.806107 1.796212 8.551623
-1.808842 1.798617 8.917834
-1.805469 1.795213 9.337468
-1.793653 1.783993 9.403242
-1.753263 1.745638 9.633887
-1.616668 1.616130 10.008967
-1.430022 1.439302 10.254378
-1.286466 1.303408 10.222615
-1.900453 1.679094 1.347562
-1.729815 1.535693 1.958065
-1.860205 1.644998 2.063953
-1.835864 1.624350 2.553405
-1.776734 1.574475 3.150787
-1.759218 1.559653 3.426656
-1.893258 1.672023 3.524432
-1.812818 1.604226 4.224851
-1.767032 1.565644 4.607514
-1.707951 1.515886 5.045085
-1.600388 1.425511 5.389706
-1.844304 1.630072 5.402143
-1.930466 1.701947 6.217040
-1.952713 1.720504 6.427050
-1.961343 1.727616 6.690856
-2.045387 1.798107 6.680946
-2.027534 1.782958 7.050774
-2.027538 1.782812 7.365092
-1.927640 1.698672 8.115381
-1.950488 1.717882 8.015940
-1.959678 1.725441 8.327887
-1.937354 1.706492 8.802700
-1.921874 1.693284 9.276232
-1.941198 1.709537 9.176751
-1.876651 1.655242 9.515819
-1.740897 1.541236 9.833822
-1.471732 1.315163 10.526594
-2.051531 1.582195 1.251249
-1.967181 1.520295 1.640955
-1.887807 1.461940 2.243364
-1.792830 1.392237 2.688163
-1.820508 1.412320 3.066410
-1.831115 1.419887 3.497499
-1.889121 1.462191 3.814166
-1.816282 1.408692 4.252960
-1.900966 1.470544 4.510074
-1.894322 1.465560 4.780772
-1.797503 1.394699 4.807211
-1.906003 1.473888 5.264657
-2.069092 1.592846 6.116990
-2.174861 1.670272 6.053692
-2.181017 1.674659 6.316786
-2.050440 1.578766 7.069909
-2.007700 1.547273 7.549902
-2.124616 1.632884 7.426848
-2.079283 1.599632 7.600884
-2.071287 1.593615 7.968934
-1.980549 1.526876 8.719471
-2.032267 1.564656 8.865600
-2.084645 1.602919 9.010960
-1.950600 1.504527 9.679218
-2.001817 1.542125 9.414815
-1.868119 1.444171 9.677074
-1.716925 1.333362 10.053525
-2.035561 1.353732 1.305992
-2.103530 1.396334 1.367279
-1.914724 1.277566 2.191910
-2.033765 1.352246 2.140453
-2.083082 1.382946 2.676522
-1.989387 1.323992 3.118881
-2.113521 1.401778 3.274194
-1.975704 1.314994 4.087096
-2.083354 1.382421 4.291653
-1.993027 1.325558 4.784220
-1.910744 1.273965 4.757007
-1.983604 1.319526 5.067937
-2.160732 1.430379 5.615499
-2.102048 1.393255 6.356675
-2.257399 1.490651 6.437560
-2.203457 1.456745 6.613149
-2.166472 1.433365 7.040836
-2.061801 1.367417 7.742123
-2.082607 1.380353 8.003306
-2.105670 1.394705 8.263369
-2.143737 1.418646 8.110888
-2.141214 1.416905 8.479478
-2.118500 1.402454 8.956387
-2.069705 1.371575 9.596735
-2.045367 1.356259 9.718763
-1.971403 1.309899 9.652912
-1.761936 1.178246 10.309402
-1.546075 1.042756 10.562440
-2.193760 1.251952 1.163434
-2.073605 1.187260 1.609298
-2.033410 1.165383 2.327062
-2.108755 1.205722 2.596421
-2.041415 1.169321 3.194365
-2.008940 1.151663 3.734739
-2.008125 1.151025 4.217068
-2.207915 1.258294 4.200750
-2.050174 1.173335 4.857959
-1.944058 1.116353 4.886064
-2.041409 1.168512 5.140844
-2.189270 1.247622 5.797054
-2.185767 1.245503 6.373399
-2.365134 1.341789 6.399263
-2.256997 1.283466 7.044683
-2.204777 1.255358 7.220592
-2.285302 1.298572 7.262666
-2.226709 1.266894 7.796279
-2.206200 1.255708 8.219439
-2.232007 1.269604 8.120303
-2.123971 1.211269 8.926755
-2.108129 1.202567 9.402560
-2.179652 1.240928 9.491792
-2.189170 1.246057 9.447400
-2.021037 1.155637 9.820644
-1.921936 1.102414 9.864585
-1.673010 0.968625 10.223888
-1.236339 0.734006 10.667312
-2.294052 1.114152 1.322286
-2.191118 1.067132 1.938697
-2.214224 1.077393 2.531912
-2.186768 1.064806 2.810163
-2.137239 1.042166 3.143024
-2.069107 1.010863 4.000690
-2.276343 1.105038 3.984297
-2.263741 1.099203 4.255617
-2.145182 1.045111 4.801461
-1.952870 0.957520 5.310545
-2.162247 1.052568 5.543275
-2.324489 1.126031 6.192228
-2.462498 1.188789 6.074096
-2.256781 1.094943 6.993097
-2.305962 1.117230 7.145213
-2.220373 1.078224 7.429991
-2.271908 1.101581 7.580763
-2.221729 1.078709 7.755871
-2.156319 1.048751 8.345609
-2.286360 1.107750 8.575399
-2.228938 1.081565 8.805336
-2.160460 1.050334 9.090968
-2.077083 1.012124 9.898227
-2.009019 0.981244 9.775653
-1.972742 0.964689 9.952718
-1.775023 0.874626 10.500967
-1.557654 0.775986 10.169975
-2.205885 0.897767 1.623524
-2.218306 0.902193 2.230004
-2.113118 0.862449 2.885596
-2.063780 0.843797 3.218433
-2.252202 0.914516 3.262013
-2.267456 0.920076 3.690170
-2.219366 0.901792 4.280842
-2.183888 0.888244 4.868747
-2.071311 0.845970 4.896470
-2.069758 0.845180 5.427696
-2.352531 0.951211 5.751617
-2.463534 0.992787 5.999176
-2.488973 1.002255 6.209430
-2.316603 0.937228 7.020558
-2.282457 0.924243 7.448039
-2.335293 0.944019 7.599629
-2.299588 0.930568 7.720647
-2.338200 0.944983 7.926092
-2.318256 0.937331 8.350010
-2.361581 0.953517 8.553122
-2.298231 0.929484 9.194038
-2.244274 0.909137 9.425373
-2.101158 0.855328 9.634376
-2.110895 0.859001 9.590210
-1.775470 0.732806 10.283799
-2.238221 0.741358 1.666660
-2.172132 0.721349 2.003481
-2.306923 0.761915 1.952896
-2.277219 0.752712 2.656276
-2.170804 0.720531 3.100587
-2.199094 0.728978 3.267798
-2.202890 0.729855 3.961779
-2.276002 0.751728 4.277826
-2.241841 0.741326 4.606651
-2.279037 0.752454 4.769138
-2.206657 0.730613 4.947344
-2.231733 0.737877 5.680836
-2.474210 0.810750 5.857283
-2.568405 0.838970 6.159605
-2.390100 0.785024 6.971651
-2.422233 0.794727 6.874362
-2.437001 0.799069 7.138364
-2.305321 0.759170 7.894337
-2.223166 0.734347 8.181462
-2.281356 0.751794 8.330960
-2.355284 0.773997 8.424710
-2.342860 0.770099 8.847439
-2.257620 0.744327 9.189241
-2.189543 0.723739 9.476849
-2.186949 0.722954 9.488093
-2.004600 0.667957 9.865708
-1.779680 0.600246 10.002103
-1.395195 0.484411 10.463516
-2.396355 0.617988 1.456112
-2.239626 0.581762 1.956552
-2.118886 0.553911 2.189489
-2.090654 0.547235 2.681774
-2.151104 0.561014 3.004770
-2.241368 0.581671 3.270176
-2.297789 0.594603 3.380055
-2.265799 0.587046 3.918360
-2.340330 0.604066 4.233031
-2.212711 0.574515 4.781455
-2.162604 0.562850 5.163794
-2.230046 0.578222 5.526847
-2.393289 0.615611 5.922814
-2.373098 0.610732 6.553545
-2.366827 0.609170 6.872955
-2.548986 0.651143 6.642813
-2.383177 0.612712 7.453626
-2.432124 0.624025 7.299693
-2.302888 0.594025 8.056318
-2.330253 0.600220 8.316099
-2.358317 0.606710 8.216870
-2.214017 0.573184 9.138066
-2.389786 0.613712 8.843142
-2.275996 0.587377 9.295164
-2.133339 0.554342 9.915807
-2.085155 0.543350 9.682194
-1.783770 0.473871 10.154350
-2.338937 0.438432 1.626974
-2.273148 0.427912 1.748298
-2.294838 0.431303 1.917444
-2.318190 0.434881 2.298571
-2.181969 0.412928 3.009542
-2.353764 0.440245 3.108969
-2.278489 0.428117 3.494905
-2.223711 0.419176 4.088557
-2.253406 0.423747 4.513150
-2.363097 0.441214 4.508782
-2.262444 0.425006 5.000952
-2.127866 0.403355 5.604434
-2.357270 0.439796 5.834821
-2.547421 0.469948 6.172127
-2.575827 0.474394 6.381762
-2.512988 0.464324 6.556672
-2.396065 0.445467 7.204464
-2.338894 0.436299 7.380623
-2.377075 0.442302 7.587411
-2.255986 0.422875 7.984908
-2.314999 0.432216 8.134835
-2.151914 0.405887 9.114494
-2.315850 0.432078 8.873351
-2.256124 0.422483 9.105397
-2.094451 0.396490 9.782948
-2.079563 0.394095 9.849587
-1.777256 0.345785 10.323539
-2.552009 0.288958 1.290605
-2.204778 0.258255 2.133047
-2.203061 0.257944 2.569691
-2.119149 0.250456 2.959555
-2.157551 0.253680 3.336763
-2.201180 0.257361 3.711460
-2.351044 0.270425 3.862247
-2.279752 0.263947 4.508391
-2.271259 0.263104 4.780589
-2.220008 0.258478 5.162927
-2.103732 0.248194 5.452191
-2.185967 0.255165 6.072243
-2.616806 0.292883 6.059124
-2.450833 0.278190 6.508626
-2.443840 0.277461 6.828024
-2.291595 0.263969 7.280508
-2.329259 0.267189 7.488280
-2.351462 0.269037 7.750320
-2.327713 0.266802 8.175848
-2.404441 0.273484 8.268946
-2.204948 0.255755 8.998136
-2.298814 0.263958 9.033174
-2.240235 0.258746 9.264731
-2.170562 0.252542 9.552416
-1.945675 0.232656 10.099112
-1.882575 0.227198 9.919460
-2.430406 0.116170 1.530489
-2.481156 0.117191 1.645034
-2.206274 0.111246 2.153445
-2.319351 0.113537 2.368317
-2.232040 0.111565 2.757501
-2.177821 0.110308 3.090963
-2.087350 0.108173 3.745428
-2.289380 0.112392 3.785123
-2.167544 0.109562 4.544388
-2.136560 0.108793 4.871840
-2.247993 0.111131 4.864824
-2.220985 0.110446 5.190470
-2.213205 0.109976 6.031871
-2.531820 0.116650 6.037242
-2.499235 0.115830 6.411150
-2.377518 0.113043 7.059637
-2.355703 0.112563 7.124558
-2.303989 0.111303 7.607544
-2.311092 0.111336 7.923497
-2.341830 0.112017 7.822613
-2.303290 0.111034 8.303327
-2.200991 0.108614 9.060422
-2.199006 0.108418 9.483352
-2.223538 0.108969 9.382009
-2.167977 0.107721 9.614134
-2.055320 0.105344 9.656993
-1.831905 0.100463 10.206756
-2.247343 -0.039582 1.452633
-2.385539 -0.046093 1.615548
-2.316924 -0.043012 1.950284
-2.194842 -0.037476 2.395840
-2.253527 -0.040333 2.719787
-2.037202 -0.030479 3.387315
-2.292267 -0.042360 3.317532
-2.107103 -0.034035 4.190730
-2.163035 -0.036781 4.560477
-2.226243 -0.039771 4.666299
-2.266293 -0.041699 4.827131
-2.196958 -0.038717 5.524255
-2.192758 -0.038525 5.534897
-2.215964 -0.039895 6.318939
-2.453980 -0.051088 6.542151
-2.430551 -0.050018 6.607743
-2.313694 -0.044800 7.258025
-2.203468 -0.039780 7.601380
-2.330373 -0.045679 7.531255
-2.253301 -0.042297 8.124979
-2.186095 -0.039245 8.357774
-2.248024 -0.042191 8.506593
-2.265933 -0.043141 8.820825
-2.094850 -0.035402 9.499031
-2.040202 -0.032937 9.733219
-1.953242 -0.028853 9.665528
-1.815110 -0.022462 9.822986
-2.327433 -0.195585 1.093244
-2.369454 -0.200426 1.424422
-2.180894 -0.179375 1.768534
-2.290037 -0.191713 1.986175
-2.111795 -0.171900 2.544389
-2.143964 -0.175652 2.924736
-1.959662 -0.155180 3.538957
-2.224116 -0.184931 3.678054
-2.232029 -0.185900 3.898387
-2.113977 -0.172921 4.658841
-2.244625 -0.187764 5.120443
-2.356578 -0.200430 5.373716
-2.292547 -0.193399 5.809173
-2.216680 -0.184849 5.729351
-2.179231 -0.180783 6.110032
-2.334559 -0.198391 6.557137
-2.272230 -0.191457 6.734834
-2.194778 -0.182958 7.278008
-2.285452 -0.193157 7.320735
-2.042550 -0.166168 8.111592
-2.086630 -0.171194 8.318677
-2.163864 -0.179902 8.411232
-2.115040 -0.174484 8.587908
-2.021873 -0.164300 9.348763
-2.033137 -0.165548 9.302432
-1.851868 -0.145482 10.098005
-1.764631 -0.135660 10.030352
-1.486251 -0.104531 10.397438
-1.226593 -0.075288 10.175702
-1.848508 -0.265960 0.905098
-2.355044 -0.357180 1.213787
-2.311897 -0.349524 1.495629
-2.066893 -0.305706 2.166258
-2.033939 -0.299884 2.447783
-2.087397 -0.309541 2.561164
-2.119387 -0.315435 2.941707
-2.104122 -0.312871 3.431183
-1.958133 -0.286821 3.988443
-1.938192 -0.283435 4.529925
-2.408568 -0.368093 4.684323
-2.380433 -0.363249 5.268103
-2.467390 -0.378907 5.316243
-2.186487 -0.328654 6.044891
-2.131859 -0.318779 5.908770
-1.848706 -0.268146 6.703267
-2.200749 -0.331421 6.589003
-2.176528 -0.327205 6.965491
-2.053477 -0.305336 7.675436
-2.028742 -0.301047 8.105914
-2.072715 -0.309032 8.311700
-2.180076 -0.328335 8.293928
-2.100303 -0.314094 8.582682
-2.009365 -0.297867 8.928270
-2.059732 -0.307001 9.131276
-1.920482 -0.282013 9.285602
-1.788622 -0.258509 9.859139
-1.629988 -0.230079 10.131741
-2.206610 -0.484984 1.638379
-2.026247 -0.439979 1.982333
-2.221060 -0.488748 2.030752
-2.017894 -0.438058 2.430318
-1.934766 -0.417403 2.821341
-1.918701 -0.413567 3.311655
-1.936413 -0.418162 3.743239
-1.896558 -0.408313 4.075238
-2.124227 -0.465554 4.788105
-2.500018 -0.559634 4.899245
-2.344231 -0.520895 5.551891
-2.367590 -0.526820 5.763765
-2.322489 -0.515579 5.883960
-1.956172 -0.424077 6.324596
-1.972316 -0.428100 6.278659
-1.906800 -0.412007 7.083070
-1.977787 -0.429808 7.180490
-1.996781 -0.434661 7.445078
-2.035141 -0.444338 7.652748
-2.042563 -0.446315 7.971049
-2.086322 -0.457479 8.538265
-1.954090 -0.424582 9.051180
-2.007910 -0.437969 8.837389
-1.868340 -0.403258 9.408062
-1.777311 -0.380631 9.812407
-1.705227 -0.362545 9.687531
-1.360383 -0.276518 10.396777
-1.084074 -0.207334 10.290981
-2.121915 -0.619281 1.314297
-1.994461 -0.578132 1.764896
-2.043243 -0.593992 1.880539
-1.980420 -0.573754 2.218841
-1.979652 -0.573674 2.658001
-1.806864 -0.517973 3.487259
-1.887394 -0.544102 3.542244
-2.389165 -0.707266 4.809162
-2.493983 -0.741247 4.805996
-2.444648 -0.725398 5.185690
-2.257702 -0.665082 5.950399
-2.273306 -0.670125 5.907465
-1.932910 -0.559915 6.294843
-1.635259 -0.463523 6.578523
-1.829463 -0.526494 6.600398
-1.986158 -0.577466 7.046149
-2.002717 -0.582937 7.313236
-2.005292 -0.583896 7.635082
-2.011671 -0.586087 7.955786
-1.947887 -0.565636 8.552272
-1.930710 -0.560093 8.618310
-1.857205 -0.536374 8.908804
-1.852921 -0.535149 9.336500
-1.645628 -0.468133 9.831727
-1.503562 -0.422157 10.047963
-1.269980 -0.346505 10.246550
-0.933730 -0.237583 10.488427
-1.789413 -0.641709 1.253357
-2.113925 -0.770832 1.243815
-1.849255 -0.665804 1.972619
-1.816625 -0.652931 2.254981
-1.760364 -0.630677 2.593111
-1.868881 -0.673940 2.806451
-2.432711 -0.899087 4.825233
-2.405999 -0.888585 5.149938
-2.466135 -0.912555 5.254916
-2.237821 -0.821949 5.871025
-2.107452 -0.770108 5.958134
-1.996744 -0.726069 5.990602
-1.721942 -0.616810 6.213907
-1.675369 -0.598452 6.654791
-1.829471 -0.659945 7.101051
-1.869159 -0.675943 7.623100
-1.799149 -0.648322 8.225288
-1.856506 -0.671061 8.012988
-1.752943 -0.630155 8.782843
-1.867486 -0.675703 8.708475
-1.796108 -0.647417 9.001435
-1.715106 -0.615323 9.351645
-1.603168 -0.570986 9.872896
-1.431290 -0.502747 10.262705
-1.193895 -0.408388 10.523173
-0.789179 -0.247201 10.148446
-1.711032 -0.757570 1.306989
-1.804520 -0.803105 1.742323
-1.854012 -0.827077 1.640795
-1.766605 -0.784916 2.249715
-1.738058 -0.771179 2.530686
-1.637362 -0.722505 2.980287
-1.697034 -0.751588 3.303302
-1.713254 -0.759633 3.736521
-2.428610 -1.107083 4.651056
-2.298383 -1.044141 5.247609
-2.238802 -1.015409 5.679890
-2.215749 -1.004250 5.745260
-1.958110 -0.879440 6.218738
-1.815294 -0.810207 6.362681
-1.660856 -0.735230 6.249162
-1.379356 -0.598766 6.533666
-1.444346 -0.630595 7.266386
-1.698425 -0.753912 7.368174
-1.803634 -0.805077 7.663395
-1.751586 -0.780045 8.207723
-1.709845 -0.760013 8.751168
-1.834920 -0.820644 8.619185
-1.627467 -0.720361 9.529833
-1.698627 -0.754754 9.201913
-1.547374 -0.681477 9.471578
-1.299691 -0.561625 10.258835
-1.164480 -0.495917 9.999104
-0.667862 -0.255048 10.200233
-1.812273 -0.957326 0.989407
-1.741176 -0.917048 1.546083
-1.577613 -0.824088 2.111064
-1.649590 -0.865124 2.168472
-1.522154 -0.792725 2.676941
-1.662036 -0.872674 3.258868
-1.759117 -0.927990 3.257114
-2.349429 -1.264831 4.405760
-2.279151 -1.224969 4.839343
-2.254699 -1.211172 5.162995
-2.195662 -1.177715 5.595694
-2.116921 -1.132945 5.826851
-1.877386 -0.996526 5.988424
-1.638593 -0.860532 6.154234
-1.482455 -0.771650 6.357759
-1.127834 -0.569830 6.933546
-1.261251 -0.646063 7.438498
-1.636257 -0.859724 7.399206
-1.523844 -0.795997 8.173804
-1.563353 -0.818595 8.380670
-1.551916 -0.812260 8.812538
-1.588700 -0.833152 8.652921
-1.520709 -0.794711 9.366210
-1.483701 -0.773700 9.546238
-1.351896 -0.698688 9.761616
-1.179855 -0.600847 10.209036
-0.892213 -0.437001 10.333695
-0.490792 -0.208393 10.621582
-1.731176 -1.052327 1.234602
-1.669788 -1.012393 1.573917
-1.562686 -0.942751 2.241126
-1.584001 -0.956743 2.410357
-1.419121 -0.849356 3.031314
-1.573280 -0.950148 3.341385
-1.470927 -0.883328 3.365970
-2.119156 -1.307216 4.813240
-2.173173 -1.342531 4.916799
-2.190837 -1.354270 5.386553
-2.059550 -1.268718 5.780553
-1.759138 -1.072733 6.163293
-1.729937 -1.053582 5.970272
-1.365041 -0.815595 6.589509
-1.170984 -0.688913 6.648838
-0.833142 -0.468435 6.911292
-1.392832 -0.834419 8.144529
-1.430784 -0.859290 8.351843
-1.419430 -0.852065 8.785000
-1.548695 -0.936385 8.594042
-1.483842 -0.894166 8.886363
-1.423726 -0.855225 9.600104
-1.368385 -0.819219 9.894043
-1.192553 -0.704421 9.918518
-1.006396 -0.582907 10.001864
-0.708538 -0.388528 10.242761
-1.503653 -1.061992 1.362004
-1.519951 -1.074470 1.532652
-1.417604 -0.996808 1.984989
-1.392506 -0.977941 2.482960
-1.325186 -0.926902 2.878001
-1.442469 -1.016207 3.032160
-1.352166 -0.947609 3.268757
-2.041613 -1.472730 4.499194
-2.053881 -1.482162 4.713510
-1.902459 -1.367161 5.163726
-1.705860 -1.217866 5.784486
-1.702864 -1.215591 5.794297
-1.583126 -1.124674 6.196033
-1.447235 -1.021230 6.080802
-1.086980 -0.747450 6.765788
-0.963114 -0.653277 6.917515
-0.839744 -0.559335 6.749074
-1.339336 -0.940063 8.100353
-1.337504 -0.938842 8.478271
-1.387672 -0.977081 8.627891
-1.335775 -0.937898 9.286918
-1.389848 -0.978913 9.013141
-1.257791 -0.878756 9.705457
-1.188668 -0.826134 9.636291
-1.001046 -0.683669 10.257776
-1.416287 -1.148872 1.393281
-1.408021 -1.141772 1.622283
-1.333787 -1.077206 2.020379
-1.396564 -1.132103 2.294032
-1.287611 -1.037304 2.803872
-1.335643 -1.079363 3.130082
-1.331319 -1.075596 3.142030
-1.833521 -1.514507 4.820431
-1.778274 -1.466272 4.737543
-1.721520 -1.416974 5.175938
-1.770622 -1.459860 5.280861
-1.618133 -1.327083 5.792989
-1.528235 -1.248676 5.825077
-1.282699 -1.034772 6.423392
-1.107182 -0.881688 6.483481
-1.002949 -0.790806 6.577936
-0.712165 -0.537240 6.784898
-0.582657 -0.424525 7.324937
-0.943972 -0.740131 8.175665
-1.292913 -1.044451 8.011402
-1.266876 -1.021975 8.501801
-1.215553 -0.977523 9.161820
-1.308336 -1.058423 9.081130
-1.204195 -0.967855 9.658677
-1.081360 -0.860832 9.931963
-1.006237 -0.795293 9.919896
-1.213463 -1.117119 0.884611
-1.278325 -1.182112 1.544674
-1.273404 -1.177213 1.557496
-1.286444 -1.190413 1.947415
-1.118456 -1.023317 2.630841
-1.270065 -1.174681 3.103539
-1.265689 -1.170327 3.116366
-1.690892 -1.594842 4.441371
-1.618732 -1.523036 4.675627
-1.499406 -1.404167 4.816299
-1.399958 -1.305353 5.424932
-1.436750 -1.342241 5.844357
-1.322778 -1.228711 5.988355
-1.180246 -1.086772 6.247799
-1.039534 -0.946648 6.510568
-0.654467 -0.563178 7.201482
-0.588349 -0.497430 7.505272
-0.956688 -0.864766 7.861177
-1.112943 -1.020874 8.553316
-1.085302 -0.993605 9.103045
-1.192898 -1.100755 8.909934
-1.036943 -0.945778 9.833846
-1.035306 -0.944152 9.844371
-0.964487 -0.873555 9.833545
-0.763858 -0.673766 10.207992
-0.435589 -0.346702 10.494160
-1.079854 -1.128463 0.836291
-1.181550 -1.244376 1.381842
-1.134733 -1.191341 1.723163
-1.169538 -1.230972 1.837017
-1.087999 -1.138526 2.291055
-1.145468 -1.204009 2.562052
-1.173101 -1.235751 3.157965
-1.141142 -1.199605 3.494448
-1.490469 -1.597433 4.764202
-1.519047 -1.629865 4.663046
-1.255537 -1.330394 4.836021
-1.237469 -1.310036 5.166195
-1.330757 -1.416343 5.624409
-1.181505 -1.246841 5.937384
-0.945661 -0.978946 6.335774
-0.818659 -0.834536 6.279767
-0.586125 -0.570412 6.691354
-0.420798 -0.382712 7.142329
-0.398744 -0.357891 7.596296
-0.713429 -0.715719 7.748130
-0.995234 -1.036261 8.071179
-1.003762 -1.046135 8.394678
-1.014898 -1.058973 8.716918
-0.964360 -1.001919 9.438576
-0.902653 -0.931996 9.851080
-0.860789 -0.884569 10.149557
-0.763831 -0.774467 10.371631
-0.495647 -0.469582 10.363948
-1.200562 -1.460399 1.067390
-1.061183 -1.278740 1.692334
-1.074363 -1.296057 1.864480
-0.946561 -1.129519 2.491434
-1.032133 -1.241245 2.434113
-0.934367 -1.114029 3.218211
-1.008451 -1.210912 3.429134
-1.427123 -1.758403 4.578087
-1.368321 -1.681588 4.549823
-1.210354 -1.475811 5.438766
-1.010801 -1.215197 5.454276
-0.994596 -1.194074 5.523036
-1.027012 -1.236665 5.947150
-0.809624 -0.952990 6.349407
-0.689104 -0.795748 6.618264
-0.583461 -0.657708 6.507971
-0.429084 -0.456358 6.958839
-0.417512 -0.441482 7.355103
-0.632734 -0.722908 7.919882
-0.718335 -0.835076 8.535134
-0.930629 -1.112254 8.393113
-0.896110 -1.067537 9.001455
-0.944852 -1.131249 9.092995
-0.909414 -1.085110 9.331989
-0.821098 -0.970152 9.974121
-0.775461 -0.910472 9.847848
-0.477035 -0.520954 10.243212
-0.874889 -1.195384 0.979847
-0.978408 -1.351112 1.469540
-0.957745 -1.320136 1.538305
-0.836869 -1.139088 2.167529
-0.868158 -1.186278 2.498804
-0.886156 -1.213552 2.884974
-0.821946 -1.117317 3.125981
-1.258339 -1.773370 4.534824
-1.242164 -1.749132 4.602240
-0.976254 -1.350357 5.236450
-0.863530 -1.181479 5.761448
-0.825583 -1.124632 5.945553
-0.657332 -0.872414 6.501264
-0.633095 -0.836114 6.629838
-0.525687 -0.674836 6.578576
-0.354649 -0.418483 7.207972
-0.511354 -0.653800 7.309187
-0.634156 -0.838830 8.336383
-0.828036 -1.129797 8.198067
-0.810324 -1.103535 8.695560
-0.782409 -1.062030 9.306759
-0.729193 -0.982414 9.722429
-0.727664 -0.980127 9.734830
-0.671619 -0.896304 10.209927
-0.529599 -0.683273 10.474896
-0.310455 -0.354246 10.412579
-0.919682 -1.466320 1.354636
-0.901109 -1.434115 1.422571
-0.836773 -1.322561 1.661215
-0.686361 -1.061933 2.463385
-0.787103 -1.236918 2.506622
-0.748601 -1.170502 3.121052
-0.866397 -1.375570 3.799557
-1.074401 -1.737195 4.337138
-1.127061 -1.828836 4.595495
-1.078851 -1.745091 4.567053
-0.739976 -1.157422 5.716003
-0.727097 -1.135107 5.784858
-0.621208 -0.951644 6.373129
-0.522442 -0.780318 6.643029
-0.425869 -0.612566 6.591221
-0.309244 -0.410317 6.985122
-0.356718 -0.493032 7.352104
-0.533366 -0.800220 7.916467
-0.627022 -0.963191 8.357494
-0.698511 -1.087516 8.594149
-0.686394 -1.066836 9.091162
-0.685515 -1.065630 9.529147
-0.664639 -1.029512 9.713637
-0.669804 -1.038448 9.667431
-0.527119 -0.790926 10.042765
-0.343782 -0.472756 10.347685
-0.741610 -1.388173 1.433819
-0.697724 -1.297469 1.834882
-0.733509 -1.371755 1.892955
-0.630162 -1.157937 2.579749
-0.656915 -1.213712 2.908928
-0.606790 -1.109930 3.150611
-1.013400 -1.954351 4.225175
-0.926643 -1.774758 4.682913
-0.671351 -1.245928 5.606021
-0.619366 -1.138112 5.639677
-0.630086 -1.160534 5.858946
-0.506297 -0.904152 6.357326
-0.495781 -0.882395 6.427290
-0.343617 -0.567078 6.844330
-0.285192 -0.446233 7.269962
-0.449624 -0.787458 7.399127
-0.512806 -0.919004 7.962251
-0.566485 -1.030612 8.260099
-0.588834 -1.077464 8.842707
-0.622567 -1.147880 9.362708
-0.615522 -1.133324 9.431503
-0.558606 -1.015745 10.019943
-0.536771 -0.970246 9.778614
-0.403048 -0.693251 10.273909
-0.197190 -0.266492 10.624905
-0.651070 -1.444263 1.414691
-0.635669 -1.406240 1.702180
-0.610690 -1.344241 1.828629
-0.553355 -1.202151 2.345336
-0.543760 -1.178782 2.848831
-0.585483 -1.282547 2.847330
-0.821094 -1.869977 4.337793
-0.853271 -1.950054 4.389984
-0.710885 -1.596309 4.772607
-0.622293 -1.376285 5.087909
-0.518872 -1.119497 5.520926
-0.476917 -1.015449 5.820400
-0.514211 -1.108502 6.130357
-0.462311 -0.979516 6.223029
-0.380601 -0.776622 6.550464
-0.293833 -0.560890 6.615037
-0.235290 -0.415445 6.772016
-0.251928 -0.457675 7.642111
-0.429740 -0.900048 7.793141
-0.457124 -0.968613 8.265155
-0.493196 -1.058726 8.675074
-0.526274 -1.141447 9.138662
-0.525963 -1.141099 9.575524
-0.525079 -1.138912 9.585882
-0.463801 -0.986782 9.863783
-0.412622 -0.859661 10.027960
-0.271266 -0.508458 10.390641
-0.416788 -1.067182 0.355713
-0.459283 -1.198514 1.131349
-0.519796 -1.384545 1.399298
-0.507404 -1.346848 1.684965
-0.495947 -1.312025 1.970176
-0.485424 -1.280063 2.254899
-0.425793 -1.098053 3.101431
-0.443971 -1.153972 3.211421
-0.646593 -1.777557 4.687725
-0.667685 -1.842101 4.528610
-0.491336 -1.301901 5.389210
-0.462830 -1.214697 5.628660
-0.389783 -0.991278 6.274270
-0.343061 -0.847682 6.101089
-0.256298 -0.582004 6.606739
-0.213615 -0.451507 7.030744
-0.254608 -0.577606 7.277616
-0.339438 -0.838513 7.754796
-0.357035 -0.893142 8.285933
-0.411052 -1.059063 8.406342
-0.407088 -1.047415 8.846924
-0.427296 -1.109610 8.996781
-0.426340 -1.107192 9.434482
-0.389605 -0.995077 9.965564
-0.373993 -0.947451 10.207764
-0.328154 -1.030077 0.468912
-0.425094 -1.413914 0.784405
-0.418033 -1.386991 1.455373
-0.393351 -1.289979 1.857447
-0.406311 -1.341401 1.972191
-0.369397 -1.196186 2.488603
-0.398029 -1.309736 2.703344
-0.344776 -1.100163 3.391532
-0.513787 -1.770265 4.545632
-0.494988 -1.696191 4.725997
-0.368830 -1.198799 5.750385
-0.350150 -1.124807 5.668924
-0.297409 -0.917113 6.260782
-0.273297 -0.821724 6.239212
-0.239166 -0.686888 6.335238
-0.152871 -0.346735 7.085106
-0.222166 -0.620928 7.185919
-0.284493 -0.868210 7.723997
-0.302079 -0.938466 8.198540
-0.348537 -1.122290 8.263261
-0.322996 -1.022458 9.053064
-0.329541 -1.048182 8.946093
-0.321966 -1.019050 9.500683
-0.338875 -1.086139 9.647807
-0.298799 -0.928064 9.925965
-0.241299 -0.700884 10.069771
-0.116235 -0.207078 10.596254
-0.255772 -1.026699 0.509503
-0.315659 -1.352776 0.940080
-0.339006 -1.480337 1.326119
-0.309311 -1.320121 1.843537
-0.307983 -1.313378 2.074185
-0.307007 -1.308538 2.304250
-0.388513 -1.755878 4.651405
-0.366566 -1.636757 4.681322
-0.352749 -1.562096 4.863953
-0.314020 -1.352306 5.124309
-0.271710 -1.123194 5.445976
-0.275997 -1.146913 5.664633
-0.259750 -1.059172 5.906000
-0.226842 -0.880890 6.114776
-0.169001 -0.568049 6.738678
-0.140721 -0.414792 6.895675
-0.165255 -0.549179 7.468689
-0.221516 -0.855420 7.826928
-0.249683 -1.008743 8.008553
-0.234918 -0.929926 8.684865
-0.253547 -1.031909 9.092525
-0.258333 -1.057684 8.986195
-0.243334 -0.977819 9.774037
-0.251575 -1.023105 10.037246
-0.222657 -0.866636 10.318448
-0.209228 -1.253003 0.743102
-0.226327 -1.404309 1.293886
-0.211011 -1.271851 1.755377
-0.210214 -1.265616 1.984161
-0.202984 -1.203491 2.327687
-0.212905 -1.291122 2.599522
-0.193163 -1.119621 2.955763
-0.269391 -1.789978 4.121169
-0.267971 -1.778449 4.396805
-0.253408 -1.652891 4.954744
-0.218748 -1.350493 5.175188
-0.176696 -0.984037 5.575556
-0.191907 -1.116827 5.504770
-0.166989 -0.900819 6.096299
-0.155885 -0.803641 6.072913
-0.126141 -0.544970 6.521549
-0.118896 -0.483269 7.036536
-0.123020 -0.520028 7.254229
-0.137215 -0.646177 7.881451
-0.182456 -1.042007 7.943192
-0.183670 -1.053676 8.270597
-0.187101 -1.084543 8.538758
-0.182492 -1.046027 9.095700
-0.171152 -0.948199 9.512948
-0.178946 -1.016830 9.661350
-0.171419 -0.951973 9.962383
-0.138014 -0.661259 10.401685
-0.097232 -0.303837 10.157156
-0.117893 -1.127553 0.989051
-0.127916 -1.346664 1.422719
-0.123093 -1.246035 1.826494
-0.124098 -1.269026 1.999459
-0.117124 -1.124724 2.736005
-0.119702 -1.181103 2.849098
-0.117144 -1.128747 3.192973
-0.141855 -1.670262 4.427951
-0.136882 -1.567217 4.932882
-0.131233 -1.447966 5.229896
-0.129958 -1.418979 5.032737
-0.114799 -1.097093 5.584447
-0.107495 -0.943186 6.003301
-0.099977 -0.782610 6.157199
-0.094971 -0.677292 6.463051
-0.091970 -0.614184 6.651925
-0.078400 -0.324100 6.899036
-0.088807 -0.550251 7.179305
-0.104554 -0.896583 8.125263
-0.109536 -1.006602 8.481266
-0.109539 -1.009691 8.867265
-0.112502 -1.074653 9.019511
-0.110330 -1.029381 9.205543
-0.109583 -1.017209 9.703595
-0.105875 -0.940249 10.063496
-0.102410 -0.864678 9.936711
-0.082461 -0.440093 10.537389
-0.039988 -1.293525 0.498490
-0.039282 -1.314730 1.281755
-0.038253 -1.360457 1.619275
-0.040121 -1.262725 1.804878
-0.040749 -1.225731 2.094504
-0.038282 -1.342183 2.530350
-0.043422 -1.076975 2.846071
-0.027937 -1.835992 4.062558
-0.028105 -1.822409 4.341252
-0.031408 -1.648181 4.750273
-0.036003 -1.410449 5.067649
-0.041770 -1.110315 5.563160
-0.043892 -0.997636 5.866749
-0.045040 -0.942276 5.727369
-0.050927 -0.634768 6.292133
-0.053269 -0.515894 6.330626
-0.054747 -0.430660 6.907981
-0.049599 -0.680427 7.452539
-0.046166 -0.844322 7.959698
-0.042396 -1.033349 8.026036
-0.039524 -1.173875 8.265520
-0.039938 -1.143796 8.765712
-0.042101 -1.025844 9.241425
-0.045083 -0.871274 9.463549
-0.044373 -0.901131 9.789208
-0.045095 -0.861244 9.976242
-0.048980 -0.655590 10.496994
-0.056219 -0.294742 10.255369
0.011473 -0.896236 0.593533
0.053248 -1.379109 0.956214
0.043831 -1.267258 1.581368
0.045721 -1.288426 1.755377
0.027726 -1.077066 2.390881
0.022847 -1.019020 2.737371
0.017600 -0.957627 2.865887
0.081370 -1.691688 4.137497
0.088327 -1.771012 4.455500
0.069736 -1.553221 4.978060
0.059624 -1.434693 5.275503
0.043207 -1.244589 5.214229
0.023413 -1.013683 5.537823
0.017489 -0.944198 5.724635
0.000005 -0.740313 5.995397
-0.024063 -0.459046 6.506746
-0.019576 -0.510391 6.669145
-0.008433 -0.638533 6.920575
0.003478 -0.774225 7.492660
0.024674 -1.017492 8.084184
0.031293 -1.093832 8.181292
0.026219 -1.032374 8.799800
0.031824 -1.096718 8.952436
0.024432 -1.009473 9.312995
0.015305 -0.901599 9.791490
0.011938 -0.861768 9.978985
-0.000739 -0.713805 10.205748
-0.029186 -0.383377 10.337782
0.065169 -0.852495 0.463204
0.097702 -1.062240 0.903627
0.126403 -1.247029 1.396473
0.124649 -1.234581 1.848119
0.123720 -1.228011 2.079177
0.092751 -1.025821 2.715110
