-0.550070 -1.050419 2.135105
-0.513212 -0.961263 2.527450
-0.613785 -1.361598 3.086725
-0.717989 -1.764887 3.546847
-0.738999 -1.890630 4.100684
-0.283262 -0.499848 5.959153
-0.256758 -0.456530 6.457053
-0.345380 -0.822662 7.088595
-0.432432 -1.147941 7.352310
-0.441393 -1.242153 8.009681
-0.449802 -1.317185 8.487702
-0.403977 -1.208604 8.999023
-0.359847 -1.106212 9.513985
-0.415953 -0.473036 -0.759664
-0.499755 -0.941521 -0.336040
-0.515913 -1.110893 0.332852
-0.545644 -1.298209 0.639936
-0.502886 -1.188295 1.382990
-0.499403 -1.187611 1.504933
-0.464171 -1.091135 2.073283
-0.430449 -1.002438 2.644378
-0.500194 -1.408017 3.113411
-0.531149 -1.622975 3.581211
-0.561943 -1.848298 4.131864
-0.408153 -1.239328 5.217374
-0.283919 -0.688832 5.659238
-0.261537 -0.621005 5.971720
-0.238006 -0.596492 6.647898
-0.277427 -0.827636 6.927160
-0.337555 -1.206375 7.547551
-0.338712 -1.276279 8.024643
-0.340014 -1.322835 8.323014
-0.302781 -1.208554 8.832115
-0.266720 -1.100523 9.344874
-0.392431 -0.774508 -0.209545
-0.400293 -0.952789 0.282061
-0.435052 -1.337639 0.685795
-0.420976 -1.327790 1.162878
-0.395786 -1.224184 1.639422
-0.368872 -1.126982 2.207754
-0.321324 -0.837009 2.693020
-0.349622 -1.142619 2.987923
-0.398067 -1.655641 3.448139
-0.387902 -1.677866 3.921391
-0.363084 -1.618268 4.577247
-0.296248 -1.151631 5.000317
-0.225286 -0.714121 5.703707
-0.219264 -0.753185 6.097727
-0.234162 -1.024720 6.738410
-0.243540 -1.149228 6.938065
-0.249127 -1.322745 7.492851
-0.243646 -1.405547 8.058755
-0.227706 -1.383434 8.550908
-0.200361 -1.269483 9.061713
-0.149120 -0.983902 9.702753
-0.322718 -0.795608 -0.034117
-0.312566 -0.876177 0.452168
-0.313352 -1.262176 0.943347
-0.294209 -1.153445 1.508852
-0.289715 -1.251895 1.808756
-0.272247 -1.256300 2.464482
-0.247353 -0.864241 2.861863
-0.191304 -0.756550 4.801634
-0.179666 -0.793687 5.284590
-0.166512 -0.728528 5.686061
-0.118431 -1.233364 8.155242
-0.106510 -1.324468 8.721509
-0.092289 -1.178844 9.054181
-0.062776 -0.906874 9.785342
-0.259395 -0.938306 -0.388898
-0.238207 -1.005682 0.281009
-0.230521 -0.994408 0.586521
-0.201517 -1.278953 1.166990
-0.195947 -1.173405 1.558797
-0.178194 -1.172377 2.220677
-0.169570 -1.078496 2.705641
-0.163152 -0.987756 3.103037
-0.146939 -1.007532 3.671258
-0.127183 -1.316121 3.865821
-0.115127 -1.246688 4.435599
-0.118822 -0.879765 4.940283
-0.113073 -0.718163 5.436831
-0.093944 -0.688857 6.199342
-0.084350 -0.720750 6.500281
-0.060110 -0.974674 6.957190
-0.028519 -1.344573 7.484505
-0.022886 -1.286895 7.794903
-0.001846 -1.301077 8.552388
0.010480 -1.282065 9.043953
0.014862 -1.072541 9.573549
-0.295211 -0.189052 -0.858561
-0.212547 -0.752742 -0.331859
-0.143533 -1.227882 0.087517
-0.092442 -1.499641 0.756705
-0.107330 -1.290837 1.142952
-0.104976 -1.183162 1.712827
-0.096914 -1.181907 2.016351
-0.087805 -1.089133 2.769002
-0.073341 -1.100531 3.252356
-0.046280 -1.216764 3.731061
-0.033472 -1.234780 4.123520
-0.040830 -1.063850 4.618189
-0.047349 -0.898868 5.117178
-0.049622 -0.747772 5.710765
-0.027335 -0.802675 6.288077
0.016290 -1.121385 6.470856
0.051330 -1.285338 7.030362
0.071762 -1.346534 7.510933
0.096759 -1.426090 8.077841
0.102976 -1.387162 8.482145
0.098286 -1.254317 8.904607
0.080214 -0.962472 9.545582
-0.168811 -0.665074 -0.252659
-0.080993 -1.035812 0.163878
0.011050 -1.404375 0.750765
0.001322 -1.293319 1.230395
0.015278 -1.284939 1.802136
0.010699 -1.186450 2.375052
0.005015 -1.094171 2.861064
0.040710 -1.203342 3.342273
0.057437 -1.220176 3.825617
0.051918 -1.140218 4.225078
0.038149 -0.983232 4.902415
-0.012600 -0.705015 5.142252
0.020812 -0.765984 5.902349
0.054953 -0.892071 6.199828
0.098325 -1.039304 6.675006
0.157772 -1.278509 7.045337
0.163652 -1.241069 7.540929
0.200512 -1.332044 8.201341
0.203964 -1.294418 8.609819
0.188844 -1.164212 9.036725
0.139828 -0.813820 9.881951
-0.257970 -0.217280 -0.596184
-0.057661 -0.873877 -0.337746
0.061440 -1.230873 0.166730
0.100365 -1.299970 0.831187
0.104420 -1.293558 1.043321
0.088601 -1.185651 1.611537
0.103283 -1.181263 2.181908
0.120203 -1.184492 2.752225
0.108096 -1.097223 3.236258
0.150409 -1.204171 3.624281
0.169292 -1.222636 4.104686
0.129850 -1.050077 4.508211
0.095832 -0.887044 5.005351
0.077522 -0.751214 5.777811
0.088893 -0.769427 5.992643
0.209340 -1.118918 6.623981
0.249598 -1.236698 6.824829
0.279054 -1.291211 7.304320
0.316019 -1.362860 7.871983
0.340497 -1.373715 8.632150
0.301204 -1.216765 8.877077
0.215057 -0.852434 9.626435
-0.024118 -0.805968 -0.707383
0.023337 -0.826646 0.665095
0.209360 -1.280050 1.070841
0.216980 -1.270609 1.461730
0.192289 -1.170450 1.941954
0.172379 -1.075840 2.514147
0.191214 -1.082007 3.086122
0.241567 -1.183855 3.474910
0.265154 -1.202520 4.045043
0.243130 -1.122190 4.353010
0.164300 -0.872804 4.945911
0.129443 -0.731081 5.628178
0.152841 -0.762302 6.024030
0.248400 -0.982839 6.397785
0.374399 -1.290399 6.666500
0.420318 -1.360666 7.323138
0.491326 -1.510635 7.786664
0.444615 -1.364506 8.116010
0.386338 -1.166860 8.731706
0.323524 -0.963616 9.264598
-0.000474 -0.714824 -0.705181
0.091282 -0.825138 0.581195
0.271858 -1.167992 1.074397
0.325919 -1.244543 1.644996
0.293893 -1.148730 2.124976
0.267265 -1.058403 2.696889
0.277615 -1.061140 2.999323
0.339520 -1.159639 3.477004
0.360406 -1.173193 3.957140
0.301740 -1.016023 4.539035
0.203587 -0.776437 5.133757
0.178622 -0.705524 5.446718
0.203745 -0.733069 5.842025
0.335817 -0.966390 6.485424
0.487200 -1.262831 6.752736
0.532020 -1.320507 7.319668
0.572458 -1.374659 7.796859
0.521824 -1.244180 8.215250
0.508057 -1.167692 8.993798
0.420591 -0.959502 9.437691
0.051404 -0.674889 -0.088071
0.103270 -0.733013 0.491788
0.360542 -1.143656 1.077191
0.368225 -1.131268 1.556353
0.374479 -1.125971 1.856730
0.339073 -1.034726 2.426622
0.357960 -1.036737 2.996523
0.365978 -1.039222 3.207912
0.398786 -1.055601 3.956558
0.378273 -0.989639 4.532029
0.250849 -0.748730 4.944802
0.219709 -0.678626 5.256006
0.264944 -0.720814 5.921045
0.301251 -0.757350 6.404708
0.424869 -0.954743 6.684464
0.630208 -1.274339 7.304396
0.616500 -1.229372 7.705588
0.604815 -1.187807 8.108137
0.574355 -1.098766 8.795861
0.508997 -0.968656 9.130159
0.340524 -0.639087 9.882904
0.164875 -0.749893 -0.081170
0.278644 -0.889284 0.412787
0.511211 -1.194198 0.996294
0.458552 -1.100715 1.385913
0.409945 -1.008730 1.867124
0.476803 -1.085881 2.259097
0.497555 -1.084770 2.915646
0.520335 -1.090753 3.482589
0.534150 -1.096495 3.781306
0.496825 -1.024740 4.174738
0.358449 -0.799495 4.762980
0.269686 -0.653627 5.169809
0.360703 -0.761447 5.643868
0.242333 -0.559863 6.337139
0.397644 -0.760168 6.797675
0.677583 -1.135804 7.316150
0.698364 -1.155716 7.524841
0.738488 -1.194937 7.911222
0.698601 -1.105893 8.595549
0.643235 -1.002889 9.105844
0.412091 -0.650230 9.584890
-0.081882 -0.390694 -0.775953
0.229944 -0.737614 -0.168037
0.419863 -0.951098 0.149851
0.675375 -1.235499 0.644800
0.550834 -1.059454 1.297903
0.556389 -1.049719 1.689076
0.504593 -0.963980 2.259969
0.516067 -0.961275 2.652080
0.597567 -1.038567 3.130722
0.627246 -1.046434 3.789680
0.648064 -1.054946 4.180367
0.433003 -0.769401 4.867117
0.326323 -0.628637 5.186767
0.362902 -0.651987 5.672650
0.291791 -0.538319 6.359800
0.502131 -0.781887 6.541468
0.739115 -1.046254 6.986479
0.808472 -1.101630 7.642339
0.842391 -1.129619 7.941430
0.784315 -1.035287 8.538464
0.708237 -0.926763 8.960950
0.521888 -0.681162 9.512458
0.153687 -0.607468 -0.711447
0.564191 -1.018778 -0.373261
0.834164 -1.275234 0.212681
0.832068 -1.261553 0.510650
0.693691 -1.093407 1.160023
0.628039 -1.010546 1.547970
0.640470 -0.997970 2.206008
0.518190 -0.849424 2.778832
0.664704 -0.992904 2.985479
0.827662 -1.139721 3.545727
0.708614 -1.001292 3.943186
0.805677 -1.083384 4.415508
0.642548 -0.888541 5.093596
0.388948 -0.613434 5.428357
0.505842 -0.712460 5.993012
0.679601 -0.877764 6.363840
0.883320 -1.063885 6.997416
0.847153 -1.014448 7.309191
0.912992 -1.060645 7.875108
0.892871 -1.024283 8.277828
0.831618 -0.937818 8.876728
0.627314 -0.705377 9.426226
0.723141 -1.035683 -0.399809
0.712109 -1.005763 0.168126
0.632133 -0.918833 0.643957
0.781933 -1.038940 0.949617
0.711883 -0.951083 1.694665
0.718691 -0.943125 2.084460
0.502569 -0.740042 2.478429
0.747296 -0.933942 3.042740
0.918209 -1.066611 3.513776
0.858105 -1.003218 3.817095
0.960554 -1.075991 4.288623
0.767193 -0.889141 4.785557
0.503664 -0.640394 5.297275
0.485722 -0.600676 5.970424
0.290368 -0.417872 6.305156
0.498658 -0.580282 6.858829
0.999370 -1.003743 7.264131
1.057096 -1.037245 7.740026
1.044886 -1.009062 8.230484
0.889271 -0.854224 8.755417
0.738845 -0.703712 9.286330
0.299314 -0.297451 9.898398
0.571882 -0.803420 -0.588405
0.477763 -0.718259 -0.109506
0.788897 -0.924363 0.569167
0.867734 -0.975141 0.784515
0.867980 -0.953380 1.442567
0.794510 -0.880386 2.011810
0.964185 -0.992152 2.400894
1.231712 -1.163163 3.170566
1.182361 -1.105009 3.826539
1.002236 -0.940129 4.800023
0.646287 -0.658098 5.410347
0.618034 -0.617852 5.994419
0.319203 -0.389613 6.250842
0.530196 -0.529183 6.717005
1.064130 -0.908041 7.126981
1.067189 -0.887939 7.797308
1.095754 -0.901864 8.009470
1.031348 -0.831562 8.697853
0.789476 -0.635422 9.247422
0.348319 -0.284558 10.043429
0.623431 -0.747158 -0.382223
0.529610 -0.678956 -0.080972
0.855715 -0.861275 0.599538
1.021596 -0.949557 1.086425
1.022128 -0.937480 1.478098
0.856265 -0.821377 1.869653
1.034782 -0.917750 2.350499
1.556944 -1.229409 2.817458
1.405824 -1.119711 3.297802
1.424297 -1.118980 3.685378
1.151453 -0.914615 4.751678
0.682809 -0.604883 5.279954
0.650178 -0.565936 5.865283
0.362561 -0.369349 6.394598
0.574577 -0.489975 6.770990
1.041190 -0.771110 7.105228
1.210099 -0.856280 7.750076
1.181301 -0.825428 8.155561
1.085832 -0.749596 8.665148
0.912593 -0.624471 9.195924
0.295789 -0.209628 10.118144
0.867265 -0.794768 -0.560969
0.756045 -0.717379 0.097252
0.923329 -0.788976 0.588716
1.096339 -0.866360 0.986693
1.184386 -0.894615 1.557146
0.920322 -0.749013 1.858826
1.108031 -0.828795 2.428698
1.648996 -1.099604 2.719193
1.580806 -1.047289 3.283709
1.514934 -0.998757 3.762737
1.620534 -1.044443 4.056789
1.309995 -0.863464 4.733970
0.817415 -0.592942 5.260923
0.684448 -0.508997 5.764270
0.478502 -0.384149 6.372900
0.710057 -0.489747 6.838496
1.110553 -0.686305 7.183557
1.286944 -0.757982 7.828043
1.256416 -0.729939 8.233605
1.170794 -0.667502 8.834887
0.990321 -0.558074 9.368991
0.852235 -0.692110 -0.823370
1.299465 -0.866861 -0.489584
1.460205 -0.913858 0.174444
1.354906 -0.854111 0.736008
1.259513 -0.808677 0.945607
1.349068 -0.831665 1.425529
0.983758 -0.661993 2.079570
1.839272 -0.987671 3.014277
1.678194 -0.904823 3.579092
1.596534 -0.864968 3.791616
1.716622 -0.900943 4.258000
1.401730 -0.748859 5.022363
0.782762 -0.483211 5.379070
0.662398 -0.413741 6.061409
0.429489 -0.305277 6.488277
0.692657 -0.395116 7.131727
1.201823 -0.595628 7.458075
1.269468 -0.609652 7.935527
1.328316 -0.622651 8.323414
1.208564 -0.561046 8.743772
0.958923 -0.436943 9.471313
0.516249 -0.497652 -0.737720
0.968395 -0.630963 -0.224318
1.138826 -0.670315 0.354784
1.411989 -0.743334 0.931013
1.408728 -0.733804 1.230477
1.218198 -0.655555 1.795080
1.992231 -0.884476 2.649031
1.915487 -0.843561 3.208907
1.552593 -0.713616 3.608789
1.514459 -0.674127 4.564823
1.281690 -0.578908 5.241236
0.758308 -0.392695 5.775534
0.798619 -0.394717 6.170289
0.926601 -0.428255 6.464042
1.078553 -0.464625 6.934922
1.272883 -0.507387 7.669795
1.344011 -0.517107 8.148623
1.297756 -0.493039 8.465124
1.112779 -0.415066 9.084203
0.860646 -0.311874 9.818726
1.036276 -0.560378 -0.587531
1.373953 -0.599599 0.865537
1.464579 -0.605252 1.432101
1.076960 -0.496139 2.086556
1.968233 -0.684517 2.846941
1.880585 -0.655710 3.144736
1.719316 -0.597320 3.887873
1.747581 -0.590920 4.360386
1.761774 -0.588500 4.568875
1.327739 -0.467539 5.257558
0.887371 -0.349633 5.781649
0.840623 -0.325044 6.274720
0.907217 -0.324875 6.847690
1.150308 -0.371855 7.214521
1.338942 -0.398415 7.857744
1.398445 -0.401675 8.246090
1.254843 -0.358798 8.577450
1.145133 -0.318879 9.090137
1.171327 -0.485616 -0.477921
1.346065 -0.498691 0.010256
1.526516 -0.512747 0.494019
1.414438 -0.480608 1.055145
1.607604 -0.499142 1.444642
1.112240 -0.414030 1.829137
2.114015 -0.539557 2.766569
2.033118 -0.512192 3.324989
1.848142 -0.476094 3.627456
1.981977 -0.478867 4.267879
1.915351 -0.455885 4.744149
1.263247 -0.343262 5.271680
0.931172 -0.274327 5.966658
0.776334 -0.239757 6.380046
0.844069 -0.234385 6.953543
1.165339 -0.278061 7.128328
1.341137 -0.289508 7.682306
1.440815 -0.286757 8.336588
1.294824 -0.255759 8.667584
1.231638 -0.402575 -0.887159
1.202716 -0.387666 -0.407830
1.282979 -0.382582 -0.012826
1.566432 -0.391402 0.387905
1.546967 -0.370103 1.128806
1.542944 -0.361787 1.427259
1.341800 -0.332668 1.991809
1.544735 -0.336298 2.378388
2.254373 -0.370690 2.924460
2.266622 -0.361299 3.304641
1.797364 -0.310887 3.971057
1.808952 -0.306080 4.179321
1.951370 -0.298685 4.819828
1.385181 -0.247883 5.251654
0.940167 -0.200572 5.865211
0.782071 -0.178502 6.278561
0.946822 -0.174763 6.840670
1.194198 -0.182008 7.207194
1.285792 -0.170643 7.864542
1.359152 -0.162848 8.342476
1.408024 -0.158167 8.641869
1.433255 -0.201087 -0.210189
1.602824 -0.171662 0.451848
1.590167 -0.162120 0.838348
1.676905 -0.138598 1.491562
1.774712 -0.126265 1.701135
1.575263 -0.124752 2.263910
2.390859 -0.044077 3.188283
1.837208 -0.053611 4.240483
1.866433 -0.038904 4.712407
1.702268 -0.036997 5.200194
1.146602 -0.060753 5.729358
0.895542 -0.064157 6.240616
0.937949 -0.050677 6.633503
1.204411 -0.017737 7.179977
1.354589 0.002664 7.556132
1.534518 0.029808 8.107157
1.623311 0.051038 8.670018
1.507713 0.056827 9.178602
1.006369 0.038351 9.765870
1.342711 -0.173184 -0.286346
1.606287 -0.127568 0.468094
1.797955 -0.103432 0.681890
1.684030 -0.099303 1.239374
1.876412 -0.065725 1.800506
1.479273 -0.088600 2.362920
2.488359 0.028097 3.104259
2.202104 0.011143 3.492380
2.122673 0.016248 3.963536
1.954811 0.015472 4.530756
1.596468 -0.002994 5.118806
1.330158 -0.017416 5.529900
1.004777 -0.027395 6.315384
0.829388 -0.037911 6.548423
0.895947 -0.016101 7.120239
1.242089 0.026528 7.470865
1.394069 0.051167 7.844199
1.478463 0.074469 8.407993
1.570626 0.098482 8.970539
1.164748 0.074824 9.534941
1.344494 -0.062006 -0.146465
1.609182 0.003406 0.523746
1.700003 0.025465 0.739569
1.685237 0.038273 1.305265
1.875776 0.085091 1.777847
2.475391 0.225040 2.994388
2.301313 0.213996 3.725443
2.314092 0.224202 4.016050
2.060377 0.199388 4.762032
1.694380 0.145469 5.173994
1.438213 0.113480 5.673038
1.108097 0.073673 6.368037
0.856295 0.040414 6.792044
0.901922 0.059210 7.183168
1.255763 0.134184 7.622128
1.432304 0.180625 8.172213
1.504793 0.206468 8.646325
1.470679 0.211365 9.048346
1.182045 0.177352 9.685061
1.890294 0.202235 0.646476
1.783572 0.182959 0.941987
1.673810 0.170294 1.503982
1.863709 0.227500 1.803939
2.463364 0.427947 3.464904
2.376886 0.413950 3.762870
2.204192 0.382780 4.241819
2.042559 0.357005 4.812586
1.799183 0.313005 5.484966
1.357330 0.213769 6.008015
0.931281 0.121404 6.632098
0.888412 0.124125 7.127974
1.224100 0.220343 7.481323
1.358955 0.263025 7.768475
1.520959 0.317561 8.231037
1.620390 0.361263 8.883694
1.383033 0.309909 9.235102
1.244916 0.116522 -0.180775
1.786430 0.318613 0.325202
1.764378 0.327000 0.889001
1.657096 0.303307 1.363568
2.026614 0.466869 2.611278
2.414533 0.619348 3.244880
2.419873 0.627109 3.452738
2.341237 0.613282 3.925085
2.286892 0.617809 4.746789
1.934109 0.507304 5.161106
1.585350 0.398404 5.582779
1.170575 0.274736 6.289874
0.729906 0.132246 6.650660
0.968930 0.228253 7.113307
1.411209 0.396305 7.631873
1.567031 0.463510 8.095856
1.528207 0.461564 8.500739
1.441864 0.451234 9.190031
0.948368 0.294434 9.691530
1.741268 0.474135 0.575939
1.727113 0.479199 0.962976
1.716346 0.485780 1.350099
2.072009 0.688923 2.854463
2.444767 0.868860 3.310613
2.366061 0.847536 3.780828
2.376548 0.860858 4.074346
2.214952 0.802779 4.553840
1.978480 0.716754 5.220258
1.654271 0.589490 5.817195
1.148388 0.379396 6.357223
0.812954 0.239832 6.706514
0.962217 0.323070 7.269348
1.278342 0.474658 7.621833
1.529426 0.602647 8.159723
1.491401 0.597555 8.563973
1.380146 0.562904 9.075373
0.976388 0.183583 -0.697618
1.557245 0.520503 -0.177039
1.885985 0.714572 0.227955
1.872247 0.716099 0.525000
1.764100 0.673472 1.083029
1.662720 0.634675 1.644004
2.007382 0.865809 2.969944
2.363024 1.073586 3.337246
2.201754 1.001680 3.897657
2.134831 0.981866 4.456834
2.065470 0.955435 4.844324
1.841260 0.852069 5.512750
1.525832 0.693472 6.023849
0.946980 0.387881 6.487878
0.737898 0.291058 7.097186
1.221915 0.571288 7.514062
1.428820 0.693956 7.785972
1.409991 0.701342 8.365578
1.460649 0.741220 8.752887
1.522829 0.640849 -0.355255
1.825081 0.858563 0.225218
1.724151 0.804324 0.605299
1.615616 0.756477 1.339775
1.606977 0.763187 1.725227
2.018421 1.076536 3.043384
2.275517 1.260489 3.498720
2.205670 1.232357 4.054083
2.135313 1.198393 4.438587
1.997537 1.128715 5.093026
1.690981 0.943043 5.596774
1.223184 0.652136 6.129977
0.913008 0.458949 6.474208
1.504321 0.879588 7.445455
1.452004 0.855140 7.756448
1.421863 0.851017 8.245315
1.348304 0.827428 9.017905
1.096532 0.682130 9.655254
1.449412 0.759931 -0.077552
1.653675 0.942339 0.583338
1.563347 0.881627 0.875927
1.550742 0.884863 1.259936
1.535990 0.895437 1.908324
1.846428 1.183257 3.223357
2.092790 1.397447 3.850080
2.097727 1.408270 4.054083
1.957797 1.317970 4.617259
1.816015 1.220443 5.011098
1.534547 1.023310 5.689744
1.328349 0.879078 6.192316
1.362207 0.921744 6.666241
1.464006 1.011115 6.950575
1.443036 1.017270 7.612073
1.471962 1.050000 7.907889
1.385383 1.005422 8.587395
1.218836 0.896003 9.200766
0.802489 0.587139 9.698545
1.000609 0.482313 -0.999503
1.410021 0.875801 -0.480947
1.663961 1.135760 0.277228
1.646860 1.134121 0.661914
1.635514 1.134560 0.959063
1.547164 1.070748 1.426644
1.459869 1.014405 2.072837
1.676847 1.226734 2.451765
1.454110 1.046651 3.103103
1.906693 1.490726 3.926101
1.915351 1.512368 4.302887
1.785317 1.413946 4.867433
1.657102 1.314189 5.349592
1.385922 1.084483 5.855406
1.345531 1.068285 6.425495
1.359268 1.088393 6.632524
1.400339 1.146332 7.191659
1.358466 1.122451 7.587981
1.353371 1.145109 8.338252
1.256239 1.074602 8.842630
1.163691 1.008422 9.350662
1.381336 1.044330 -0.011335
1.567433 1.258319 0.385365
1.547951 1.256017 0.855670
1.534878 1.257111 1.238459
1.520289 1.263477 1.796648
1.511006 1.275501 2.354857
1.576678 1.357037 2.648167
1.438636 1.231976 3.211310
1.576431 1.386758 3.411700
1.857640 1.711004 4.033821
1.732969 1.600223 4.597590
1.542259 1.416119 5.087135
1.423836 1.308959 5.573468
1.300673 1.189989 5.887762
1.335336 1.252390 6.535695
1.291107 1.220770 6.931308
1.262522 1.212811 7.504677
1.285569 1.249003 7.800606
1.281561 1.274232 8.551837
1.183125 1.185688 8.969593
0.903982 0.913743 9.623220
1.526528 1.465425 0.224951
1.509684 1.460687 0.606952
1.421680 1.381190 1.337420
1.415824 1.382790 1.545282
1.467124 1.467917 2.015883
1.459773 1.478960 2.485581
1.455842 1.494317 2.955199
1.393206 1.435717 3.428470
1.459162 1.542905 3.981277
1.525242 1.638809 4.269713
1.354694 1.456022 5.021473
1.301356 1.401827 5.325253
1.256060 1.365451 5.806177
1.284660 1.429573 6.453665
1.252746 1.414002 7.024987
1.141499 1.283700 7.259447
1.178356 1.354524 7.820896
1.206459 1.406641 8.205442
1.074406 1.270139 8.903705
0.863072 1.023134 9.361348
1.251424 1.343190 -0.114209
1.403189 1.585730 0.195257
1.379727 1.577511 0.752070
1.305110 1.492530 1.307628
1.294416 1.495049 1.690827
1.341244 1.583796 2.073615
1.332267 1.597313 2.630747
1.328041 1.613713 3.100327
1.326993 1.639099 3.657116
1.329451 1.665500 4.126253
1.279456 1.613563 4.601801
1.177071 1.483550 5.087201
1.188785 1.523945 5.558730
1.253147 1.634291 5.844642
1.159033 1.516971 6.336053
1.076395 1.425585 7.007681
1.100580 1.484730 7.480297
1.072652 1.466421 7.967013
1.109091 1.548172 8.527004
1.013611 1.416707 8.768588
0.795806 1.130294 9.598058
1.142113 1.448833 -0.276781
1.260524 1.695544 0.299701
1.244892 1.688664 0.685485
1.225373 1.684471 1.246257
1.161347 1.599591 1.806922
1.150995 1.607226 2.281573
1.192900 1.704603 2.666610
1.186199 1.728219 3.309626
1.184801 1.741993 3.602850
1.185000 1.773229 4.157973
1.138254 1.705137 4.457248
1.047484 1.572369 5.028528
1.153810 1.795128 5.568250
1.116549 1.754145 6.045834
1.076561 1.698579 6.350077
1.005359 1.611588 7.106636
0.965491 1.551560 7.326735
0.986375 1.615598 7.797469
0.961858 1.598161 8.283039
0.908105 1.543441 9.051124
0.741149 1.266192 9.507761
1.025118 1.526636 -0.170580
1.132468 1.787260 0.230070
1.113869 1.777132 0.702899
1.058892 1.681689 1.086430
1.044466 1.680780 1.560693
1.076020 1.774748 1.947219
1.062674 1.787424 2.595225
1.055685 1.802696 3.068230
1.050415 1.827361 3.628448
1.048943 1.843385 3.926349
0.965613 1.703819 4.586595
0.925427 1.635735 4.892972
1.015116 1.872726 5.525618
0.979365 1.820056 5.920485
0.951162 1.800959 6.579535
0.917242 1.746852 6.890157
0.892598 1.729998 7.463507
0.861404 1.681920 7.775169
0.879742 1.752578 8.248220
0.830171 1.693877 9.017560
0.638547 1.299933 9.405813
0.799853 1.347755 -0.570227
0.874306 1.606850 0.010578
0.928476 1.785961 0.317265
0.938378 1.866883 0.967555
0.893183 1.769235 1.350432
0.879968 1.769949 1.823360
0.903719 1.868754 2.207867
0.890696 1.884096 2.854455
0.883380 1.901497 3.326013
0.878783 1.919542 3.710014
0.840584 1.863623 4.361887
0.805909 1.803739 4.841057
0.805950 1.827973 5.138521
0.875031 2.075602 5.766594
0.843401 2.003256 5.985132
0.816241 1.972039 6.553975
0.755533 1.832287 6.962394
0.767918 1.920037 7.609710
0.746025 1.897147 8.096276
0.728701 1.894484 8.671850
0.638945 1.667202 9.020856
0.464186 1.231514 9.784737
0.691143 1.399106 -0.464663
0.756264 1.674828 -0.148238
0.780701 1.843344 0.597562
0.799550 1.935383 0.807049
0.784785 1.928923 1.275632
0.738682 1.832832 2.006921
0.759509 1.931889 2.212991
0.747197 1.943659 2.769073
0.765879 2.052553 3.147066
0.759554 2.068388 3.527110
0.700015 1.904934 4.092135
0.667742 1.852092 4.743121
0.691320 1.978841 5.117176
0.715487 2.125632 5.663214
0.689461 2.078032 6.140116
0.664868 2.035960 6.618762
0.641720 1.999449 7.099085
0.620026 1.968530 7.581016
0.598610 1.929726 7.976953
0.579582 1.909060 8.461837
0.563771 1.909627 9.035755
0.442264 1.505562 9.509447
0.577497 1.444066 -0.379162
0.636378 1.819287 0.026919
0.662663 2.004754 0.330764
0.641964 1.988179 0.975069
0.633129 1.983996 1.269825
0.619871 1.981734 1.739518
0.605453 1.986070 2.296683
0.612790 2.093914 2.764185
0.601025 2.112237 3.319736
0.576945 2.026810 3.617868
0.547497 1.964107 4.267537
0.521042 1.904992 4.832154
0.533919 2.041614 5.293290
0.548615 2.174815 5.664575
0.527640 2.106679 5.967075
0.505537 2.071062 6.532831
0.484855 2.043343 7.100451
0.484148 2.108116 7.568356
0.465942 2.081171 8.050669
0.430612 1.977850 8.638342
0.396161 1.866987 9.142418
0.324284 1.535567 9.510830
0.492405 1.870903 -0.112648
0.482561 1.945067 0.538006
0.471166 1.935012 0.921061
0.465571 2.026327 1.480582
0.455129 2.025210 1.862840
0.442816 2.028804 2.332550
0.426851 2.042650 2.977055
0.430362 2.151812 3.268313
0.409319 2.072435 3.741069
0.390627 1.993470 4.128381
0.377646 2.036055 4.773305
0.379429 2.172674 5.234472
0.371262 2.215562 5.702325
0.355848 2.146352 6.005913
0.336722 2.109741 6.572730
0.318381 2.081148 7.141405
0.301865 2.047854 7.624397
0.298470 2.091630 7.919003
0.269715 2.013594 8.682448
0.245774 1.869320 9.012070
0.188075 1.484794 9.664404
0.318824 2.079641 0.517499
0.310762 2.070722 0.811146
0.300360 2.062358 1.192290
0.281041 1.956484 1.835689
0.272737 2.057850 2.217090
0.264555 2.162825 2.596562
0.247916 2.076671 3.154277
0.235669 2.094300 3.622646
0.223733 2.012837 4.008693
0.209573 1.940690 4.484163
0.201923 2.066978 4.859037
0.187812 2.219539 5.493128
0.173958 2.165046 5.969800
0.155864 2.136569 6.622854
0.142172 2.095614 7.103181
0.132931 2.147100 7.483834
0.123579 2.090333 7.791368
0.107988 2.077503 8.362416
0.092222 1.959026 8.864582
0.067618 1.683479 9.583459
0.136884 2.312534 0.180675
0.136394 2.200707 0.471231
0.135726 1.984197 1.023430
0.123570 1.975838 1.495285
0.106859 2.072903 1.879579
0.094132 2.074557 2.348264
0.077029 2.179704 2.727391
0.068938 2.000657 3.464060
0.066642 1.912959 3.762932
0.056107 1.842004 4.327062
0.038664 1.878484 4.886107
0.010337 2.199290 5.156848
-0.007722 2.247235 5.710827
-0.014153 2.185274 6.100609
-0.032954 2.168011 6.840991
-0.034020 2.094567 7.059491
-0.047742 2.070062 7.628837
-0.061637 2.125573 8.009744
-0.079593 2.129066 8.668175
-0.076210 1.899671 9.101264
-0.022967 2.112495 0.303115
-0.037096 2.089671 0.947064
-0.050527 2.078198 1.503811
-0.058086 2.075225 1.798275
-0.073240 2.075455 2.355096
-0.103994 2.182255 2.909309
-0.095854 2.088224 3.118766
-0.105090 2.015123 3.854780
-0.106945 1.939865 4.330654
-0.106431 1.864357 4.720646
-0.160370 2.180786 4.993388
-0.188929 2.240381 5.722389
-0.186759 2.169626 6.025672
-0.200058 2.139464 6.678765
-0.202951 2.086563 7.071780
-0.224585 2.147271 7.539730
-0.237292 2.128504 8.109318
-0.237925 2.075735 8.418409
-0.229556 1.942254 8.833072
-0.213213 1.682124 9.640003
-0.183706 2.108875 0.207544
-0.192228 2.089390 0.677290
-0.201973 2.075279 1.147204
-0.192989 1.967992 1.704183
-0.229974 2.063310 2.262181
-0.246546 2.068672 2.819619
-0.256011 2.074573 3.114669
-0.247002 1.987907 3.501018
-0.226899 1.819435 4.158016
-0.238594 1.834946 4.454850
-0.335165 2.174393 5.166381
-0.352448 2.204304 5.547563
-0.348787 2.140674 5.938454
-0.346016 2.080776 6.330876
-0.379790 2.151531 6.974529
-0.374431 2.090547 7.281971
-0.395328 2.092136 8.027479
-0.397261 2.052337 8.425237
-0.405756 2.030698 8.911734
-0.373083 1.822878 9.436332
-0.327298 1.987831 0.277913
-0.393236 2.162344 0.666378
-0.375183 2.047793 1.307057
-0.351657 1.946918 1.600418
-0.395898 2.037497 2.157651
-0.401750 2.037596 2.364319
-0.419099 2.042917 2.920708
-0.412142 1.962944 3.568428
-0.400989 1.885097 4.043418
-0.357803 1.712718 4.438788
-0.409452 1.835037 4.903955
-0.517621 2.146275 5.262046
-0.512560 2.087609 5.738735
-0.538869 2.129280 6.206518
-0.537267 2.081378 6.685583
-0.543159 2.049296 7.253658
-0.568779 2.096560 7.634457
-0.555903 1.995548 8.307434
-0.568870 1.985489 8.880311
-0.533892 1.845032 9.209963
-0.569018 2.121302 0.711679
-0.535688 2.018583 1.005806
-0.508601 1.912350 1.564460
-0.519928 1.906454 2.037743
-0.533360 1.905722 2.511007
-0.583525 2.001546 2.894070
-0.573592 1.924616 3.632412
-0.548661 1.841945 3.934390
-0.491248 1.672789 4.331688
-0.566421 1.805171 5.063184
-0.700271 2.108035 5.422352
-0.717862 2.130179 5.717628
-0.721813 2.093320 6.371621
-0.704875 2.029897 6.678765
-0.714885 2.007634 7.336542
-0.737837 2.042892 7.632412
-0.702189 1.919799 8.132848
-0.729271 1.932848 8.883043
-0.683180 1.796115 9.215106
-0.643579 1.913619 0.181421
-0.692164 1.981475 0.657486
-0.699510 1.962679 1.216882
-0.663369 1.862983 1.688429
-0.724772 1.946008 2.335966
-0.736706 1.946721 2.720575
-0.757035 1.953644 3.279923
-0.765560 1.958036 3.489530
-0.700969 1.796136 4.059188
-0.689805 1.734919 4.715153
-0.841115 2.018210 4.990663
-0.881400 2.059577 5.635325
-0.850849 1.986029 5.853943
-0.839843 1.935514 6.335653
-0.882899 1.987507 6.894140
-0.892745 1.967752 7.552680
-0.891102 1.935544 8.038393
-0.892057 1.908455 8.524557
-0.886665 1.873920 8.924713
-0.804840 1.680504 9.450408
-0.845335 1.938970 0.243723
-0.846839 1.921581 0.628121
-0.855049 1.897133 1.362392
-0.812020 1.802072 1.834319
-0.878409 1.882205 2.394037
-0.887700 1.882114 2.691202
-0.904813 1.885842 3.163155
-0.928835 1.896412 3.722299
-0.848684 1.739808 4.205217
-0.813241 1.665853 4.509804
-1.002106 1.948248 5.048561
-1.027567 1.970267 5.431880
-1.016511 1.922803 5.999100
-0.995299 1.867576 6.393658
-1.042760 1.916686 6.952049
-1.034741 1.878506 7.436109
-1.038698 1.855405 8.009062
-1.037428 1.828151 8.496233
-1.049373 1.818015 9.072201
-1.129388 2.021558 0.201051
-1.070050 1.919716 0.666719
-1.013999 1.822230 1.134908
-1.019048 1.811683 1.518841
-1.028204 1.802802 1.989237
-1.043301 1.798037 2.547064
-1.059603 1.798883 3.017350
-1.071514 1.801690 3.312698
-1.038461 1.731222 3.874961
-0.946035 1.583581 4.357981
-1.039641 1.685823 4.911245
-1.183739 1.865210 5.278045
-1.232917 1.902966 5.920595
-1.221754 1.862105 6.486637
-1.190262 1.805371 6.792945
-1.177637 1.766325 7.275149
-1.217406 1.803092 7.657281
-1.211012 1.772437 8.141364
-1.171520 1.688001 8.818475
-1.115718 1.589125 9.324777
-1.147889 1.771409 0.345442
-1.147189 1.754815 0.728167
-1.150439 1.735605 1.285879
-1.162400 1.719318 2.018616
-1.167387 1.716547 2.226655
-1.249332 1.789037 2.782241
-1.210025 1.716593 3.429451
-1.168109 1.648215 3.904377
-1.054599 1.503402 4.211620
-1.095464 1.524228 4.860364
-1.317226 1.767561 5.220174
-1.346853 1.786324 5.601651
-1.321891 1.737535 6.080173
-1.317599 1.705609 6.733304
-1.282981 1.652704 7.039009
-1.259498 1.609105 7.433403
-1.323367 1.660541 7.989279
-1.328292 1.642728 8.560384
-1.239084 1.525372 8.887869
-1.087008 1.315045 9.695153
-1.360782 1.733960 0.490982
-1.289180 1.639242 1.130810
-1.222321 1.555685 1.598705
-1.298279 1.619450 1.893244
-1.309001 1.612338 2.361927
-1.326785 1.608893 2.917976
-1.346037 1.610199 3.386439
-1.298147 1.545143 3.859569
-1.117872 1.345732 4.435000
-1.202391 1.421456 4.636181
-1.455196 1.650502 5.170467
-1.493175 1.670327 5.637366
-1.472665 1.628831 6.201411
-1.467158 1.598761 6.854620
-1.448855 1.562591 7.335178
-1.504881 1.600182 7.802703
-1.471891 1.556044 8.110682
-1.464442 1.530450 8.594501
-1.378657 1.430224 9.009745
-1.276861 1.470318 -0.338578
-1.569395 1.690453 0.409927
-1.413486 1.546006 0.783145
-1.413121 1.535394 1.076504
-1.416934 1.519084 1.632253
-1.424726 1.509196 2.100602
-1.434149 1.503755 2.481482
-1.456346 1.499864 3.124571
-1.469093 1.500300 3.417845
-1.416536 1.439416 3.890696
-1.303646 1.321245 4.547583
-1.413667 1.397664 5.010519
-1.611244 1.545189 5.548923
-1.645700 1.560896 5.928072
-1.625128 1.523754 6.492081
-1.600659 1.486326 6.970782
-1.580617 1.452570 7.451109
-1.530943 1.403007 7.670845
-1.541593 1.388861 8.328950
-1.534160 1.365572 8.813692
-1.484429 1.299807 9.493289
-1.476477 1.416167 -0.329942
-1.706203 1.557340 0.327390
-1.619039 1.480273 0.791725
-1.536205 1.409071 1.171113
-1.538761 1.395417 1.640793
-1.547617 1.383347 2.197960
-1.559993 1.376653 2.667635
-1.580495 1.372843 3.224613
-1.585732 1.372609 3.344448
-1.547986 1.318714 4.168729
-1.404350 1.206812 4.475458
-1.526562 1.275281 5.026607
-1.735958 1.405954 5.565253
-1.682256 1.357937 5.867575
-1.720421 1.372470 6.247716
-1.721098 1.348568 6.988152
-1.676299 1.306737 7.294251
-1.645017 1.271569 7.688944
-1.629383 1.244566 8.172491
-1.632008 1.227574 8.745003
-1.496164 1.108304 9.443198
-1.583760 1.294215 -0.320710
-1.822431 1.413124 0.423175
-1.731183 1.346979 0.800241
-1.643669 1.288463 1.004440
-1.643936 1.271212 1.561199
-1.652541 1.256191 2.205476
-1.661843 1.249790 2.587369
-1.677556 1.244477 3.056620
-1.702317 1.241825 3.613089
-1.632359 1.190798 3.912244
-1.496053 1.091777 4.482328
-1.630603 1.151930 5.121753
-1.749240 1.210920 5.495262
-1.785468 1.220580 5.876436
-1.824811 1.232108 6.257248
-1.802643 1.201182 6.823955
-1.799000 1.178505 7.479743
-1.754382 1.142289 7.787955
-1.737788 1.117260 8.272253
-1.740449 1.100910 8.845808
-1.566525 0.980925 9.369716
-1.833063 1.207086 0.757662
-1.740257 1.152546 1.051572
-1.739756 1.135552 1.610732
-1.744777 1.123897 2.082497
-1.754781 1.114698 2.554237
-1.769764 1.107956 3.025887
-1.785650 1.104281 3.409993
-1.720134 1.057729 3.886249
-1.755129 1.058211 4.445970
-1.515115 0.927759 4.852204
-1.554424 0.932905 5.327195
-1.883812 1.076664 5.947313
-1.915195 1.083265 6.243290
-1.890760 1.054179 6.812369
-1.850439 1.022440 7.208625
-1.749842 0.955281 7.795645
-1.759196 0.940030 8.458757
-1.719070 0.910850 8.772781
-1.670952 0.864003 9.545139
-1.671256 0.972859 -0.097218
-1.940549 1.069496 0.214492
-1.929229 1.051455 0.685793
-1.829031 0.993553 1.330284
-1.829030 0.984956 1.628154
-1.832061 0.975085 2.011442
-1.842580 0.963103 2.569608
-1.860335 0.953964 3.127644
-1.783736 0.912747 3.514706
-1.720858 0.871796 4.079072
-1.925472 0.943846 4.363609
-1.880813 0.907518 5.015438
-1.813454 0.872321 5.319515
-1.959423 0.913743 5.868257
-1.937697 0.886318 6.523281
-1.870310 0.853537 6.743243
-1.930449 0.863549 7.213743
-1.824487 0.805073 7.799751
-1.790660 0.780286 8.198898
-1.789838 0.763343 8.774837
-1.689421 0.709305 9.282467
-0.910742 0.598888 -0.710941
-1.461917 0.749843 -0.196383
-1.737588 0.823778 0.116775
-1.915309 0.863643 0.596709
-1.908057 0.850702 0.980533
-1.904329 0.838815 1.364442
-1.905200 0.823401 1.923306
-1.911740 0.812141 2.394720
-1.929339 0.799297 3.040912
-1.749369 0.736781 3.344439
-1.877294 0.757111 3.988173
-2.193720 0.839360 4.440890
-2.119549 0.808648 4.742363
-1.704760 0.662470 5.516582
-1.742691 0.663022 5.902665
-1.994470 0.723442 6.442102
-1.924354 0.696199 6.663279
-1.913176 0.674331 7.323327
-1.886020 0.652531 7.810017
-1.864541 0.632393 8.298217
-1.848767 0.613926 8.787855
-1.712750 0.563770 9.120930
-0.965035 0.532245 -0.881853
-1.516065 0.632257 -0.189474
-1.803772 0.690669 -0.053326
-1.975021 0.707284 0.688216
-1.967651 0.695179 1.070698
-1.963309 0.676516 1.715605
-1.866963 0.647582 2.011031
-1.873592 0.636063 2.482243
-1.690230 0.583357 2.958608
-1.895938 0.619812 3.249133
-2.311661 0.694796 3.788610
-2.241071 0.666578 4.260400
-2.189425 0.637616 4.908210
-1.945307 0.568911 5.489156
-1.788321 0.523933 5.891678
-1.829534 0.522272 6.276033
-1.907116 0.521250 6.923025
-1.849186 0.500248 7.231812
-1.859233 0.449265 9.165736
-1.653006 0.515435 -0.007888
-2.040693 0.560868 0.218466
-2.021263 0.540814 0.863053
-2.012120 0.522121 1.507910
-1.813114 0.487665 1.802566
-1.815357 0.477542 2.187079
-1.922199 0.479002 2.657561
-1.740332 0.439492 3.222815
-1.958149 0.455880 3.687154
-2.384351 0.498076 4.221995
-2.310574 0.477807 4.607764
-2.148837 0.443222 5.090108
-1.803967 0.381285 5.682874
-1.655274 0.348134 6.176283
-1.906234 0.369297 6.627095
-1.879006 0.350179 7.198894
-1.809335 0.334895 7.420874
-1.918607 0.329495 8.156419
-1.854205 0.314856 8.380516
-1.769950 0.285166 9.062473
-1.468336 0.230218 9.609661
-1.046358 0.371538 -0.993901
-1.509483 0.378275 -0.394047
-1.685577 0.373915 0.091373
-1.864746 0.367463 0.660202
-1.951994 0.356660 1.222023
-1.848600 0.343621 1.516932
-1.848484 0.326181 2.165107
-2.176760 0.309312 3.394995
-2.392850 0.309979 3.766934
-2.428712 0.294604 4.404411
-2.262070 0.273499 4.883064
-2.108983 0.250600 5.453306
-1.666054 0.212433 6.059031
-1.588922 0.202742 6.277681
-1.852438 0.201296 6.815281
-1.913168 0.191644 7.285639
-1.867757 0.178744 7.681832
-1.826251 0.166001 8.079384
-1.848015 0.146882 8.830145
-1.735855 0.127719 9.336629
-1.068243 0.286631 -0.935779
-1.636189 0.256070 -0.420175
-1.799732 0.231161 0.327609
-1.888929 0.220484 0.627260
-1.876396 0.208179 1.098819
-1.868689 0.193367 1.658374
-1.768274 0.183626 2.130656
-2.199616 0.133262 3.532557
-2.416335 0.116929 3.903075
-2.347776 0.103944 4.461243
-2.261640 0.100767 4.673699
-2.111638 0.087499 5.331508
-1.665342 0.084354 5.936914
-1.516289 0.075408 6.432835
-1.848233 0.058579 6.695781
-1.819174 0.044045 7.268312
-1.811248 0.026479 7.930578
-1.757628 0.019680 8.242235
-1.765791 0.001546 8.908006
-1.539135 -0.003583 9.346855
-1.743862 0.096406 -0.283551
-2.017293 0.050923 0.203319
-1.993273 0.036281 0.849508
-1.882981 0.036608 1.319195
-1.878870 0.029070 1.615804
-1.876803 0.016535 2.088205
-2.505750 -0.100150 3.654134
-2.423786 -0.100844 4.037837
-2.356273 -0.107990 4.596912
-2.184358 -0.098364 4.992025
-1.932367 -0.084352 5.574839
-1.383516 -0.033910 6.107742
-1.414435 -0.045681 6.407811
-1.796230 -0.109873 7.112923
-1.846256 -0.126197 7.497813
-1.814466 -0.135617 7.984886
-1.802590 -0.149811 8.561463
-1.655627 -0.141395 8.892319
-1.396517 -0.132789 9.706073
-1.633229 -0.022063 -0.016749
-1.905510 -0.088899 0.470452
-1.891879 -0.096772 0.855814
-1.881868 -0.105358 1.241272
-1.775070 -0.102148 1.890427
-2.085893 -0.201625 3.293238
-2.396212 -0.275008 3.746613
-2.413192 -0.288663 4.123490
-2.254050 -0.275214 4.774313
-2.084915 -0.252781 5.168720
-1.821836 -0.212235 5.575685
-1.295671 -0.128289 6.285490
-1.433804 -0.165715 6.661151
-1.759766 -0.236882 6.921330
-1.731637 -0.247025 7.493660
-1.686361 -0.249015 7.891247
-1.671747 -0.261900 8.466755
-1.650433 -0.271092 8.955451
-1.264625 -0.213153 9.607897
-1.732785 -0.180214 -0.206375
-1.992589 -0.269743 0.367569
-1.878317 -0.250489 0.835909
-1.867479 -0.258155 1.220332
-1.667744 -0.212340 1.603345
-1.974573 -0.354271 3.577667
-2.373467 -0.477251 3.940323
-2.295076 -0.465828 4.325545
-2.135166 -0.436455 4.893924
-1.695331 -0.328766 5.493813
-1.119276 -0.196874 6.607204
-1.171429 -0.225009 7.086445
-1.695033 -0.382132 7.408262
-1.780407 -0.424381 8.056364
-1.632454 -0.391650 8.383307
-1.528825 -0.378949 8.978492
-1.244222 -0.316197 9.614862
-1.610250 -0.280623 -0.038860
-1.872131 -0.388622 0.360323
-1.853353 -0.395237 0.833163
-1.744035 -0.370949 1.392772
-1.644954 -0.342932 1.690288
-1.931464 -0.491669 3.195053
-2.225260 -0.613132 3.653454
-2.242799 -0.632995 4.121267
-2.082957 -0.590323 4.689490
-1.731723 -0.472656 5.103341
-1.484657 -0.395894 5.604284
-1.251272 -0.326916 6.200884
-0.923663 -0.221173 6.726919
-1.088582 -0.300593 7.376695
-1.507868 -0.464805 7.711991
-1.558150 -0.494446 8.099654
-1.519159 -0.491612 8.502812
-1.432793 -0.479452 9.190377
-1.019551 -0.338282 9.581950
-1.245521 -0.241437 -0.489079
-1.488686 -0.369133 0.007272
-1.730141 -0.501050 0.672946
-1.623509 -0.465543 1.146923
-1.612589 -0.474602 1.624046
-1.518686 -0.437249 1.836070
-1.704701 -0.565989 3.264093
-2.079007 -0.753470 3.721504
-2.103094 -0.783764 4.366313
-1.845687 -0.673541 4.683187
-1.431576 -0.501591 5.374388
-1.278344 -0.442506 5.783454
-0.889479 -0.285619 6.587137
-0.657119 -0.190457 7.019537
-0.969070 -0.346031 7.378005
-1.384369 -0.551654 7.804829
-1.331903 -0.536658 8.121561
-1.420408 -0.597236 8.778209
-1.325925 -0.571184 9.380839
-1.065013 -0.249045 -0.764881
-1.613976 -0.594408 0.232011
-1.676338 -0.647696 0.799204
-1.582281 -0.600273 1.007908
-1.567336 -0.609196 1.572639
-1.472453 -0.572343 2.138016
-1.647827 -0.702205 3.087278
-2.089777 -0.969466 3.541725
-1.839737 -0.838517 3.938923
-1.223622 -0.536951 5.599129
-1.080824 -0.500782 7.073181
-1.120180 -0.535458 7.464938
-1.269311 -0.638066 8.019536
-1.327772 -0.686364 8.497740
-1.281262 -0.669531 8.814672
-1.091016 -0.576997 9.346202
-1.113967 -0.383577 -0.588579
-1.245026 -0.491471 -0.007257
-1.560105 -0.715797 0.310612
-1.539754 -0.717428 0.786473
-1.441342 -0.665995 1.260910
-1.430225 -0.673944 1.738188
-1.756688 -0.944614 3.245026
-1.849669 -1.025793 3.800103
-1.486940 -0.823732 5.164341
-1.035988 -0.543397 5.963436
-0.721022 -0.337759 6.218645
-0.600805 -0.275585 6.818384
-0.808115 -0.431388 7.280173
-1.038418 -0.608435 7.915272
-1.163684 -0.705742 8.291732
-1.220973 -0.760216 8.770962
-1.201358 -0.763026 9.267727
-0.671929 -0.417447 9.699110
-1.213241 -0.593772 -0.232763
-1.486565 -0.840329 0.528519
-1.393435 -0.778561 0.913724
-1.380962 -0.781920 1.302409
-1.369613 -0.789241 1.779693
-1.672641 -1.079402 3.110847
-1.758832 -1.171050 3.753695
-1.420841 -0.951788 5.293951
-0.970063 -0.600679 5.647575
-0.699744 -0.407088 6.351154
-0.579517 -0.327775 6.860817
-0.766169 -0.491030 7.232377
-1.049423 -0.737675 7.764257
-1.078977 -0.771920 8.066393
-1.129558 -0.829236 8.546047
-1.118270 -0.840320 9.130946
-0.717745 -0.537885 9.721372
-1.363804 -0.897612 -0.003275
-1.405530 -0.961833 0.652662
-1.391060 -0.962376 1.039298
-1.302462 -0.898656 1.601917
-1.296110 -0.903703 1.901094
-1.577775 -1.228426 3.400408
-1.653371 -1.311408 3.690562
-1.519216 -1.204355 4.258000
-1.321614 -1.040441 4.926061
-1.051611 -0.801423 5.433867
-0.863004 -0.643442 6.030360
-0.586433 -0.388712 6.284137
-0.556876 -0.385648 6.961572
-0.794761 -0.622727 7.227277
-0.920063 -0.766396 7.873047
-1.027038 -0.882470 8.247236
-1.073921 -0.944965 8.724122
-1.280864 -1.006157 0.074464
-1.321544 -1.074969 0.640937
-1.247106 -0.999384 0.847337
-1.231208 -1.000695 1.322468
-1.219002 -1.006172 1.797678
-1.274629 -1.095260 2.448627
-1.271556 -1.107410 2.834295
-1.470578 -1.354157 3.385350
-1.474486 -1.377600 3.855464
-1.415704 -1.330582 4.331340
-1.227994 -1.138837 4.823613
-0.977887 -0.877335 5.330854
-0.798076 -0.695077 5.837426
-0.560844 -0.452420 6.451553
-0.522238 -0.429007 6.948493
-0.745573 -0.695255 7.304052
-0.845692 -0.827056 7.770772
-0.876172 -0.877207 8.160471
-0.941501 -0.981057 8.905808
-0.922546 -0.979719 9.400643
-0.504713 -0.529635 9.921731
-0.929866 -0.720635 -0.562017
-0.963991 -0.787433 -0.077515
-1.174544 -1.096192 0.592883
-1.163044 -1.094217 0.890212
-1.150078 -1.094250 1.276126
-1.135129 -1.099554 1.839183
-1.187873 -1.186585 2.224377
-0.998775 -0.969398 2.970463
-1.360149 -1.477474 3.631043
-1.367492 -1.519830 4.362912
-1.137487 -1.241336 4.949169
-0.904336 -0.947226 5.278642
-0.742254 -0.759093 5.873848
-0.513394 -0.471246 6.216302
-0.530809 -0.511884 6.610424
-0.690580 -0.755966 7.338753
-0.840184 -0.974261 7.790725
-0.866732 -1.026738 8.179087
-0.789915 -0.951687 8.777732
-0.777973 -0.961946 9.362589
-0.507183 -0.620814 9.755494
-0.668401 -0.465385 -0.823810
-0.855307 -0.785293 -0.315925
-0.992417 -1.025932 0.175540
-1.082831 -1.188076 0.568685
-1.005873 -1.099356 1.217383
-0.994622 -1.100976 1.603259
-1.078099 -1.299158 2.933287
-1.182408 -1.491179 3.485786
-1.129498 -1.431618 3.960401
-1.081687 -1.389029 4.613345
-0.875020 -1.088642 5.115858
-0.669249 -0.785613 5.537523
-0.519214 -0.570262 5.956669
-0.438414 -0.481879 6.732797
-0.557979 -0.684197 7.011228
-0.687350 -0.910777 7.465478
-0.712803 -0.974839 7.943535
-0.789004 -1.113560 8.316063
-0.778938 -1.131290 8.986091
-0.661575 -0.977448 9.605475
-0.895073 -1.038050 -0.559767
-0.720146 -0.748343 0.172294
-0.761436 -0.833939 0.298237
-0.872884 -1.088900 1.053412
-0.909983 -1.176584 1.353630
-0.899214 -1.178447 1.740559
-0.933232 -1.275453 2.304030
-0.830937 -1.114083 2.871782
-0.921019 -1.301852 3.164365
-1.104187 -1.685803 3.796628
-0.966203 -1.469122 4.579608
-0.737523 -1.064696 5.090637
-0.610203 -0.867695 5.864043
-0.528486 -0.741563 6.365766
-0.496115 -0.708601 6.859608
-0.559543 -0.855982 7.328939
-0.668194 -1.083032 7.691808
-0.689725 -1.151398 8.169350
-0.625922 -1.064836 8.767969
-0.596449 -1.027178 9.084901
-0.400019 -0.692565 9.745628
-0.630834 -0.721095 -0.123625
-0.649922 -0.798897 0.363079
-0.789169 -1.157722 0.855347
-0.776378 -1.154365 1.243852
-0.795304 -1.249369 1.988121
-0.745646 -1.165998 2.465886
-0.619326 -0.904079 2.951021
-0.774105 -1.279219 3.150840
-0.965688 -1.763705 3.693312
-0.923990 -1.698775 4.168884
-0.805817 -1.462327 4.748403
-0.611902 -1.050654 5.352476
-0.495644 -0.795376 5.590591
-0.466897 -0.780280 6.353112
-0.476613 -0.835916 6.835755
-0.527915 -0.987743 7.304672
-0.581387 -1.144429 7.770526
-0.601033 -1.229020 8.337611
-0.530661 -1.081250 8.580666
-0.519619 -1.101548 9.255879
-0.342679 -0.721260 9.738933
-0.461548 -0.410207 -0.574224
-0.535098 -0.673836 -0.069346
-0.589441 -0.856056 0.155812
-0.694458 -1.221035 0.742079
-0.644505 -1.119401 1.310175
-0.630917 -1.119573 1.792032
-0.589542 -1.028835 2.185401
-0.484223 -0.754295 2.674024
-0.633991 -1.243795 3.145224
-0.783736 -1.747132 3.780079
-0.748474 -1.674624 4.172105
-0.682666 -1.511152 4.572416
-0.554439 -1.177099 5.169677
-0.429162 -0.860426 5.867318
-0.398704 -0.788222 6.093268
-0.401939 -0.831600 6.489469
-0.441795 -1.006666 7.142033
-0.481568 -1.165936 7.611674
-0.493510 -1.250258 8.182216
-0.476402 -1.248709 8.768119
-0.424731 -1.129905 9.194830
-0.314400 -0.846115 9.751602
-0.431492 -0.455432 -0.722793
-0.498773 -0.812194 -0.031550
-0.537675 -0.998515 0.193283
-0.588374 -1.274343 0.775433
-0.552551 -1.170940 1.165596
-0.541078 -1.168382 1.558240
-0.502428 -1.074021 2.129866
-0.442012 -0.890306 2.706193
-0.550270 -1.390992 3.175792
-0.637882 -1.795519 3.549935
-0.608318 -1.718124 3.941496
-0.578578 -1.650263 4.422948
-0.454743 -1.207599 5.025167
-0.332687 -0.773805 5.640699
-0.307352 -0.725897 6.137567
-0.330738 -0.876801 6.613482
-0.378862 -1.117897 6.984506
-0.381588 -1.194422 7.556264
-0.386221 -1.278698 8.126920
-0.365808 -1.230763 8.445497
-0.324798 -1.120204 8.960601
-0.285221 -1.015980 9.479368
-0.429936 -0.841467 0.128726
-0.401083 -0.729608 0.520565
-0.487360 -1.314047 0.842144
-0.454533 -1.207124 1.409469
-0.441308 -1.206273 1.890289
-0.399060 -1.012316 2.283777
-0.351120 -0.829206 2.951203
-0.405238 -1.240782 3.421631
-0.462124 -1.652998 3.794227
-0.421185 -1.482767 4.281388
-0.381076 -1.318374 4.772914
-0.310598 -0.955642 5.195343
-0.253711 -0.721595 5.887181
-0.250499 -0.753255 6.194323
-0.276667 -1.036918 6.927505
-0.291535 -1.162266 7.130073
-0.288747 -1.240781 7.701562
-0.287590 -1.299336 8.093875
-0.254508 -1.211638 8.785402
-0.222687 -1.102510 9.302577
-0.126393 -0.594967 9.808381
-0.349831 -0.418816 -0.766401
-0.364598 -0.785306 -0.166572
-0.377432 -1.067130 0.239811
-0.388145 -1.350449 0.729571
-0.371133 -1.244005 1.027297
-0.344397 -1.137099 1.684186
-0.333917 -1.137772 2.075030
-0.300026 -0.948082 2.738126
-0.298832 -1.058382 3.127770
-0.323534 -1.471021 3.503588
-0.338212 -1.792102 3.964526
-0.308815 -1.626992 4.537902
-0.247396 -1.065618 5.058252
-0.212024 -0.808676 5.565695
-0.195945 -0.747123 5.969366
-0.192760 -0.918135 6.622966
-0.203545 -1.163486 6.991140
-0.195958 -1.226821 7.470865
-0.191448 -1.269432 7.771571
-0.182264 -1.370273 8.427954
-0.156514 -1.285444 9.117424
-0.117001 -0.965105 9.579973
-0.297052 -0.710583 -0.124251
-0.279181 -0.783358 0.544534
-0.268946 -1.272196 0.949617
-0.258492 -1.265001 1.338395
-0.248041 -1.261506 1.727224
-0.232804 -1.263042 2.294460
-0.214583 -0.974745 2.958486
-0.206489 -0.983610 3.260202
-0.189832 -1.410278 3.901290
-0.177370 -1.536284 4.371376
-0.165747 -1.162620 4.785557
-0.149107 -0.808027 5.387470
-0.138212 -0.743514 5.789808
-0.127690 -0.782393 6.183395
-0.110864 -1.055097 6.823166
-0.103767 -1.290695 7.098961
-0.092907 -1.242929 7.500845
-0.075410 -1.338153 8.156830
-0.064509 -1.300829 8.560743
-0.047632 -1.101809 9.179134
-0.031720 -0.698489 9.751544
-0.293114 -0.273729 -0.806661
-0.240927 -0.741465 -0.289141
-0.180280 -1.315089 0.221091
-0.156684 -1.502416 0.528323
-0.156931 -1.284912 1.178835
-0.157398 -1.180396 1.478466
-0.137430 -1.177867 2.226964
-0.139683 -1.079966 2.440276
-0.126297 -0.995336 3.193550
-0.103917 -1.201300 3.399169
-0.073122 -1.333270 4.141411
-0.073876 -1.162216 4.632208
-0.084924 -0.890941 5.045091
-0.089336 -0.639307 5.644566
-0.075702 -0.675841 6.039596
-0.035134 -1.023114 6.491383
0.001160 -1.287177 7.036979
0.012345 -1.325186 7.336677
0.026306 -1.304459 7.917455
0.037431 -1.277920 8.410670
0.045453 -1.242381 8.816080
0.046190 -1.046553 9.437341
-0.195016 -0.647372 -0.074620
-0.123690 -1.023604 0.336072
-0.047947 -1.398457 0.917197
-0.054662 -1.290649 1.303904
-0.060745 -1.186465 1.692569
-0.047967 -1.184786 2.172128
-0.034303 -1.188650 2.651651
-0.019756 -1.198056 3.131071
0.001651 -1.219995 3.788982
-0.000498 -1.139305 4.184177
0.004666 -1.073558 4.760362
-0.004342 -0.917375 5.347088
-0.015664 -0.761260 5.848376
-0.002859 -0.789679 6.152021
0.049042 -1.035855 6.612991
0.101607 -1.287088 7.068668
0.119979 -1.335854 7.457380
0.132577 -1.315811 8.038213
0.137227 -1.276122 8.442363
0.141892 -1.187765 9.133067
0.113411 -0.900191 9.776205
-0.245095 -0.311147 -0.724533
-0.074823 -0.975589 -0.468637
-0.016008 -1.129464 0.291240
-0.012343 -1.120585 0.502578
0.050522 -1.291816 1.254781
0.037993 -1.187009 1.732386
0.048221 -1.184748 2.122182
0.056706 -1.185463 2.422551
0.080095 -1.196524 3.169823
0.111025 -1.299115 3.377062
0.138500 -1.327082 4.121928
0.106832 -1.152989 4.522849
0.076199 -0.982712 4.927329
0.035721 -0.740477 5.614765
0.059383 -0.782302 6.098784
0.131194 -1.022763 6.559727
0.194199 -1.248053 6.837025
0.221098 -1.303766 7.314758
0.231499 -1.280737 7.895177
0.238187 -1.252457 8.388030
0.240394 -1.215823 8.793072
0.203726 -1.006706 9.324179
-0.121998 -0.618576 -0.768172
0.008162 -0.976570 -0.439131
-0.019467 -0.854472 0.039870
