1.239892 -2.082362 9.069840
1.126827 -1.922433 9.411738
1.402002 -2.000283 7.853804
1.801806 -1.397773 0.957744
1.502946 -1.204701 10.302660
1.912853 -1.268665 8.380930
2.214060 -1.198742 3.613599
2.076232 -0.958503 1.115040
2.129698 -0.978323 3.048555
1.933972 -0.738289 0.598527
2.142779 -0.797443 4.086879
2.097116 -0.609104 1.036941
2.522243 -0.694484 6.229773
1.826455 -0.406713 0.608376
1.933316 -0.419476 0.871021
2.555023 -0.494140 5.262817
2.073800 -0.437036 6.707168
2.113472 -0.441937 7.949387
2.127086 -0.443658 8.646579
2.044560 -0.434085 10.445702
2.866846 -0.292413 5.135211
2.806636 -0.290328 5.799461
2.038412 -0.262721 7.237943
2.111997 -0.265471 7.848886
2.181474 -0.268195 9.327587
1.979568 -0.112635 0.994609
2.781463 -0.082666 5.149001
2.773707 -0.083025 5.592567
2.102405 -0.109094 9.065916
2.075098 -0.110248 9.866008
2.398904 0.099421 4.753644
2.629527 0.127285 4.348204
2.798248 0.147434 5.714037
2.644070 0.128753 6.355467
2.144478 0.068296 7.904784
2.009450 0.052030 7.800670
2.075843 0.059911 8.673211
2.763832 0.349697 5.641688
2.098721 0.219149 6.671344
1.677837 0.136583 7.007188
1.640319 0.129140 7.617311
2.059647 0.211203 8.654385
2.054240 0.210100 8.949467
1.825268 0.165049 10.061437
1.895724 0.324509 7.503764
1.785882 0.294313 7.826145
1.920211 0.484199 0.928816
1.821650 0.448204 6.957310
1.786488 0.435176 10.352340
1.626370 0.526838 6.711854
1.654434 0.685848 2.569107
1.669258 0.693317 6.277322
1.594273 0.652446 6.763051
1.640446 0.677015 10.187868
1.326648 0.632386 0.403027
1.349248 0.645608 8.495274
1.553287 0.940748 2.813048
1.508695 0.906467 5.614854
1.356608 0.790579 9.344686
1.356347 0.790179 10.483628
1.435517 1.019635 5.618217
1.181125 0.794155 6.379162
1.291778 0.891611 9.343106
1.214922 0.994545 2.340409
1.335442 1.119413 5.998165
1.118777 0.893507 6.414805
1.158147 1.122879 1.576446
1.374916 1.387840 5.568106
1.102132 1.053313 5.458946
1.025460 0.959092 6.297845
1.082746 1.221202 3.750971
0.863033 0.905881 6.921924
1.120630 1.519079 4.715661
0.745070 0.885849 6.108387
0.707456 0.822312 6.663086
0.675670 0.768596 7.222735
0.786117 1.155110 1.255136
1.046853 1.676677 5.186004
0.781575 1.144432 6.219653
0.614243 1.005865 0.688268
0.718914 1.260676 3.888536
0.884173 1.664564 4.699598
0.847695 1.574956 5.747266
0.641769 1.071022 6.500368
0.529497 0.796408 6.549922
0.536937 0.813201 10.313982
0.528925 1.051354 0.619974
0.541895 1.091015 3.652300
0.731602 1.691548 4.459795
0.713646 1.634307 5.234288
0.468070 1.159720 3.115573
0.460008 1.125359 3.634222
0.512532 1.347040 3.819116
0.371182 1.199099 3.155337
0.366092 1.164856 3.673351
0.431775 1.599069 5.102943
0.260145 0.948967 0.776372
0.245032 0.749013 0.761045
0.262901 0.980112 3.618496
0.273271 1.116857 3.877929
0.261976 0.963710 5.842963
0.190095 1.429797 4.473992
0.190192 1.439125 5.089740
0.189979 1.210130 5.477450
0.190250 0.806406 10.758343
0.107185 1.017271 2.848712
0.091570 1.213312 3.641774
0.100927 1.096459 3.519477
0.086653 1.276473 4.696843
0.086612 1.278841 5.751223
0.108401 1.007518 5.911470
0.020144 1.099281 3.506836
0.004224 1.202657 4.231800
0.068917 0.787550 6.697481
0.034903 1.010421 10.411139
-0.057044 1.040049 1.934397
-0.051757 1.019140 3.661380
-0.082382 1.146821 4.524092
-0.086241 1.162900 4.621106
-0.086471 1.167264 10.274852
-0.088060 0.889828 1.025091
-0.134492 1.035019 1.963881
-0.147306 1.075203 2.473916
-0.123535 1.001604 3.576064
-0.130456 1.026238 10.193164
-0.220545 1.054303 9.127646
-0.288144 1.014301 9.059293
-0.278546 0.832385 5.240068
-0.351899 0.956274 10.151216
-0.489542 1.024423 8.989820
-0.380876 0.870127 9.668265
-0.363752 0.729424 1.440274
-0.468098 0.855201 4.671694
-0.295681 0.648711 5.414042
-0.487062 0.879000 9.527457
-0.064311 0.336612 1.323532
-0.198839 0.475497 1.173397
-0.439052 0.723702 1.952956
-0.542119 0.831780 10.080172
-0.291085 0.572595 10.257315
-0.495404 0.693048 3.875393
-0.419761 0.626054 5.622850
-0.337004 0.552480 6.061356
-0.625222 0.809778 10.162282
-0.508826 0.618320 3.488266
-0.215854 0.398560 6.925022
-0.538222 0.569165 3.345728
-0.900028 0.801545 4.248056
-1.348129 0.944908 4.489383
-1.059650 0.788726 5.453076
-0.259936 0.355560 6.868471
-0.164700 0.279462 0.734751
-1.246434 0.763748 4.588759
-0.904262 0.518430 1.944532
-0.880388 0.510136 2.796380
-1.519088 0.735553 3.422193
-0.986875 0.548673 9.282086
-0.874635 0.433157 0.417339
-0.681396 0.380471 0.400055
-0.915846 0.444742 2.802375
-0.323760 0.254812 0.812049
-1.580095 0.501170 4.556011
-1.312912 0.448996 5.280573
-0.449606 0.239393 1.012173
-1.832598 0.255712 5.561093
-1.292307 0.236002 5.899058
-0.382897 0.174399 6.779816
-1.640848 -0.007761 4.457184
-0.565056 0.122174 7.439683
-0.575363 0.120939 7.477887
-1.394795 -0.083236 1.256045
-1.594620 -0.122283 3.511588
-1.074025 -0.019264 6.619612
-1.468428 -0.220670 3.401599
-1.093370 -0.113839 6.722405
-1.157180 -0.223064 0.684372
-0.967568 -0.153746 0.609914
-1.362494 -0.298058 1.200585
-1.405437 -0.313037 6.010524
-0.993524 -0.162087 8.252682
-1.133387 -0.306432 0.484291
-1.897940 -0.651471 5.334869
-1.107523 -0.399891 0.645184
-1.340484 -0.528990 1.977795
-2.080179 -0.939249 4.061835
-0.955720 -0.314399 8.250837
-1.073112 -0.478254 0.525089
-1.402238 -0.693515 2.274694
-1.032885 -0.555002 0.392377
-1.064704 -0.696163 0.438136
-1.404961 -0.998761 1.752087
-1.976757 -1.507038 5.190298
-1.024267 -0.950635 1.259454
-1.252345 -1.227831 3.147990
-1.085819 -1.024266 7.063158
-1.194845 -1.156835 7.678757
-1.180550 -1.139453 7.601099
-1.174413 -1.364464 2.662683
-1.163742 -1.348713 4.080355
-1.149204 -1.327036 6.890257
-1.171284 -1.358772 7.412378
-1.169935 -1.356738 7.763699
-1.151767 -1.584143 6.477613
-1.066331 -1.438690 7.761236
-1.021661 -1.362284 9.714519
-0.934448 -1.500999 0.430589
-1.037949 -1.713163 6.239156
-1.017661 -1.671132 6.469604
-1.079555 -1.798956 7.016781
-1.055392 -1.748929 7.192496
-1.030678 -1.697125 9.325780
-0.897949 -1.757000 5.659301
-0.916565 -1.803799 6.323295
-0.945477 -1.876326 7.757116
-0.914188 -1.797217 7.821539
-0.922564 -1.817983 8.872547
-0.805132 -1.949705 7.784989
-0.647057 -2.034403 6.766845
-0.662243 -2.100833 9.341032
-0.606428 -1.850626 9.218138
-0.609324 -1.863208 9.836178
-0.470345 -1.924350 0.947488
-0.496265 -2.094729 8.585881
-0.460939 -1.850695 10.254307
-0.331616 -1.984859 2.777863
-0.349991 -2.229225 8.260505
-0.325503 -1.885802 9.994387
-0.183322 -1.988715 5.288228
-0.182973 -2.244387 7.563932
-0.183205 -2.159290 7.628967
-0.019006 -2.005813 2.716581
-0.021955 -1.971950 3.292512
0.003208 -2.277556 8.326014
0.128537 -2.000159 2.701036
0.366001 -2.364774 8.675718
0.584894 -1.922268 2.748778
0.553145 -1.845848 5.441432
0.665013 -2.120531 10.507076
0.927352 -2.240271 7.077862
0.889838 -2.167489 10.272726
0.859598 -1.784627 0.943709
0.981679 -1.989112 10.496725
0.732120 -1.160273 0.486043
0.796311 -1.236439 0.463770
1.529318 -2.107834 7.699250
1.390248 -1.943021 8.664560
1.338980 -1.882519 10.189823
1.355340 -1.653948 1.968428
1.714768 -1.761584 8.557295
1.768360 -1.808922 9.364849
1.707093 -1.532149 8.376319
1.872224 -1.657575 9.284950
2.013042 -1.296615 1.282838
1.990818 -1.284973 3.258857
2.231804 -1.415319 7.479408
2.133738 -1.362657 8.138882
1.911853 -1.040140 0.837764
2.041280 -1.097102 3.621101
2.142257 -1.141742 7.088348
1.695850 -0.792423 0.635831
2.322921 -0.820736 5.080399
2.431958 -0.850242 6.064841
1.805341 -0.524071 0.904538
2.527916 -0.657906 4.797810
2.061736 -0.572206 6.785404
2.211234 -0.600008 8.368193
2.084293 -0.576630 8.615684
1.975422 -0.556718 9.797990
1.934287 -0.398994 0.767645
1.754852 -0.379997 4.170597
2.180376 -0.426661 7.460271
2.049581 -0.412499 7.722152
2.131581 -0.421532 8.646579
1.879812 -0.394470 10.558526
1.967936 -0.239279 0.985718
1.989622 -0.240086 2.698816
2.580336 -0.255837 5.217247
2.624269 -0.257077 5.886181
2.141727 -0.244790 7.937908
2.174874 -0.245761 8.694001
2.068274 -0.243026 9.000408
1.902024 -0.238794 9.719960
1.788499 -0.235912 10.263553
1.974062 -0.092050 0.806774
2.181052 -0.082005 1.007168
1.789107 -0.101524 4.148209
2.645965 -0.059862 4.429446
2.658091 -0.059358 5.038760
2.659436 -0.059427 5.985803
2.098749 -0.086964 7.755346
2.038495 -0.090055 8.877870
1.954112 -0.094296 9.825722
1.984116 0.055710 1.048394
2.619031 0.133673 4.288381
2.802140 0.156151 5.264413
2.759628 0.150860 5.541700
2.732825 0.147502 5.875660
2.600539 0.131119 6.179453
1.960660 0.051827 7.983696
2.103859 0.069361 9.065253
1.950423 0.050343 9.523916
1.760795 0.161097 0.433278
1.996952 0.208066 2.734346
2.666567 0.341908 4.662517
2.442889 0.297049 5.066436
1.533832 0.114606 7.603475
1.988340 0.205387 9.363106
1.830597 0.173650 10.352563
2.477492 0.497069 4.321380
2.017189 0.368124 6.005424
1.747445 0.292458 7.696280
1.589365 0.248238 7.846632
2.362052 0.675353 5.045272
1.707272 0.574170 6.250915
1.642082 0.706156 2.533280
1.498756 0.767297 2.492800
1.566212 0.811457 5.633011
1.448290 0.733136 6.775800
1.201811 0.569696 7.596719
1.389217 0.693732 8.346009
1.492918 0.919514 2.150545
1.434339 0.873879 3.358118
1.321017 0.785469 6.427520
1.075411 0.595043 6.418511
1.311540 0.947410 1.655113
1.310621 0.946571 1.635278
1.028616 0.687090 6.451901
0.859882 0.532246 7.176622
1.245906 0.885615 10.100969
1.291326 1.094868 1.205587
1.236129 1.036284 1.575093
1.350411 1.156571 5.698441
1.113027 0.904803 6.425700
1.008572 0.960471 1.156032
1.294665 1.317197 6.008520
1.039085 0.997438 6.450436
0.941728 0.875625 6.653855
0.842289 0.878541 6.367721
0.819475 1.035963 1.671962
0.675059 0.959026 0.407964
0.949486 1.521825 5.770776
0.675276 0.957610 6.171441
0.590550 0.781977 10.328529
0.560705 0.922271 0.664198
0.640677 1.126571 3.486420
0.624234 1.084185 3.888075
0.411049 0.535265 7.431981
0.541570 1.126775 3.111688
0.557128 1.177419 3.536836
0.437791 0.785821 6.733129
0.394823 0.892533 0.413645
0.454640 1.154877 3.032368
0.454288 1.152832 3.804181
0.352120 1.138099 4.158518
0.326287 0.954707 5.890945
0.284279 1.406541 4.429514
0.277763 1.308204 5.533514
0.255245 0.975593 5.888638
0.244390 0.814280 6.526129
0.266235 1.133710 7.738646
0.252480 0.926286 9.990114
0.174261 1.023209 3.789977
0.172295 1.175921 4.750821
0.171694 1.222197 5.004885
0.119649 0.778913 0.760115
0.096589 1.041271 1.991750
0.083126 1.196857 4.213025
0.086215 1.162629 4.619501
0.101219 0.995168 5.850577
0.116587 0.821855 5.991180
0.099665 1.020072 10.447798
0.015897 1.019510 2.817130
0.019594 0.998539 3.494865
-0.010370 1.174043 4.667871
0.045376 0.850913 6.534481
0.011276 1.052617 10.241995
-0.081795 1.149047 4.537169
0.012899 0.754853 5.628904
0.038402 0.651500 10.567097
-0.049324 0.754705 5.635657
-0.024870 0.682373 10.369478
-0.218240 1.021602 1.976779
-0.133371 0.817482 5.982821
-0.191488 0.959776 10.041391
-0.329484 1.058088 8.906913
-0.374345 0.976101 1.987374
-0.112512 0.547356 6.103624
-0.342389 0.925829 10.064478
-0.310827 0.756233 1.488131
-0.023584 0.318130 0.426597
-0.418599 0.784466 4.133664
-0.400023 0.762796 5.152198
-0.331489 0.682136 5.646134
0.021117 0.246261 0.577475
-0.353985 0.628001 5.455550
-0.301950 0.575306 6.073513
-0.650532 0.929794 9.298615
-0.395547 0.594604 1.362820
-0.493052 0.679773 1.855251
-0.505016 0.690253 2.074066
-0.438359 0.632309 3.226837
-0.464362 0.655050 3.505699
-0.531702 0.713925 4.140382
-0.617594 0.789191 5.859113
-0.708482 0.756530 3.779379
-0.415345 0.540976 7.459304
-0.380695 0.515911 10.254041
-0.639976 0.624286 1.021384
-0.813582 0.733829 3.476953
-1.122043 0.927810 3.920742
-0.936816 0.811557 5.033240
-0.455313 0.509275 7.463507
-0.143955 0.286360 0.530823
-0.398224 0.419417 7.440621
-0.516475 0.432907 7.428244
-1.285812 0.531433 3.451176
-0.330562 0.281708 6.841127
-0.907816 0.358054 0.408103
-0.458529 0.234599 1.164937
-1.256767 0.314845 5.815808
-0.962038 0.285986 9.523767
-0.932693 0.283172 10.314675
-1.302558 0.221662 5.933709
-0.997173 0.214526 10.153983
-1.247890 0.127963 3.148482
-1.568294 0.112644 4.645332
-0.768528 0.151696 6.667247
-1.283589 0.021956 3.390573
-0.568297 0.116104 7.447184
-1.031611 0.055623 8.340288
-0.787689 0.028474 0.765696
-1.315640 -0.080936 1.627056
-1.486553 -0.116133 3.449617
-1.286452 -0.074281 5.783177
-0.574242 0.073720 7.442965
-1.013858 -0.017367 8.277128
-1.274580 -0.179644 3.417506
-1.212483 -0.160891 6.393348
-1.026965 -0.105887 8.337984
-1.151870 -0.234272 0.554197
-1.715368 -0.446348 5.672900
-0.548542 -0.005301 7.702220
-0.930093 -0.149321 8.378597
-1.274573 -0.279143 10.349604
-0.815684 -0.171176 8.010666
-1.333691 -0.530673 1.899504
-0.806762 -0.234881 8.034344
-1.305305 -0.938469 2.733024
-1.291280 -1.096894 3.471865
-1.773057 -1.608367 4.715150
-1.341773 -1.149813 6.934416
-1.149796 -0.945878 7.048663
-1.122829 -0.917185 7.286438
-1.251792 -1.054104 7.586235
-1.254980 -1.057344 8.295221
-1.291162 -1.095488 9.688454
-1.340991 -1.379371 6.746414
-1.203928 -1.207361 7.088542
-1.226688 -1.235798 7.590906
-0.809071 -0.850946 0.489792
-1.164503 -1.370499 2.644328
-1.219875 -1.450526 6.634746
-1.157504 -1.358983 7.741978
1.033655 1.311472 1.448835
1.063401 1.351650 1.779012
1.025292 1.300126 2.117483
0.956188 1.206706 2.568891
0.875301 1.316352 0.988091
0.975253 1.477650 1.472977
0.815130 1.219152 2.048259
0.906050 1.365899 2.149896
0.892436 1.343889 2.645540
0.794041 1.185023 3.265224
0.853501 1.280998 3.259913
1.154121 1.766125 4.679484
1.104110 1.685366 5.170936
0.970213 1.469214 5.543673
0.885280 1.332113 5.686254
0.861198 1.293233 5.808523
0.741631 1.100192 6.443561
0.729669 1.080880 6.509889
0.657707 0.964718 6.601707
0.428876 0.595308 7.303691
0.405436 0.557488 7.108188
0.488019 0.690722 7.989671
0.740269 1.097870 8.133518
0.815673 1.219562 8.366784
0.825520 1.235433 8.685687
0.801182 1.196104 9.287399
0.803597 1.199970 9.717032
0.867218 1.302668 9.634278
0.796702 1.188800 10.267910
0.646632 0.946540 10.697701
0.531242 0.760282 10.787502
0.678323 1.222815 0.498047
0.662146 1.190903 1.386803
0.697895 1.261215 1.879234
0.789213 1.440923 1.925230
0.696654 1.258715 2.547579
0.697137 1.259645 2.772543
0.666765 1.199821 3.381205
0.664622 1.195604 3.391456
1.001327 1.858149 4.423510
0.914702 1.687609 5.139878
0.904876 1.668243 5.466145
0.828628 1.518198 5.347349
0.735296 1.334499 5.604014
0.704639 1.274151 5.784593
0.619327 1.106214 6.308501
0.556918 0.983385 6.401007
0.417309 0.708581 7.017201
0.399280 0.673090 7.144260
0.468176 0.808660 7.329938
0.535119 0.940357 7.888174
0.614168 1.095883 8.381206
0.686675 1.238560 8.557255
0.696075 1.257031 8.877124
0.695221 1.255315 9.307183
0.670567 1.206776 9.543078
0.652511 1.171227 9.722324
0.618818 1.104889 10.073560
0.523283 0.916828 10.637779
0.349174 0.574192 10.515847
0.509207 1.114764 0.804274
0.601639 1.341490 1.397737
0.575591 1.277524 1.956861
0.541556 1.193974 2.355147
0.617842 1.381142 2.398199
0.586244 1.303575 2.793885
0.567002 1.256328 3.132383
0.771057 1.756836 4.618222
0.777759 1.773257 4.834632
0.759121 1.727515 4.954449
0.750361 1.705989 5.279664
0.697357 1.575933 5.363396
0.564424 1.249705 6.016430
0.555565 1.227962 6.081755
0.494306 1.077612 6.548273
0.464860 1.005373 6.466934
0.349369 0.721947 7.081845
0.305469 0.614231 7.118936
0.396162 0.836691 7.708876
0.551823 1.218575 8.085085
0.557696 1.232952 8.405417
0.607127 1.354205 8.692565
0.568573 1.259569 9.099206
0.589100 1.309911 9.301625
0.517824 1.134943 10.166673
0.525976 1.154956 10.060360
0.495479 1.080086 10.470189
0.401775 1.143309 0.421551
0.445651 1.287104 0.970212
0.457235 1.324988 1.739493
0.438474 1.263452 1.862738
0.446430 1.289488 2.248487
0.455944 1.320635 2.631889
0.409196 1.167274 3.198736
0.423601 1.214521 3.093332
0.615009 1.841950 4.563265
0.620215 1.858990 4.778405
0.598933 1.789184 4.954886
0.520366 1.531472 5.638555
0.479635 1.397904 5.725754
0.436259 1.255623 6.133745
0.407822 1.162381 6.109412
0.321628 0.879676 6.663001
0.265470 0.695499 6.932520
0.281690 0.748664 7.088677
0.326046 0.894083 7.273538
0.377913 1.064044 8.088704
0.461468 1.338008 8.178442
0.461859 1.339242 8.555475
0.467993 1.359310 8.874234
0.483286 1.409432 9.078001
0.447668 1.292570 9.599453
0.421948 1.208178 10.008690
0.411189 1.172878 10.189737
0.359473 1.003250 10.582757
0.257811 0.669869 10.828543
0.242866 0.845023 0.811301
0.360497 1.365875 1.718573
0.339662 1.273559 1.900016
0.320596 1.189007 2.515767
0.308655 1.136056 2.856803
0.341328 1.280745 3.010447
0.331011 1.234902 3.832286
0.430721 1.676500 4.044825
0.488950 1.934340 4.438924
0.502553 1.994527 4.805218
0.451033 1.766279 5.112152
0.430513 1.675352 5.346909
0.357257 1.350781 5.944707
0.344947 1.296281 5.806466
0.282891 1.021332 6.298402
0.252646 0.887356 6.390512
0.193005 0.623105 6.893042
0.197227 0.641758 7.166290
0.267846 0.954426 7.841902
0.334338 1.248860 8.246552
0.351621 1.325395 8.338761
0.352456 1.329024 8.715333
0.354475 1.337900 9.090519
0.342029 1.282733 9.327553
0.348745 1.312423 9.644037
0.340091 1.274064 9.824106
0.318980 1.180474 10.291000
0.263266 0.933659 10.550627
0.176271 0.548351 10.486973
0.185208 1.041116 0.491098
0.184508 1.035680 0.500797
0.192056 1.094100 1.221995
0.209470 1.229223 1.820032
0.205239 1.196262 2.103854
0.220105 1.311700 2.317188
0.213858 1.262992 2.871529
0.207603 1.214295 3.209489
0.245169 1.505995 3.768416
0.272320 1.716795 4.277439
0.271094 1.707110 4.814000
0.282448 1.795306 4.860670
0.273234 1.723666 5.037691
0.193167 1.101238 6.131484
0.167932 0.905093 6.396632
0.147930 0.749538 6.871156
0.152668 0.786287 7.085261
0.149996 0.765509 7.152464
0.185068 1.037859 7.625561
0.209135 1.224603 8.433149
0.233508 1.413954 8.493427
0.232454 1.405635 8.925595
0.225053 1.348060 9.162266
0.211320 1.241219 9.628409
0.214340 1.264713 9.522595
0.199916 1.152485 10.047654
0.198195 1.139092 10.113919
0.095863 0.986479 0.609198
0.101743 1.114996 0.996262
0.109014 1.273697 1.759612
0.104783 1.180633 2.160158
0.104925 1.183360 2.604562
0.105393 1.193245 3.046455
0.106847 1.224970 3.214418
0.121402 1.543492 3.718592
0.129915 1.729580 4.286228
0.133726 1.812817 4.600059
0.129327 1.715997 5.098127
0.121103 1.535370 5.560604
0.103387 1.146735 6.037488
0.095218 0.967535 6.246025
0.086214 0.769710 6.838326
0.086216 0.769470 7.171154
0.092358 0.903854 7.415173
0.101472 1.103271 7.797865
0.106598 1.214976 8.518736
0.115317 1.406002 8.577947
0.113754 1.371302 9.123713
0.119355 1.494102 9.041847
0.115558 1.410602 9.391247
0.099750 1.063620 10.044921
0.105764 1.195526 9.900869
0.102493 1.123556 10.254198
0.015066 0.956960 0.263228
0.014903 0.961756 0.661681
0.010294 1.085746 1.268607
0.001875 1.311542 1.696137
0.006527 1.187288 1.935702
0.014156 0.983734 2.567503
0.008655 1.131134 2.721833
0.013163 1.011224 3.450790
-0.003676 1.462190 3.666318
-0.007871 1.575228 4.403721
-0.011047 1.660591 4.716560
-0.010897 1.656840 4.989429
-0.008217 1.585287 5.168214
0.002203 1.306551 5.332225
0.011506 1.057927 5.708616
0.015553 0.949916 6.007371
0.023751 0.730802 6.333324
0.030378 0.553989 6.870735
0.019823 0.836631 6.971251
0.012930 1.021934 7.735474
0.004737 1.241564 8.057777
-0.000573 1.383946 8.292196
0.002049 1.314447 8.954921
-0.002553 1.437558 8.874456
-0.002452 1.435285 9.305849
0.005146 1.232376 9.750224
0.008870 1.132671 9.738473
0.012531 1.035170 10.209368
0.016267 0.935730 10.739915
-0.026231 0.629337 0.643212
-0.101797 1.243986 1.601952
-0.093803 1.179030 1.726821
-0.079272 1.061114 2.403336
-0.086155 1.117107 2.515248
-0.077300 1.045313 3.130700
-0.068449 0.973479 3.529463
-0.090893 1.156129 4.104630
-0.135217 1.516533 4.272748
-0.142666 1.577381 5.171972
-0.139455 1.551294 5.238538
-0.102151 1.248009 5.196069
-0.058516 0.893471 5.863519
-0.063204 0.931554 5.757628
-0.032888 0.685314 6.467229
-0.051267 0.834684 6.334383
-0.034225 0.696271 6.753247
-0.049813 0.823301 7.698440
-0.098389 1.218237 7.762697
-0.117430 1.373096 7.942832
-0.119628 1.391188 8.632923
-0.134770 1.514261 8.554645
-0.120239 1.396273 9.019488
-0.102072 1.248781 9.656165
-0.097292 1.209981 9.836284
-0.080708 1.075202 9.996462
-0.061447 0.918707 10.274256
-0.047894 0.808531 10.321606
-0.106964 0.768004 0.586027
-0.137135 0.914037 1.359405
-0.177146 1.107596 1.844799
-0.182072 1.131447 2.016557
-0.146792 0.960968 2.591708
-0.165354 1.050773 2.862801
-0.168196 1.064599 3.304801
-0.151190 0.982408 3.489209
-0.179746 1.120564 3.910637
-0.237112 1.398064 4.519178
-0.236049 1.392973 4.793440
-0.193310 1.186369 5.050380
-0.169992 1.073675 5.346426
-0.143025 0.943350 5.701683
-0.108771 0.777814 6.175263
-0.108179 0.774951 6.183694
-0.087441 0.674740 6.484384
-0.121448 0.839256 6.936237
-0.169235 1.070433 7.526371
-0.209908 1.267245 8.276956
-0.232156 1.374814 8.254560
-0.226692 1.348487 8.744750
-0.217630 1.304787 9.347868
-0.231033 1.369541 9.070697
-0.191771 1.179774 9.456572
-0.166185 1.056167 10.040638
-0.154211 0.998329 10.337863
-0.131744 0.889704 10.385381
-0.139578 0.653134 6.209967
-0.132002 0.627517 6.602733
-0.180042 0.790348 7.054525
-0.228516 0.954701 7.875596
-0.282339 1.137125 8.311189
-0.310687 1.233229 8.715435
-0.326947 1.288290 8.495553
-0.328609 1.293975 8.872319
-0.304251 1.211493 9.224603
-0.270506 1.097230 9.750618
-0.269956 1.095367 9.759614
-0.248976 1.024333 10.114600
-0.186528 0.812831 10.742932
-0.128905 0.471425 0.280760
-0.146579 0.516871 0.398411
-0.356600 1.056874 1.639861
-0.312839 0.944457 2.317719
-0.343589 1.023508 2.371779
-0.273583 0.843620 3.003847
-0.289333 0.884148 3.387564
-0.264551 0.820486 3.786555
-0.329439 0.987294 3.876431
-0.331856 0.993560 4.369166
-0.320826 0.965272 4.974388
-0.369750 1.091028 4.905672
-0.352994 1.047996 5.297333
-0.258623 0.805486 6.002065
-0.246032 0.773100 5.802318
-0.170933 0.580118 6.396016
-0.155442 0.540345 6.847297
-0.216785 0.698044 6.975204
-0.312944 0.945317 7.826303
-0.434676 1.258226 7.746109
-0.439556 1.270846 8.437089
-0.441426 1.275693 8.813421
-0.445915 1.287228 8.764811
-0.384974 1.130648 9.460387
-0.393830 1.153402 9.354089
-0.369590 1.091124 9.649900
-0.309196 0.935966 10.466478
-0.293224 0.894933 10.706840
-0.186561 0.487229 0.221817
-0.482205 1.079340 1.512877
-0.413197 0.941203 2.028485
-0.373926 0.862601 2.429056
-0.386993 0.888781 2.597364
-0.315312 0.745296 3.171607
-0.423518 0.961987 3.363198
-0.415919 0.946795 3.643975
-0.406240 0.927460 4.194857
-0.401545 0.918106 4.742751
-0.441872 0.998885 5.056407
-0.461881 1.038965 5.216565
-0.321511 0.757936 5.769092
-0.268669 0.652127 5.802157
-0.239332 0.593399 5.986582
-0.277191 0.669240 6.353419
-0.258989 0.632859 7.126026
-0.471162 1.057729 7.282708
-0.536839 1.189289 7.836325
-0.542392 1.200438 8.158079
-0.559690 1.235130 8.789336
-0.552267 1.220271 8.854914
-0.507711 1.131088 9.264015
-0.500819 1.117293 9.329883
-0.488124 1.091883 9.453207
-0.415084 0.945651 9.728148
-0.366387 0.848186 10.257935
-0.243674 0.602498 10.638087
-0.053055 0.220812 10.754957
-0.265596 0.533967 0.704441
-0.455135 0.845354 1.291904
-0.480679 0.887371 2.065526
-0.494257 0.909688 2.236398
-0.449689 0.836509 2.638110
-0.380207 0.722415 3.156129
-0.438867 0.818771 3.150340
-0.356257 0.683137 3.998667
-0.510235 0.936070 4.069377
-0.515364 0.944533 4.561299
-0.500542 0.920210 4.897861
-0.487912 0.899489 5.233671
-0.440026 0.820849 5.475720
-0.295591 0.583608 5.650055
-0.245504 0.501375 6.222451
-0.261060 0.526969 6.766461
-0.338510 0.654180 6.632176
-0.467074 0.865404 7.171026
-0.574851 1.042495 7.872135
-0.639799 1.149203 8.165226
-0.609513 1.099499 8.772718
-0.643719 1.155698 8.920979
-0.635136 1.141604 8.987533
-0.499920 0.919544 9.664055
-0.466877 0.865290 9.962686
-0.491254 0.905316 9.740790
-0.464837 0.861940 9.981685
-0.343007 0.661870 10.670323
-0.209801 0.380112 0.379005
-0.400315 0.646126 1.030668
-0.564120 0.874845 1.566651
-0.543197 0.845669 2.073661
-0.558959 0.867685 2.242719
-0.477214 0.753597 2.758711
-0.401259 0.647594 3.275506
-0.489665 0.771025 3.424967
-0.445557 0.709492 4.095304
-0.579376 0.896310 4.066671
-0.503789 0.790842 4.903860
-0.531600 0.829696 5.332651
-0.491484 0.773704 5.515160
-0.317910 0.531397 5.746744
-0.243503 0.427544 6.108478
-0.316828 0.529927 6.358405
-0.313702 0.525585 6.692124
-0.422805 0.677905 6.762683
-0.603533 0.930261 7.442823
-0.749251 1.133707 7.652417
-0.764737 1.155368 8.286405
-0.766487 1.157838 8.662761
-0.739686 1.120433 8.842420
-0.658198 1.006708 9.423597
-0.619727 0.953021 9.719584
-0.583196 0.902040 10.016294
-0.484923 0.764866 10.352715
-0.453330 0.720744 10.109608
-0.061263 0.148451 0.470320
-0.716569 0.906035 1.564082
-0.577584 0.745409 2.197640
-0.576592 0.744275 2.426338
-0.540466 0.702535 2.770514
-0.472145 0.623585 3.230825
-0.630341 0.806467 3.423685
-0.645679 0.824224 3.862216
-0.697589 0.884250 4.182636
-0.629440 0.805517 4.961514
-0.585256 0.754469 5.413204
-0.582683 0.751495 5.423620
-0.345141 0.476926 5.832081
-0.301901 0.426953 6.019150
-0.331582 0.461292 6.506201
-0.291402 0.414856 6.693397
-0.501564 0.657816 7.001730
-0.764623 0.961930 7.392036
-0.746973 0.941554 7.832650
-0.880870 1.096357 8.210707
-0.808752 1.013015 8.620630
-0.788064 0.989107 8.743177
-0.803478 1.006944 9.061729
-0.723511 0.914536 9.586096
-0.641848 0.820141 9.687973
-0.585195 0.754677 10.101172
-0.504838 0.661792 10.206013
-0.007797 0.078758 0.638996
-0.685749 0.743134 1.841215
-0.620534 0.679253 2.243868
-0.660530 0.718450 2.356163
-0.541832 0.602172 2.932362
-0.515845 0.576738 3.492185
-0.486199 0.547708 3.834531
-0.543445 0.603819 4.155368
-0.654992 0.713130 4.299768
-0.715873 0.772802 4.616313
-0.696531 0.753867 4.951127
-0.613475 0.672499 5.249379
-0.419793 0.482739 5.689907
-0.380890 0.444643 6.142984
-0.375181 0.439067 6.477722
-0.345345 0.409839 6.604116
-0.534954 0.595658 7.086400
-0.811030 0.866203 7.531070
-0.770649 0.826665 8.085105
-0.917977 0.971028 8.090217
-0.854433 0.908802 8.811223
-0.852897 0.907298 8.819732
-0.880197 0.934062 9.081404
-0.775066 0.831082 9.721383
-0.677491 0.735479 9.882198
-0.642258 0.700968 10.122455
-0.522685 0.583819 10.460992
-0.756858 0.693171 1.594641
-0.685299 0.633906 2.216670
-0.640922 0.597152 2.561056
-0.728143 0.669425 2.556649
-0.533549 0.508207 3.090106
-0.588172 0.553485 3.416553
-0.626024 0.584870 3.798825
-0.686870 0.635305 4.120416
-0.695447 0.642436 4.613294
-0.676276 0.626581 5.218997
-0.707866 0.652752 5.112990
-0.547273 0.519694 5.378087
-0.396185 0.394525 5.915677
-0.507050 0.486401 6.109336
-0.455230 0.443487 6.620145
-0.453232 0.441848 6.954204
-0.735630 0.675877 7.461258
-0.925619 0.833337 8.043893
-0.985264 0.882765 8.137983
-1.009187 0.902601 8.402741
-0.968468 0.868891 9.008982
-0.955849 0.858438 9.076038
-0.861652 0.780410 9.602269
-0.794683 0.724915 9.532815
-0.655351 0.609505 10.408752
-0.578601 0.545907 10.397659
-0.409297 0.405621 10.485595
-0.486782 0.401400 0.231053
-0.387628 0.332268 0.653641
-0.635478 0.505156 1.358546
-0.677664 0.534614 2.133927
-0.629400 0.500970 2.479697
-0.584744 0.469843 2.825091
-0.521756 0.425933 3.228599
-0.527617 0.430032 3.455942
-0.652304 0.516997 3.606197
-0.694584 0.546502 3.987608
-0.643228 0.510718 4.656940
-0.660251 0.522613 5.148524
-0.829053 0.640339 5.170921
-0.623405 0.496935 5.549829
-0.499535 0.410566 5.967341
-0.557658 0.451106 6.067293
-0.455120 0.379627 6.752231
-0.361503 0.314355 7.113771
-0.643776 0.511228 7.356225
-0.913407 0.699287 7.652793
-0.974387 0.741837 8.118266
-0.914079 0.699809 8.784023
-0.933838 0.713604 9.103604
-0.978535 0.744786 9.307027
-0.976990 0.743709 9.315093
-0.821031 0.634959 9.704222
-0.779326 0.605885 9.943690
-0.631020 0.502472 10.338908
-0.549169 0.445388 10.328337
-0.198214 0.200632 10.439811
-0.525977 0.357286 0.222346
-0.330725 0.246346 0.418497
-0.386978 0.278333 0.926141
-0.788447 0.506482 1.335157
-0.780554 0.502026 2.004588
-0.854071 0.543804 2.058974
-0.753193 0.486501 2.518382
-0.635544 0.419672 3.036488
-0.617726 0.409560 3.321134
-0.659657 0.433404 3.703852
-0.684600 0.447597 4.142167
-0.757035 0.488772 4.461317
-0.813729 0.521016 5.104389
-0.876631 0.556776 5.474501
-0.780430 0.502124 5.773264
-0.541072 0.366120 5.948333
-0.432133 0.304233 6.310281
-0.594075 0.396258 6.383798
-0.393130 0.282105 7.098101
-0.671370 0.440211 7.079341
-1.007153 0.631035 7.524786
-1.000153 0.627091 8.278634
-1.068386 0.665868 8.371358
-1.059295 0.660721 8.806969
-1.104438 0.686383 9.012110
-0.963930 0.606572 9.709916
-0.824021 0.527083 9.987114
-0.875479 0.556311 9.707156
-0.685069 0.448138 10.276540
-0.569129 0.382264 10.442415
-0.197353 0.171012 10.556869
-0.652014 0.357438 1.488914
-0.834490 0.441812 1.752943
-0.884635 0.465009 2.084960
-0.663377 0.302448 0.260214
-0.391511 0.200732 0.575120
-0.736817 0.329957 0.943168
-0.914303 0.396399 1.651800
-0.937506 0.405098 2.041582
-0.775870 0.344639 2.617173
-0.726974 0.326357 2.960596
-1.002774 0.429562 3.039177
-1.264994 0.527716 3.870989
-1.471589 0.605031 4.114540
-1.027005 0.438688 4.462663
-0.956633 0.412363 4.644966
-1.105579 0.468114 5.053969
-1.051631 0.447957 5.766766
-0.940751 0.406468 5.799334
-0.644649 0.295682 6.090368
-0.641587 0.294537 6.099737
-0.560598 0.264255 6.668506
-0.504480 0.243264 6.854190
-0.659575 0.301334 7.683795
-1.001320 0.429218 7.862040
-1.045246 0.445678 8.443091
-1.252637 0.523279 8.389362
-1.151144 0.485336 9.223931
-1.161873 0.489349 9.175805
-1.061126 0.451670 9.644282
-0.887403 0.386682 10.036889
-0.863777 0.377846 10.162088
-0.748763 0.334814 10.268348
-0.521530 0.249794 10.474573
-0.539315 0.200218 0.330158
-1.007387 0.328347 1.747316
-1.002258 0.326953 1.976581
-0.940738 0.310125 2.102593
-0.668504 0.235670 2.913226
-1.501591 0.463667 4.159415
-1.562182 0.480251 4.265904
-1.333712 0.417739 4.310671
-1.168483 0.372546 4.721210
-1.177493 0.375055 5.804145
-1.165666 0.371808 5.550166
-0.647450 0.230040 6.154146
-0.624454 0.223750 6.223241
-0.617088 0.221748 6.558761
-0.450505 0.176190 7.098562
-0.605277 0.218559 7.607150
-1.114442 0.357875 7.584949
-1.184395 0.377034 8.052850
-1.126119 0.361113 8.660944
-1.189317 0.378411 8.808536
-1.199567 0.381231 9.184310
-1.145990 0.366581 9.421803
-1.106733 0.355847 9.602269
-0.882474 0.294510 10.225299
-0.764480 0.262229 10.330712
-0.573496 0.209972 10.301313
-0.877907 0.214522 0.357045
-0.582970 0.159802 0.278056
-1.033289 0.243386 1.313911
-1.082007 0.252437 1.648188
-0.989249 0.235245 2.050390
-0.907938 0.220185 2.670275
-1.831380 0.391553 3.971941
-1.616004 0.351606 4.220917
-1.261713 0.285913 5.090263
-1.284034 0.290062 5.306761
-1.265705 0.286675 5.636784
-0.974008 0.232568 5.863943
-0.744867 0.190060 5.921236
-0.621539 0.167194 6.280944
-0.502966 0.145211 6.642302
-0.353186 0.117443 7.123636
-0.768547 0.194514 7.453664
-1.074870 0.251371 8.180064
-1.171578 0.269329 8.585553
-1.164954 0.268117 9.020562
-1.178281 0.270604 9.396686
-1.163445 0.267855 9.462630
-1.086785 0.253647 9.816309
-0.953041 0.228841 9.977614
-0.843293 0.208482 10.024176
-0.710777 0.183904 10.188097
-0.364255 0.119627 10.434774
-0.809965 0.132155 0.504722
-0.763088 0.127472 0.796183
-1.044363 0.155651 1.113402
-1.059276 0.157168 1.725446
-1.054141 0.156663 1.954030
-0.936667 0.144917 2.413428
-1.672029 0.218614 3.899260
-1.702423 0.221674 4.327117
-1.698368 0.221268 4.336574
-1.420113 0.193400 4.227465
-1.248640 0.176245 4.636785
-1.502363 0.201680 5.345273
-1.598128 0.211282 5.652905
-1.127018 0.164122 6.072554
-0.748536 0.126216 5.948372
-0.683817 0.119742 6.133567
-0.655895 0.116961 6.526942
-0.595157 0.110886 6.712766
-0.729979 0.124410 7.281321
-1.038884 0.155357 7.638418
-1.099965 0.161509 8.536225
-1.223833 0.173910 8.456443
-1.272680 0.178809 8.663326
-1.173450 0.168905 9.499432
-1.210544 0.172613 9.336830
-1.118596 0.163422 9.748818
-0.901791 0.141733 10.315067
-0.758835 0.127426 10.537575
-0.509550 0.102473 10.803983
-0.839768 0.063975 0.879009
-1.179737 0.069321 1.301067
-1.138975 0.068702 1.807241
-1.163426 0.069092 1.978360
-0.955650 0.065851 2.392824
-1.784107 0.078896 3.921437
-1.895956 0.080649 3.916450
-1.543295 0.075163 4.999285
-1.504743 0.074584 5.649226
-1.531676 0.075015 5.863204
-1.289452 0.071210 5.653771
-0.898747 0.065093 5.847637
-0.772175 0.063123 6.206029
-0.689450 0.061836 6.448936
-0.666184 0.061486 6.840620
-0.639283 0.061095 7.611731
-1.037504 0.067339 7.674971
-1.130567 0.068828 8.456808
-1.194727 0.069840 8.606190
-1.289173 0.071321 8.640299
-1.311274 0.071680 8.959834
-1.098802 0.068386 9.887438
-1.133827 0.068929 9.723632
-0.949595 0.066056 10.116568
-0.717164 0.062418 10.261625
-0.463740 0.058456 10.527637
-0.888185 -0.016544 0.384274
-0.856635 -0.014120 1.061742
-1.108217 -0.033211 1.652690
-1.191922 -0.039568 1.707969
-1.070277 -0.030308 2.165570
-1.040742 -0.028053 2.450029
-1.829714 -0.087939 3.819327
-2.007458 -0.101439 3.910522
-1.619331 -0.071928 4.552280
-1.519088 -0.064292 5.060855
-1.503931 -0.063118 5.652773
-1.458255 -0.059643 5.775264
-1.143143 -0.035692 6.059065
-0.931563 -0.019618 6.059019
-0.733500 -0.004561 6.326475
-0.576873 0.007345 6.479559
-0.591746 0.006225 6.754985
-0.624142 0.003800 7.674060
-0.907012 -0.017672 8.141954
-1.240701 -0.043026 8.058225
-1.122324 -0.034000 8.897347
-1.327859 -0.049615 8.897316
-1.215705 -0.041076 9.364400
-1.136551 -0.035049 9.718235
-1.109948 -0.033023 9.842415
-1.014597 -0.025761 10.313238
-0.751895 -0.005790 10.634273
-0.414560 0.019845 10.826751
-0.968057 -0.096577 0.235617
-1.058460 -0.110375 0.683268
-1.117411 -0.119348 1.623886
-1.316651 -0.149795 1.670234
-1.223214 -0.135500 2.070460
-0.935665 -0.091531 2.658041
-1.826424 -0.227620 3.800064
-1.878654 -0.235588 4.172008
-1.754089 -0.216539 4.462759
-1.582614 -0.190316 4.878531
-1.498792 -0.177476 5.642132
-1.558775 -0.186649 5.482711
-1.180479 -0.128817 5.936879
-1.002367 -0.101588 6.144729
-0.767557 -0.065687 6.529976
-0.670541 -0.050861 6.508177
-0.591249 -0.038733 6.752690
-0.519248 -0.027707 7.321858
-0.633349 -0.045118 8.002906
-1.060316 -0.110359 8.319071
-1.144929 -0.123272 8.782674
-1.267223 -0.141965 8.702237
-1.157185 -0.125113 9.595979
-1.219652 -0.134671 9.318454
-1.067885 -0.111449 10.018548
-1.031390 -0.105864 10.201468
-0.769495 -0.065826 10.522073
-0.508799 -0.025993 10.300702
-0.988919 -0.191350 0.376991
-0.846511 -0.156268 0.230402
-1.339970 -0.277795 1.588148
-1.247997 -0.255127 1.768335
-1.186867 -0.240052 2.109459
-1.075114 -0.212499 2.565444
-2.035242 -0.449014 3.747921
-2.086385 -0.461600 4.116130
-1.328171 -0.274754 4.933097
-1.190236 -0.240766 5.019210
-1.457681 -0.306656 5.138454
-1.424188 -0.298377 5.787037
-1.177711 -0.237645 5.898289
-1.043012 -0.204453 5.988306
-0.716204 -0.123905 6.661856
-0.547625 -0.082374 6.549628
-0.455476 -0.059645 7.178327
-0.731399 -0.127625 7.274931
-0.842355 -0.154936 7.951259
-1.028384 -0.200753 8.387182
-1.090389 -0.216024 8.536900
-1.138919 -0.227973 8.743355
-1.229324 -0.250229 9.201768
-1.196118 -0.242023 9.806021
-1.277403 -0.262047 9.892902
-1.134392 -0.226803 10.110774
-0.749370 -0.131920 10.584548
-0.305268 -0.022488 10.877882
-0.806406 -0.218454 0.274956
-1.290111 -0.381581 1.631851
-1.117521 -0.323333 2.203717
-1.062407 -0.304725 2.546305
-1.037459 -0.296297 2.830793
-1.959793 -0.607405 4.061461
-2.059036 -0.640875 4.318795
-1.765105 -0.541695 4.790614
-1.454301 -0.436842 4.799096
-1.406582 -0.420739 4.922867
-1.450975 -0.435697 5.347489
-1.353186 -0.402685 5.904645
-1.163193 -0.338578 6.167013
-0.942637 -0.264169 6.226569
-0.682533 -0.176400 6.729018
-0.535504 -0.126792 6.884985
-0.532324 -0.125719 6.895560
-0.631398 -0.159114 7.581040
-0.837972 -0.228790 7.908092
-1.019074 -0.289869 8.343423
-1.047011 -0.299265 9.035568
-1.098226 -0.316535 9.239524
-1.306642 -0.386848 9.178984
-1.346351 -0.400234 9.437754
-1.204167 -0.352238 10.131300
-1.109791 -0.320400 10.119312
-0.786095 -0.211191 10.300665
-0.360056 -0.067453 10.528940
-0.717734 -0.255043 0.405678
-1.192166 -0.460149 1.760507
-1.187139 -0.457966 1.988746
-1.213220 -0.469228 2.375700
-1.269703 -0.493639 2.703179
-2.004075 -0.811153 4.059913
-2.100771 -0.852957 4.315066
-1.838108 -0.739354 4.727018
-1.646328 -0.656399 5.238859
-1.496950 -0.591797 5.379730
-1.493958 -0.590502 5.388122
-1.411338 -0.554764 5.623070
-1.330673 -0.519871 5.858823
-1.018801 -0.384978 6.521652
-0.860265 -0.316425 6.408195
-0.611812 -0.208977 6.586699
-0.592438 -0.200582 6.978039
-0.546110 -0.180527 7.485849
-0.776538 -0.280164 7.695938
-1.051826 -0.399192 8.103550
-1.154993 -0.443791 8.451963
-1.159328 -0.445631 9.254609
-1.373583 -0.538289 9.138358
-1.310009 -0.510785 9.431300
-1.161391 -0.446484 10.182795
-1.091201 -0.416137 10.056637
-0.746333 -0.266987 10.412692
-0.306060 -0.076579 10.821526
-1.197968 -0.584370 1.023076
-1.366858 -0.674860 1.508095
-1.178578 -0.573929 2.133240
-1.256091 -0.615448 2.628550
-1.957973 -0.991543 3.987347
-1.961992 -0.993664 4.724556
-1.939970 -0.981871 4.528520
-1.329519 -0.654664 5.714879
-1.307800 -0.643021 5.781039
-1.332357 -0.656173 5.995323
-1.204902 -0.587849 6.403390
-0.882715 -0.415175 6.546182
-0.678529 -0.305744 6.608896
-0.559605 -0.241992 7.028482
-0.561883 -0.243198 7.361006
-0.622923 -0.275890 7.837154
-0.974119 -0.464085 8.271061
-1.101424 -0.532300 8.504840
-1.130673 -0.547945 9.193710
-1.230613 -0.601487 9.591206
-1.163489 -0.565499 9.942066
-1.194230 -0.581981 9.778562
-0.992966 -0.474092 10.398002
-0.712477 -0.323768 10.466461
-0.354867 -0.132117 10.460681
-0.858565 -0.495142 0.405470
-1.166613 -0.694436 1.823704
-1.187100 -0.707686 1.994048
-1.259071 -0.754251 2.266010
-1.216173 -0.726463 2.820129
-1.348095 -0.811822 3.186893
-2.041293 -1.260389 4.264570
-1.601446 -0.975688 5.250590
-1.513507 -0.918751 5.799322
-1.572027 -0.956619 5.898516
-1.421449 -0.859160 6.097090
-1.305866 -0.784354 6.184605
-0.995765 -0.583645 6.641694
-0.610345 -0.334207 6.757133
-0.560803 -0.302137 6.941372
-0.497129 -0.260918 7.184812
-0.536746 -0.286515 8.099650
-0.953027 -0.555915 8.182090
-1.116924 -0.661964 8.612584
-1.136093 -0.674336 9.355013
-1.343130 -0.808331 9.181820
-1.181155 -0.703466 10.042592
-1.150522 -0.683633 10.222089
-0.974893 -0.569970 10.248800
-0.989866 -0.714527 0.405858
-1.002671 -0.724598 0.579443
-1.001455 -0.723600 1.412419
-1.087663 -0.791436 1.847790
-1.130400 -0.825070 1.960200
-1.085749 -0.789896 2.516172
-1.157452 -0.846323 2.784547
-1.238887 -0.910400 3.263899
-1.922763 -1.448632 4.746044
-1.847162 -1.389112 4.974627
-1.862208 -1.400958 4.928669
-1.700871 -1.273938 5.434366
-1.637454 -1.223996 5.923291
-1.496422 -1.112974 6.120945
-1.419944 -1.052777 6.095983
-1.264259 -0.930219 6.353629
-0.990969 -0.715082 6.754477
-0.690661 -0.478688 6.960336
-0.538502 -0.358920 6.909302
-0.394875 -0.245836 7.507294
-0.565829 -0.380384 7.835325
-0.903722 -0.646337 8.153952
-1.063958 -0.772425 8.953581
-1.171301 -0.856905 9.238289
-1.225004 -0.899169 9.384164
-1.182540 -0.865733 9.620624
-1.104193 -0.804040 10.085604
-0.998498 -0.720836 10.246856
-0.747964 -0.523627 10.314160
-0.394849 -0.245666 10.540781
-0.775327 -0.652947 0.568970
-1.268855 -1.112721 1.416021
-1.153447 -1.005169 1.925621
-1.129130 -0.982497 2.208758
-1.172513 -1.022900 2.535910
-1.041467 -0.900760 3.371846
-1.874133 -1.676506 4.251096
-1.797903 -1.605443 4.996525
-1.811555 -1.618166 4.951817
-1.777470 -1.586388 5.328616
-1.587136 -1.409020 6.000300
-1.524801 -1.350930 6.232507
-1.438581 -1.270597 6.264565
-1.254675 -1.099246 6.374814
-1.029066 -0.889015 6.975856
-0.887573 -0.757206 6.604402
-0.635929 -0.522728 7.014470
-0.401744 -0.304519 7.375031
-0.452748 -0.352014 7.852110
-0.873411 -0.743936 8.023950
-1.122763 -0.976222 8.678143
-1.139238 -0.991555 8.995509
-1.101350 -0.956220 9.652159
-1.180582 -1.030041 9.626094
-1.002461 -0.864050 10.297084
-0.929382 -0.795964 10.286742
-0.776254 -0.653293 10.315045
-0.471216 -0.369087 10.365544
-0.810443 -0.814793 0.942293
-1.122896 -1.158010 1.136041
-1.012785 -1.037012 1.863679
-1.050375 -1.078285 2.191906
-0.992317 -1.014485 2.587159
-1.017305 -1.041913 2.968430
-1.010446 -1.034350 3.460880
-1.713937 -1.807070 4.552891
-1.648142 -1.734765 5.038696
-1.647588 -1.734141 5.304841
-1.615530 -1.698920 5.423592
-1.428689 -1.493633 6.150680
-1.426450 -1.491173 6.159791
-1.374689 -1.434318 6.078920
-1.137856 -1.174135 6.469613
-0.956059 -0.974422 6.641299
-0.774934 -0.775447 6.817156
-0.606975 -0.590938 6.938965
-0.396606 -0.359809 7.621901
-0.588698 -0.570816 7.715050
-0.868005 -0.877591 8.463163
-1.041413 -1.068067 8.663058
-1.057474 -1.085667 9.401450
-1.078442 -1.108683 9.716373
-1.094044 -1.125827 9.612382
-1.001554 -1.024218 9.770379
-0.855009 -0.863207 10.331123
-1.084505 -1.327273 1.577549
-0.990320 -1.204728 2.086039
-0.953788 -1.157187 2.425025
-0.903066 -1.091186 2.820574
-1.081320 -1.323045 2.905027
-0.915400 -1.107187 3.481328
-1.537984 -1.916944 4.628879
-1.438203 -1.787110 5.280726
-1.465538 -1.822656 5.437754
-1.449882 -1.802288 5.502598
-1.356800 -1.681186 5.898645
-1.304357 -1.612956 6.130292
-1.147865 -1.409371 6.553136
-0.971952 -1.180537 6.780861
-0.865868 -1.042555 6.670728
-0.643865 -0.753774 6.816839
-0.494257 -0.559142 7.262380
-0.587905 -0.680943 7.444889
-0.671310 -0.789371 8.430734
-0.896563 -1.082358 8.597975
-1.063229 -1.299141 8.738194
-1.086077 -1.328844 8.995958
-1.026734 -1.251628 9.398501
-0.949029 -1.150516 9.972756
-0.866826 -1.043581 10.131083
-0.764967 -0.911065 10.463232
-0.564660 -0.650507 10.589718
-0.822332 -1.181673 1.454604
-1.026731 -1.498696 1.597731
-0.896127 -1.296075 2.274007
-0.864933 -1.247667 2.612306
-0.850891 -1.225867 2.893402
-0.893995 -1.292685 3.426978
-0.906123 -1.311500 3.378790
-1.356535 -2.010015 4.704967
-1.281238 -1.893183 5.300508
-1.282477 -1.895085 5.565787
-1.211864 -1.785536 5.905129
-1.176661 -1.730923 6.079566
-1.197285 -1.762919 5.976928
-1.057111 -1.545473 6.396466
-0.838870 -1.206930 6.960930
-0.724264 -1.029171 6.964727
-0.673518 -0.950440 7.260243
-0.789607 -1.130477 7.585555
-0.942097 -1.366962 8.047026
-0.958592 -1.392528 8.308035
-0.976495 -1.420278 8.567884
-0.980268 -1.426103 8.939017
-0.919758 -1.332217 9.398501
-0.883812 -1.276441 9.689813
-0.889635 -1.285477 9.641578
-0.776515 -1.109987 10.140894
-0.656877 -0.924417 10.224736
-0.437572 -0.584226 10.758431
-0.859402 -1.514293 1.738790
-0.870610 -1.535444 1.907420
-0.828134 -1.455198 2.300565
-0.788419 -1.380166 2.693694
-0.811036 -1.422828 3.285406
-0.838974 -1.475578 3.393708
-1.162604 -2.086618 4.790149
-1.139868 -2.043651 5.167102
-1.181436 -2.122146 5.214108
-1.118044 -2.002405 5.552671
-1.086314 -1.942472 5.727263
-0.960506 -1.704830 6.457856
-0.878451 -1.549858 6.658352
-0.815718 -1.431409 6.433664
-0.778243 -1.360594 6.983955
-0.884921 -1.562025 7.254612
-0.824706 -1.448249 8.024549
-0.838704 -1.474662 8.286685
-0.839950 -1.476985 8.660264
-0.890975 -1.573344 8.639015
-0.869234 -1.532272 8.816888
-0.791232 -1.384913 9.501635
-0.760754 -1.327334 9.792987
-0.679719 -1.174275 10.130191
-0.622303 -1.065841 10.233190
-0.416802 -0.677749 10.396748
-0.789634 -1.717499 1.671817
-0.775727 -1.684966 1.737827
-0.693587 -1.492795 2.356323
-0.726656 -1.570131 2.411590
-0.650803 -1.392663 3.030665
-0.730438 -1.578912 3.070763
-0.747354 -1.618439 3.447421
-0.750763 -1.626316 4.407039
-0.964787 -2.126803 5.178477
-0.991141 -2.188431 5.279148
-0.872448 -1.910751 6.059199
-0.839446 -1.833544 6.289647
-0.841265 -1.837828 5.985413
-0.693950 -1.493211 6.745003
-0.752619 -1.630440 6.616686
-0.732252 -1.582726 7.417668
-0.761936 -1.652141 7.511794
-0.754149 -1.633923 7.576214
-0.725940 -1.567889 8.174732
-0.741240 -1.603610 8.797572
-0.707073 -1.523666 9.143623
-0.766376 -1.662384 8.951240
-0.702223 -1.512273 9.634334
-0.658149 -1.409189 9.677420
-0.584812 -1.237629 10.071339
-0.475836 -0.982717 10.442591
-0.299557 -0.570410 10.669694
-0.685556 -1.910887 1.414775
-0.645704 -1.790368 1.647796
-0.598205 -1.646640 2.590935
-0.547347 -1.492802 3.152408
-0.627839 -1.736177 3.079910
-0.584776 -1.605883 3.848425
-0.669291 -1.861394 3.981440
-0.744276 -2.088052 4.430536
-0.806444 -2.275912 5.249187
-0.717622 -2.007273 5.975197
-0.624291 -1.725062 6.204953
-0.657443 -1.825259 6.505583
-0.661475 -1.837376 7.091900
-0.614284 -1.694596 7.914850
-0.634282 -1.755086 7.700761
-0.623538 -1.722495 8.549871
-0.627428 -1.734262 8.503908
-0.620251 -1.712503 8.987590
-0.619456 -1.710099 8.997665
-0.591340 -1.624988 9.817069
-0.544146 -1.482272 10.042203
-0.501780 -1.354161 10.202558
-0.415913 -1.547168 3.600076
-0.459516 -1.732474 4.921595
-0.559365 -2.157286 5.175615
-0.544633 -2.094530 5.608780
-0.474606 -1.796473 6.139750
-0.489687 -1.860574 6.551814
-0.549983 -2.117158 6.405607
-0.497699 -1.894520 7.400463
-0.500738 -1.907280 8.415867
-0.434612 -1.625719 9.566053
-0.327159 -1.168381 10.339642
-0.354925 -2.049641 1.531473
-0.332232 -1.896333 1.818534
-0.339802 -1.946874 3.985359
-0.333763 -1.905873 4.838121
-0.343712 -1.972952 5.201157
-0.360066 -2.083385 5.191647
-0.327700 -1.864683 5.757064
-0.354626 -2.046484 5.836501
-0.374458 -2.180262 6.336555
-0.354288 -2.043880 7.042264
-0.375879 -2.189706 6.916522
-0.354235 -2.043434 7.368025
-0.342992 -1.967361 7.961959
-0.356678 -2.059764 7.998785
-0.345389 -1.983364 8.645665
-0.356124 -2.055920 8.376501
-0.338163 -1.934412 9.244819
-0.343870 -1.972993 9.086381
-0.320483 -1.814891 9.765301
-0.307952 -1.730166 10.166874
-0.305611 -1.714466 9.761253
-0.256090 -1.379905 10.408950
-0.175334 -1.936872 1.995277
-0.175106 -1.933193 2.218531
-0.173185 -1.903104 2.497031
-0.181191 -2.027518 2.919199
-0.183812 -2.068108 3.293774
-0.177663 -1.972088 3.735063
-0.174744 -1.926277 4.328181
-0.180084 -2.009081 4.900775
-0.177097 -1.962335 5.282107
-0.176853 -1.958531 5.291688
-0.174236 -1.917545 5.672378
-0.180141 -2.009134 6.287908
-0.195827 -2.253455 6.199516
-0.182047 -2.038303 7.127319
-0.191444 -2.184709 7.001949
-0.190420 -2.168542 7.374107
-0.189756 -2.157973 7.744516
-0.187242 -2.118525 8.233340
-0.188333 -2.135328 8.545927
-0.176327 -1.947925 9.277277
-0.177421 -1.964732 9.643569
-0.168641 -1.827914 9.798349
-0.168514 -1.825944 9.807324
-0.162354 -1.729731 10.265495
-0.008507 -2.074860 1.333818
-0.011853 -1.912608 2.273714
-0.012465 -1.883175 2.552060
-0.010613 -1.974428 2.817127
-0.010545 -1.978185 3.036613
-0.010268 -1.993501 3.947058
-0.006284 -2.189386 4.244053
-0.010769 -1.970971 5.013027
-0.008964 -2.060065 5.326898
-0.006579 -2.177444 5.574647
-0.005006 -2.255240 5.930452
-0.004555 -2.278351 6.448271
-0.003491 -2.330761 6.599837
-0.007264 -2.147452 7.467034
-0.006598 -2.179906 7.364604
-0.008857 -2.070553 8.066861
-0.006285 -2.196490 7.992372
-0.005689 -2.226188 8.249257
-0.006266 -2.198807 8.725707
-0.009746 -2.029491 9.399118
-0.009239 -2.054143 9.296196
-0.010096 -2.012472 9.471266
-0.012691 -1.886350 10.037451
-0.016366 -1.706918 10.418737
-0.019233 -1.565776 10.105448
0.152487 -1.932128 1.374604
0.156983 -1.974997 1.926232
0.147464 -1.884805 2.316725
0.145048 -1.862061 2.807544
0.140805 -1.821993 3.351870
0.167004 -2.070784 3.762447
0.167336 -2.074109 4.242387
0.161274 -2.016815 4.885997
0.185051 -2.242456 4.861473
0.175060 -2.147729 5.091696
0.178812 -2.183821 6.395245
0.190401 -2.293794 6.383120
0.176032 -2.157690 7.087039
0.176294 -2.160294 7.403702
0.189664 -2.287152 7.333070
0.178442 -2.180781 7.673242
0.177758 -2.174425 8.042887
0.169162 -2.092956 8.329044
0.175760 -2.155624 8.475883
0.161836 -2.023828 9.395859
0.170469 -2.105783 9.481966
0.166243 -2.065748 9.655978
0.163437 -2.039155 9.774671
0.136037 -1.779419 10.544206
0.119924 -1.626404 10.288351
0.340556 -2.067857 1.296318
0.309931 -1.906618 2.236846
0.337801 -2.053654 2.826760
0.335173 -2.039904 3.312643
0.348537 -2.110416 3.629473
0.325990 -1.991720 4.385653
0.355082 -2.145104 4.528520
0.336881 -2.049261 5.018531
0.324485 -1.984007 5.452869
0.329203 -2.008921 5.663965
0.362608 -2.185213 6.627689
0.355223 -2.146374 7.054633
0.379269 -2.273110 6.983939
0.363266 -2.188877 7.573778
0.372510 -2.237575 7.416309
0.367569 -2.211618 7.839710
0.346792 -2.102248 8.593734
0.372814 -2.239393 8.462374
0.371103 -2.230464 8.881957
0.357646 -2.159586 9.165869
0.347237 -2.104765 9.395172
0.314631 -1.933052 10.181355
0.307998 -1.898121 10.356843
0.271138 -1.703817 10.325935
0.527681 -2.018477 1.313222
0.483458 -1.864825 2.030163
0.466659 -1.806467 2.365239
0.498956 -1.918785 2.576980
0.531647 -2.032474 2.787318
0.520250 -1.992925 3.328480
0.540158 -2.062186 3.645050
0.547274 -2.086984 4.069855
0.550959 -2.099827 4.285949
0.510208 -1.958305 5.418963
0.503138 -1.933735 5.484183
