4.605274 3.099294 4.943892
4.303009 2.906242 5.206256
4.302534 2.906029 6.646142
4.461086 3.007325 6.992157
4.352548 2.938040 7.676868
5.821214 4.437031 -0.004858
5.120567 3.922881 1.368608
4.978458 3.818608 1.793005
4.838237 3.715717 2.165410
4.778318 3.671760 2.475680
4.863743 3.734462 2.536736
4.855070 3.728152 3.368904
4.806585 3.692586 3.683331
4.648149 3.576305 3.722446
4.436594 3.421053 4.011151
4.257081 3.289373 5.119923
4.258949 3.290744 5.132458
4.534598 3.493070 5.325169
4.145508 3.207598 6.850249
5.520231 4.812088 0.539748
4.842008 4.242198 1.065453
4.645636 4.077240 1.898148
4.347184 3.826455 2.055986
4.144675 3.656313 2.505545
4.302184 3.788675 2.559983
4.535985 3.985147 2.603925
4.492744 3.948840 3.033882
4.433083 3.898720 3.233225
4.403684 3.874049 3.725866
4.177515 3.683997 3.779846
4.091813 3.612065 4.991399
3.951343 3.494032 5.100328
4.379795 3.854123 5.862492
4.382018 3.855993 5.875959
4.241223 3.737717 6.424496
4.074897 3.597976 6.803707
3.986651 3.523846 7.163613
4.832887 4.811356 -0.012705
4.832976 4.811459 0.225634
4.909910 4.885160 0.686754
4.630297 4.617450 1.107746
4.419484 4.415602 1.305542
4.003756 4.017559 1.772423
3.733973 3.759259 2.169105
3.836002 3.856991 2.650186
4.087675 4.098014 3.104548
4.170245 4.177086 3.223662
4.115004 4.124206 3.424450
4.060854 4.072369 3.626472
3.993206 4.007649 4.373651
3.834510 3.855728 4.878165
3.749646 3.774501 5.344349
3.972342 3.987744 5.358531
4.016767 4.030305 5.664572
3.880526 3.899888 6.211636
3.801654 3.824395 6.624720
3.727295 3.753224 7.041871
4.512549 5.126643 0.825783
3.470724 3.988509 2.013539
3.504240 4.025173 2.622823
3.663415 4.199105 2.972018
3.835198 4.386820 3.431757
3.754805 4.298976 3.280893
3.606730 4.137250 3.921953
3.541115 4.065565 3.948926
3.483882 4.003096 4.706615
3.240231 3.736920 4.967705
3.315511 3.819170 5.023656
3.561271 4.087696 5.340290
3.652805 4.187713 5.511514
3.712681 4.253164 5.937031
3.645567 4.179876 6.406527
3.488742 4.008565 6.726266
3.430853 3.945358 7.205733
4.291086 5.555264 -0.030657
3.458769 4.519011 2.050895
3.209532 4.208655 2.092262
3.228047 4.231742 2.462118
3.327551 4.355699 3.058477
3.407485 4.455256 3.295654
3.451168 4.509697 3.837524
3.328198 4.356574 3.877323
3.232382 4.237290 4.215231
3.157856 4.144531 4.736590
2.948927 3.884351 4.557298
3.050046 4.010298 4.915334
3.328223 4.356756 5.647760
3.383597 4.425704 5.580916
3.464301 4.526250 6.181833
3.360841 4.397433 6.356450
3.188322 4.182619 6.496125
3.150961 4.136145 7.093860
3.804190 5.661112 -0.161773
2.996909 4.509067 2.361436
2.946197 4.436697 2.501197
2.905803 4.379069 2.821017
3.005691 4.521706 3.476835
2.962765 4.460454 3.680038
2.930349 4.414215 4.003702
2.896849 4.366482 4.907716
2.879320 4.341498 5.296685
3.082989 4.632230 5.548410
3.098238 4.654008 5.678617
3.117516 4.681583 6.301482
2.935794 4.422196 6.261948
2.817776 4.253783 6.701282
2.814955 4.249794 7.097964
2.592107 4.512821 2.246785
2.691591 4.676211 2.125564
2.709994 4.706481 2.554275
2.667581 4.636838 2.755090
2.580875 4.494458 3.087336
2.603320 4.531362 3.459526
2.594429 4.516824 4.083996
2.557962 4.456948 4.291722
2.532446 4.415073 4.620795
2.446843 4.274493 4.848090
2.521399 4.396975 5.085184
2.693313 4.679355 5.223190
2.820290 4.887986 5.925996
2.719987 4.723245 5.980314
2.626480 4.569672 6.094484
2.598387 4.523597 6.748942
2.572471 4.481052 6.964559
3.128986 6.287742 -0.360064
3.127591 6.285146 0.322769
2.277126 4.654281 1.933577
2.388928 4.868761 2.468069
2.348367 4.790989 2.609338
2.305496 4.708778 2.691794
2.277011 4.654193 3.074242
2.257869 4.617540 3.578074
2.235089 4.573896 3.964261
2.260517 4.622704 4.337150
2.161533 4.432862 4.259890
2.102218 4.319160 4.728056
2.208663 4.523321 4.888771
2.386642 4.864706 5.325687
2.454733 4.995320 5.555788
2.382240 4.856317 5.786367
2.373400 4.839458 6.614974
2.298292 4.695435 6.794005
2.230663 4.565760 7.034852
2.597081 6.199630 0.436272
1.975312 4.794100 1.986887
2.103800 5.084625 2.215650
2.042748 4.946669 2.779956
2.021020 4.897603 3.220186
1.938478 4.710983 3.195793
1.910329 4.647376 3.460884
1.903405 4.631805 4.089290
2.123321 5.129313 6.428444
2.051424 4.966780 6.546265
1.979704 4.804647 6.665074
1.825944 5.370245 1.776327
1.812205 5.332863 2.561535
1.782172 5.250902 2.701504
1.710247 5.054552 2.614453
1.702508 5.033542 3.352400
1.629873 4.835255 3.268969
1.631227 4.839076 4.075197
1.603932 4.764591 4.222901
1.768216 6.483187 0.276477
1.420917 5.302505 2.041362
1.492820 5.547136 2.686208
1.457520 5.427044 2.414997
1.421612 5.305078 3.156980
1.336054 5.014130 3.144616
1.324761 4.975824 3.649488
1.273808 4.802583 3.809773
1.293874 4.870912 4.305654
1.334493 6.586802 0.350637
1.157180 5.792996 2.260914
1.157410 5.794027 2.273889
1.141495 5.722812 2.587365
1.058734 5.352142 2.815521
1.000904 5.093174 3.158174
0.967268 4.942598 3.555167
0.956445 4.894211 3.942399
0.950890 4.869454 4.452331
1.013750 5.151291 5.506063
0.864551 6.664035 -0.076677
0.785781 6.139166 2.013940
0.755724 5.938590 1.981921
0.804160 6.261913 2.316655
0.634358 5.129381 3.795520
0.608930 4.959783 4.015152
0.605042 4.934233 5.108202
0.648037 5.221300 5.562731
0.659434 5.297303 5.435982
0.661629 5.312154 6.003587
0.622463 5.050872 6.199315
0.569456 4.697557 7.282235
0.471558 6.702937 0.185540
0.489743 6.904240 -0.251458
0.395071 5.856100 1.726236
0.413811 6.063886 1.855206
0.455605 6.527574 2.638672
0.311498 4.930909 3.595933
0.303474 4.842812 5.011563
0.315467 4.975846 5.188293
0.334356 5.185230 5.224954
0.338701 5.233831 5.975094
0.334889 5.191741 6.248708
0.308889 4.904119 7.186741
0.006220 5.732447 0.924445
0.001428 5.534950 1.003346
0.028397 6.651251 2.713060
0.035272 6.934464 2.527784
0.038669 7.075435 2.921615
-0.013147 4.940995 4.320757
-0.010608 5.047125 4.965157
-0.009770 5.082146 5.159361
-0.007484 5.177547 5.652985
-0.006225 5.230026 5.906021
-0.376128 5.618945 0.894421
-0.372771 5.540741 1.441994
-0.373371 5.554301 1.691049
-0.390833 5.957510 1.738307
-0.417996 6.584357 2.111353
-0.436313 7.007063 2.371998
-0.448536 7.288399 3.140942
-0.454732 7.431073 3.470829
-0.448664 7.291318 3.165105
-0.353161 5.084712 4.007892
-0.345075 4.897046 4.753420
-0.352668 5.071897 5.170156
-0.354243 5.108023 5.362453
-0.765129 5.594180 1.291752
-0.753689 5.492870 1.249127
-0.743818 5.405310 1.502536
-0.894636 6.740899 2.134606
-0.946420 7.199285 2.779038
-0.970208 7.409938 2.878857
-0.983612 7.528586 3.042801
-0.988367 7.570544 3.381209
-0.985277 7.542930 3.897192
-0.677005 4.811819 5.050367
-0.713548 5.135201 5.687359
-1.140268 5.609868 0.611397
-1.106365 5.420619 0.923248
-1.127406 5.537868 1.403458
-1.147358 5.649114 1.645376
-1.369226 6.886773 2.382469
-1.424857 7.197112 2.532896
-1.464101 7.416004 2.744007
-1.490723 7.564403 3.180166
-1.493408 7.579350 3.300279
-1.523143 7.745104 3.785075
-1.526343 7.762921 3.904297
-1.456966 5.334051 0.821904
-1.482878 5.438684 1.067360
-1.487392 5.456829 1.491934
-1.568409 5.784018 2.070201
-1.688429 6.268924 2.045399
-1.817490 6.790252 2.467098
-1.909712 7.162672 3.222449
-1.979449 7.444280 3.863042
-1.985271 7.467920 3.317463
-2.048978 7.725069 4.394540
-1.309221 4.735821 6.770661
-1.280857 4.621060 7.523667
-1.839012 5.331337 1.131283
-1.839887 5.334069 1.203246
-1.841627 5.339504 1.334046
-1.882414 5.467332 1.928387
-2.009046 5.864488 2.144556
-2.164969 6.353531 2.288023
-2.253862 6.632196 3.179434
-2.342768 6.911073 3.100592
-2.411782 7.127505 3.308309
-2.455838 7.265634 3.634623
-2.503757 7.415871 4.011692
-1.774803 5.129196 5.372041
-1.753233 5.061425 6.018690
-1.723432 4.967870 6.492161
-1.622880 4.652495 6.391872
-1.663042 4.778368 6.946811
-1.575566 4.503976 7.031802
-2.611453 6.299662 0.186498
-2.177298 5.191804 0.836921
-2.143784 5.106254 1.090360
-2.158471 5.143616 1.872221
-2.193823 5.233825 1.821107
-2.344083 5.617194 1.981399
-2.428852 5.833427 2.381213
-1.964677 4.648884 3.638835
-1.859600 4.380759 3.750730
-1.850403 4.357123 4.914028
-1.951070 4.613921 5.314938
-1.991979 4.718293 5.369015
-2.028106 4.810402 5.860730
-2.107998 5.014172 6.387555
-2.104622 5.005501 6.779148
-2.509731 5.046512 1.037006
-2.509938 5.046953 1.050804
-2.516546 5.061017 1.417707
-2.566058 5.166711 1.719521
-2.659295 5.365779 2.011653
-2.722536 5.500754 2.596322
-2.643454 5.331858 2.745183
-2.503042 5.031934 3.388400
-2.344969 4.694344 3.630113
-2.226335 4.440983 3.803411
-2.192150 4.367965 3.951946
-2.101912 4.175188 4.557171
-1.998932 3.955233 4.926716
-2.101855 4.174993 5.151279
-2.232807 4.454633 5.172278
-2.304814 4.608356 5.528278
-2.442033 4.901311 6.096955
-2.454591 4.928111 6.229199
-2.474454 4.970450 6.857269
-2.836980 4.876930 1.193360
-2.785778 4.783963 1.032891
-2.749406 4.717849 1.582626
-2.854708 4.909049 1.878279
-2.955257 5.091637 1.994240
-2.973795 5.125250 2.473007
-2.939717 5.063329 2.786562
-2.793506 4.797805 2.770253
-2.696392 4.621346 3.647041
-2.553717 4.362236 3.698746
-2.443933 4.162805 4.236410
-2.383995 4.053901 4.732126
-2.537564 4.332717 5.376102
-2.644702 4.527272 5.470838
-2.787654 4.786830 5.918521
-2.840142 4.882097 6.402892
-2.768047 4.751143 6.638837
-3.085362 4.586011 0.736711
-3.041565 4.517357 1.286283
-3.113745 4.630352 1.898952
-3.230656 4.813446 2.133027
-3.241409 4.830264 2.380264
-3.196860 4.760468 2.578084
-3.077427 4.573325 3.329842
-2.918003 4.323616 3.378970
-2.762558 4.080131 3.488816
-2.628828 3.870630 3.905240
-2.556676 3.757572 4.375429
-2.500115 3.668922 4.973793
-2.577743 3.790486 5.213541
-2.762147 4.079297 5.413317
-2.960337 4.389691 5.726537
-3.093919 4.598899 5.934213
-3.078034 4.573986 6.262930
-3.064294 4.552432 6.593064
-4.032253 5.258318 -0.512890
-3.522410 4.564951 1.671007
-3.544490 4.594922 2.211194
-3.500845 4.535556 2.525840
-3.504739 4.540843 2.597330
-3.412310 4.415139 3.042079
-3.252570 4.197935 3.326103
-3.035813 3.903210 3.628011
-2.860508 3.664865 3.679384
-2.927510 3.755834 5.074598
-3.006907 3.863764 5.251800
-3.145134 4.051681 5.408379
-3.290960 4.249923 5.621389
-3.314374 4.281738 5.812568
-3.369719 4.356907 6.677198
-3.297043 4.258106 6.595016
-3.694761 4.182413 1.910013
-3.695252 4.182996 1.921304
-3.743896 4.240699 2.816248
-3.665777 4.147930 2.601348
-3.591676 4.059848 3.403832
-3.442230 3.882362 3.140408
-3.293610 3.705786 3.728931
-3.130029 3.511460 4.084462
-2.975538 3.327925 4.507644
-2.938780 3.284242 4.781316
-3.030601 3.393285 5.021804
-3.295196 3.707517 5.586205
-3.486170 3.934354 5.539180
-3.582044 4.048212 5.768742
-3.650200 4.129125 6.254151
-3.589063 4.056506 6.287678
-4.080865 4.059571 1.494990
-4.026663 4.003078 1.865651
-3.928137 3.900381 2.601348
-3.936759 3.909353 2.732189
-3.908551 3.879924 3.287563
-3.748751 3.713473 3.025690
-3.529536 3.485051 3.746139
-3.313757 3.260268 3.676523
-3.286705 3.232052 4.130609
-3.101397 3.038989 4.371860
-3.164958 3.105160 4.939447
-3.461645 3.414224 5.066453
-3.670611 3.631874 5.584212
-3.748629 3.713145 5.637085
-3.820508 3.787987 6.126217
-3.898446 3.869141 6.613410
-3.785989 3.751976 6.792101
-4.897516 4.303598 0.224299
-4.425494 3.871363 1.888746
-4.151294 3.620316 2.284740
-4.155739 3.624380 2.357974
-4.098615 3.572067 2.617756
-3.969955 3.454265 2.889337
-3.858572 3.352266 3.344468
-3.673742 3.183032 3.757817
-3.394889 2.927742 3.947633
-3.203141 2.752183 4.251110
-3.181411 2.732256 4.715057
-3.504608 3.028115 4.909841
-3.764207 3.265747 5.175104
-3.843648 3.338431 5.729163
-3.983568 3.466492 6.139691
-3.966268 3.450663 6.032704
-4.029318 3.508323 6.842556
-4.363270 3.323211 1.971994
-4.299875 3.272439 2.229720
-4.242531 3.226507 2.548644
-4.188112 3.182917 2.869519
-4.053766 3.075339 3.142773
-3.957416 2.998157 3.781729
-3.682547 2.778069 4.153285
-3.382101 2.537521 4.285713
-3.320986 2.488581 4.437703
-3.632754 2.738145 5.018933
-3.873549 2.930927 5.040430
-4.013643 3.043059 5.457458
-4.062663 3.082283 5.770681
-4.079977 3.096106 6.344693
-4.148100 3.150620 6.716710
-4.041034 3.064912 6.572701
-4.410605 2.923367 2.073631
-4.426476 2.934453 2.324604
-4.376487 2.899455 2.763644
-4.321377 2.860883 3.085466
-4.100753 2.706529 3.372675
-3.956857 2.605766 4.937316
-3.904607 2.569202 5.150326
-4.104645 2.709122 5.369413
-4.175497 2.758657 5.804541
-4.128727 2.725926 6.018793
-4.083309 2.694141 6.234124
-4.109419 2.712367 6.813626
-5.815593 3.367975 -0.148189
-5.729334 3.315712 -0.023264
-4.662408 2.669260 1.788310
-4.606928 2.635620 2.284572
-4.616284 2.641279 2.416752
-4.592605 2.626889 3.154750
-4.454188 2.543015 3.490236
-4.207436 2.393527 3.600917
-4.138414 2.351661 4.457838
-4.080826 2.316761 4.669543
-4.229635 2.406882 5.091053
-4.383853 2.500281 5.508223
-4.249356 2.418789 5.741640
-4.184456 2.379435 6.342038
-4.080339 2.316367 6.255485
-4.216529 2.398828 6.937121
-6.023977 2.986074 -0.370656
-5.843396 2.892060 -0.076198
-4.744288 2.319833 1.925015
-4.806491 2.352160 2.772984
-4.719438 2.306846 2.796763
-4.648769 2.270049 3.000340
-4.591730 2.240340 3.325244
-4.476869 2.180478 4.566376
-4.146543 2.008524 4.766905
-4.409500 2.145367 5.293377
-4.561486 2.224458 5.650079
-4.412087 2.146682 5.824799
-4.286368 2.081225 6.120990
-4.252046 2.063316 6.847011
-4.294528 2.085417 7.041769
-6.219088 2.545481 0.257054
-6.035300 2.465988 0.213623
-5.018150 2.025903 2.331295
-4.918831 1.982949 2.233129
-4.851406 1.953766 2.552709
-4.781909 1.923690 2.814324
-4.623463 1.855140 3.088317
-4.520351 1.810457 4.510478
-4.326070 1.726390 5.059800
-4.581275 1.836754 5.461454
-4.652482 1.867561 5.335172
-4.586540 1.839001 5.990963
-4.319859 1.723645 6.066846
-4.345998 1.734917 6.650970
-4.402497 1.759341 6.907849
-4.091061 1.624614 7.201174
-3.753861 1.478727 7.774454
-6.371629 2.134176 0.197901
-6.184471 2.067372 -0.187408
-5.032476 1.655910 2.160723
-5.037766 1.657794 2.233594
-5.001190 1.644696 2.911950
-4.903025 1.609648 2.875641
-4.753889 1.556375 3.271025
-4.657088 1.521731 4.694843
-4.483020 1.459573 4.802057
-4.627952 1.511305 5.101932
-4.843552 1.588249 5.759658
-4.546106 1.482047 5.712267
-4.448755 1.447259 6.192875
-4.397941 1.429103 6.411192
-6.498045 1.711674 -0.046659
-6.305523 1.656861 0.193159
-5.033269 1.294621 2.153317
-5.062661 1.302966 2.525865
-5.085394 1.309423 2.778571
-5.008612 1.287557 2.981861
-4.886427 1.252743 3.619096
-4.702503 1.200314 5.017005
-4.725872 1.206958 5.152062
-4.923545 1.263193 5.689744
-4.631691 1.180120 5.702777
-4.571137 1.162847 6.366585
-4.373300 1.106535 6.363282
-4.197336 0.768926 1.726690
-4.686093 0.874276 1.711912
-5.002650 0.942489 2.068859
-5.036489 0.949760 2.502851
-5.083146 0.959789 2.996130
-4.981188 0.937815 2.960403
-4.789433 0.896397 4.530343
-4.658301 0.868110 4.941355
-4.799368 0.898503 5.180430
-4.698697 0.876749 6.189338
-4.482371 0.830100 6.572471
-4.550716 0.844793 7.281204
-4.008210 0.458398 0.990708
-3.911800 0.444141 1.069876
-4.152882 0.479733 1.945779
-4.758445 0.569247 2.101970
-5.094079 0.618839 2.573371
-5.106260 0.620633 2.706166
-5.014756 0.607101 2.788714
-4.982767 0.602338 3.414316
-4.969104 0.600218 5.292347
-4.750305 0.567849 5.724840
-4.580739 0.542747 6.359886
-4.644519 0.552138 7.066461
-4.410626 0.517567 6.942841
-6.607165 0.416939 0.314413
-4.028244 0.202202 0.957576
-3.852240 0.187518 1.541155
-4.264591 0.221834 1.780812
-4.877720 0.272867 1.999288
-5.095003 0.290944 2.237737
-5.068859 0.288725 3.039751
-5.045442 0.286787 2.811267
-5.127516 0.293509 4.892720
-5.142986 0.294763 5.522426
-4.996941 0.282564 6.281234
-4.638305 0.252695 6.503012
-4.150638 -0.058284 1.418588
-3.748830 -0.065491 1.386773
-5.086585 -0.041525 2.013723
-5.115092 -0.041033 2.385909
-5.043341 -0.042338 2.707178
-5.081228 -0.041678 3.079885
-4.833890 -0.046140 3.549065
-6.113331 -0.023246 4.678409
-5.708603 -0.030538 5.245841
-5.393749 -0.036184 5.195350
-5.038468 -0.042623 6.429876
-4.679848 -0.049069 6.653589
-4.577097 -0.050935 7.079208
-3.931082 -0.318390 1.257830
-3.646912 -0.304997 1.599349
-5.083163 -0.372809 2.152839
-5.118950 -0.374521 2.585552
-5.142992 -0.375669 2.837963
-5.057198 -0.371627 2.980829
-4.808496 -0.359915 3.449827
-6.133688 -0.422532 4.875481
-5.711490 -0.402602 4.783058
-4.659111 -0.353034 6.620964
-4.511035 -0.346059 6.862484
-3.706800 -0.556943 1.364383
-3.617135 -0.546714 1.571706
-4.941726 -0.698023 2.073668
-5.069918 -0.712684 2.439347
-4.993584 -0.703979 2.701303
-5.058129 -0.711384 3.314928
-4.785444 -0.680253 3.544566
-6.125972 -0.833406 4.487524
-5.796483 -0.795798 4.916512
-4.605816 -0.659898 6.536384
-4.405664 -0.637062 6.986299
-4.899407 -1.015625 2.244571
-5.034133 -1.039866 2.669870
-4.966891 -1.027796 2.993037
-4.956000 -1.025833 2.885963
-4.746067 -0.988137 3.657727
-6.175003 -1.245054 4.579498
-5.764020 -1.171203 5.085228
-4.430106 -0.931535 7.287887
-3.311898 -0.959924 1.361682
-3.800016 -1.081247 1.416660
-4.397800 -1.229841 1.708942
-4.808833 -1.332021 2.061424
-4.842294 -1.340362 2.496772
-4.888488 -1.351870 2.991628
-4.812517 -1.332999 3.196640
-4.531442 -1.263145 3.304857
-6.479536 -1.747409 4.613866
-6.089646 -1.650505 4.638254
-5.643777 -1.539700 4.911949
-6.171738 -2.100481 0.115088
-2.943202 -1.074547 0.946624
-4.742042 -1.646275 2.442207
-4.763768 -1.653194 2.696132
-4.749195 -1.648553 2.528753
-4.694234 -1.631112 2.973351
-4.565638 -1.590279 3.553564
-6.143112 -2.091630 4.504914
-6.099579 -2.576552 -0.237740
-6.008823 -2.540386 0.570592
-2.956936 -1.322710 1.136048
-4.488425 -1.933828 2.027414
-4.632592 -1.991389 2.696132
-4.667758 -2.005442 3.070028
-4.559048 -1.962058 2.913020
-4.432545 -1.911616 3.492938
-4.439138 -2.262412 1.953331
-4.455575 -2.270259 2.206443
-4.509638 -2.296061 2.880561
-4.494724 -2.288944 2.712113
-4.476861 -2.280476 3.457121
-4.237211 -2.166295 3.748830
-5.626108 -3.293888 0.044801
-5.720363 -3.346568 0.737558
-4.325115 -2.567490 2.557910
-4.373228 -2.594393 3.111800
-4.305564 -2.556619 3.316210
-4.226392 -2.512409 3.401007
-6.336235 -3.690748 4.683633
-6.174395 -3.600405 5.305912
-5.742083 -3.871451 0.646902
-5.827338 -3.926591 0.712574
-5.660913 -3.818967 0.785781
-5.413761 -3.659144 0.976824
-5.092690 -3.451534 1.407138
-4.135885 -2.832823 2.362696
-4.168758 -2.854110 2.796937
-4.169825 -2.854800 2.809858
-4.053601 -2.779674 3.387078
-6.057668 -4.075787 4.506170
-5.902196 -3.975248 4.608132
-5.865679 -3.951685 5.437703
-5.664687 -3.821692 5.265907
-5.790740 -4.477246 0.250854
-4.701322 -3.666144 1.594070
-4.396359 -3.439088 1.925221
-4.094716 -3.214504 2.265242
-3.855735 -3.036559 2.302886
-3.975744 -3.125955 2.850497
-3.912130 -3.078601 3.055340
-3.891141 -3.063014 3.684371
-5.626671 -4.355368 4.604220
-5.578168 -4.914685 0.966266
-4.472463 -3.975084 1.941745
-4.254921 -3.790223 2.151628
-3.859465 -3.454133 1.902944
-3.760562 -3.370142 2.771798
-3.785105 -3.391022 3.084813
-3.720612 -3.336223 3.228656
-3.667796 -3.291357 3.494243
-5.404532 -4.767411 5.093258
-4.952948 -4.978487 0.504705
-5.099129 -5.119985 0.678510
-4.897652 -4.925024 1.256731
-4.604123 -4.640909 1.058403
-4.320489 -4.366397 1.200038
-4.189485 -4.239629 1.568852
-3.525613 -3.597161 2.635492
-3.586406 -3.656060 3.428378
-3.424390 -3.499234 3.222457
-5.035600 -5.058797 4.729357
-4.483001 -5.138752 0.153957
-4.487330 -5.143565 0.673022
-4.286917 -4.922668 0.749381
-4.105642 -4.722922 1.517885
-4.045742 -4.656913 1.709293
-3.992250 -4.597977 2.017802
-3.433981 -3.982699 2.853430
-3.661117 -4.233084 3.190434
-3.701368 -4.277488 3.674675
-4.863241 -5.558247 4.964994
-4.689025 -5.366239 5.201239
-4.485513 -5.141922 5.216454
-2.708551 -3.183411 6.708782
-3.927109 -5.221900 0.959262
-3.742339 -4.986329 0.982499
-3.689653 -4.919188 1.345783
-3.642283 -4.858830 1.769471
-3.525532 -4.710089 3.056481
-3.449659 -4.613336 2.846713
-3.618701 -4.828912 3.478622
-3.483844 -4.656964 3.342004
-4.043669 -5.370876 5.223581
-2.378635 -3.248185 6.927731
-3.564470 -5.368904 1.236791
-3.412075 -5.149371 1.840915
-3.348359 -5.057659 2.881284
-3.285585 -4.967197 2.788361
-3.440889 -5.191037 3.415340
-2.366416 -3.643095 6.531960
-2.226116 -3.440959 6.799277
-3.452598 -5.997264 0.293448
-2.954730 -5.169687 1.458425
-3.064686 -5.352511 1.691710
-3.130740 -5.462368 2.100470
-3.148709 -5.492284 2.514768
-3.160767 -5.512354 2.756619
-3.184058 -5.551118 3.169918
-3.096950 -5.406330 3.436256
-2.995507 -5.237687 3.474091
-2.532173 -4.467606 5.440237
-2.488980 -4.395807 5.532659
-2.949544 -6.007511 2.041313
-2.823429 -5.763064 2.361600
-2.879109 -5.871032 2.592446
-2.890123 -5.892412 2.831711
-2.859613 -5.833301 3.139114
-2.729943 -5.581944 3.301054
-2.233072 -4.618967 5.415173
-2.211063 -4.576332 5.687163
-2.105402 -5.254024 1.571664
-2.521172 -6.225089 2.334605
-2.523567 -6.230693 2.403912
-2.497697 -6.170325 2.765724
-2.429589 -6.011306 3.027330
-2.376862 -5.888246 3.579110
-2.293341 -5.693283 4.210394
-2.097311 -5.235576 4.873375
-1.935047 -4.856706 5.393126
-1.845122 -4.646682 5.262457
-1.403393 -3.615355 7.166426
-2.078504 -6.285618 0.320617
-1.524105 -4.715540 1.502065
-2.193227 -6.610962 2.832516
-2.158577 -6.512813 2.799240
-2.092759 -6.326398 2.831650
-2.046724 -6.196096 3.377190
-2.007330 -6.084614 3.986568
-1.892676 -5.759823 3.695100
-1.581899 -4.879858 5.412127
-1.509609 -4.675095 5.341554
-1.070164 -3.430656 6.836089
-0.967563 -3.928268 1.298575
-1.081814 -4.334351 1.724774
-1.743071 -6.684280 2.227090
-1.729128 -6.634835 2.753577
-1.689356 -6.493599 3.238743
-1.674688 -6.441548 3.602924
-1.592511 -6.149521 3.597915
-1.521073 -5.895716 3.881496
-1.222997 -4.836742 5.205248
-1.199248 -4.752462 5.799763
-0.665620 -3.776400 0.998956
-0.649199 -3.699140 1.519867
-1.288726 -6.713468 2.547992
-1.279414 -6.669720 3.077502
-1.251800 -6.539714 3.623279
-1.203271 -6.310935 3.377181
-0.924155 -4.995932 5.151382
-0.898184 -4.873637 5.563338
-0.388960 -3.623813 1.275945
-0.360499 -3.426637 1.299029
-0.835975 -6.721416 2.916325
-0.823785 -6.637013 3.053630
-0.818875 -6.603191 3.588762
-0.787596 -6.386441 3.457530
-0.741492 -6.067242 4.043311
-0.582319 -4.964919 5.258926
-0.559567 -4.807377 5.491860
-0.353037 -6.212370 2.425431
-0.387651 -6.654923 2.856644
-0.381964 -6.582434 3.107567
-0.378753 -6.541732 3.587226
0.056883 -6.254342 2.764916
0.054314 -6.466454 2.871367
0.052559 -6.612722 3.270748
0.054523 -6.452379 3.593158
0.056439 -6.296033 3.919629
0.060705 -5.946190 4.281142
0.066432 -5.475355 4.503129
0.069967 -5.187168 5.180075
0.071921 -5.027202 5.410437
0.424409 -5.388622 2.252682
0.457830 -6.006355 2.449389
0.475195 -6.327216 2.664159
0.476880 -6.358087 2.962463
0.473388 -6.293207 3.272399
0.472703 -6.279892 3.929050
0.453828 -5.930555 4.290006
0.398313 -4.903046 5.375315
0.388471 -4.720962 5.486231
0.391096 -4.768329 6.660145
0.399400 -4.921259 7.278314
0.771013 -5.351177 2.266829
0.820640 -5.767780 2.481207
0.862251 -6.116950 2.986464
0.874922 -6.223314 3.045165
0.883506 -6.295123 3.631042
0.872911 -6.206125 3.714029
0.846056 -5.980402 4.231652
0.709874 -4.836497 5.210684
0.693778 -4.701184 5.564150
0.704675 -4.792268 6.474668
0.720549 -4.925306 7.031977
0.769247 -5.333864 7.797864
1.141692 -5.409774 2.527941
1.179324 -5.612002 2.581292
1.242846 -5.953250 3.029689
1.280645 -6.156369 3.077481
1.277345 -6.138444 3.733790
1.249052 -5.986298 4.062285
1.216450 -5.811046 4.220212
1.146172 -5.433322 4.352433
1.065550 -4.999925 4.754939
1.025643 -4.785322 5.241404
1.007496 -4.687636 5.776781
1.036201 -4.841571 6.925449
1.057251 -4.954681 6.973818
1.063367 -4.987513 7.106173
1.111445 -5.245716 7.702207
1.514664 -5.434051 2.656275
1.562533 -5.622881 2.591702
1.621904 -5.856977 2.991465
1.625437 -5.870882 3.119909
1.615490 -5.831542 3.608174
1.583457 -5.705085 4.113760
1.484555 -5.314972 4.127158
1.427799 -5.090882 5.169291
1.353175 -4.796533 5.176988
1.328529 -4.699205 5.711388
1.362945 -4.834720 6.798978
1.394861 -4.960582 6.908396
1.414387 -5.037532 7.220671
1.451009 -5.181865 7.770013
1.825197 -5.188807 2.187224
1.891532 -5.392977 2.360800
1.932574 -5.519257 2.715844
1.973068 -5.643858 3.009591
1.981726 -5.670468 3.254662
1.974993 -5.649636 3.861139
1.952824 -5.581358 4.062786
1.842413 -5.241426 4.370885
1.756492 -4.976804 5.117106
1.662669 -4.687986 5.124223
1.616667 -4.546328 5.416082
1.690607 -4.773822 6.086647
1.738154 -4.920147 6.317849
1.772031 -5.024282 7.189899
1.802976 -5.119541 7.177706
1.798656 -5.106185 7.513152
2.165189 -5.072159 2.367213
2.243162 -5.267714 2.480463
2.290736 -5.386993 2.776298
2.344419 -5.521582 3.185705
2.342468 -5.516696 3.140100
2.339417 -5.508939 3.862501
2.297360 -5.403465 3.772374
2.220524 -5.210655 4.415005
2.071488 -4.836843 4.431493
2.041026 -4.760337 5.135650
1.969062 -4.579833 5.184760
1.905527 -4.420451 5.355431
2.033424 -4.741074 6.505344
2.060301 -4.808505 6.375515
2.098165 -4.903413 6.805357
2.174345 -5.094427 7.208123
2.115614 -4.947094 7.390195
2.081882 -4.862426 7.812751
2.452954 -4.831857 2.416843
2.582172 -5.102635 2.404361
2.707202 -5.364528 3.272578
2.710900 -5.372269 3.343548
2.721014 -5.393438 3.530045
2.682285 -5.312271 3.613568
2.629972 -5.202579 4.179119
2.545654 -5.025887 4.221933
2.465482 -4.857799 4.933519
2.358178 -4.632905 5.238508
2.237175 -4.379329 5.367289
2.074099 -4.037585 5.516562
2.201616 -4.304681 6.436315
2.449046 -4.823139 6.694540
2.482172 -4.892515 7.003679
2.483569 -4.895442 7.016396
2.477146 -4.881895 7.732241
2.305619 -4.522453 7.793446
2.856202 -4.838796 2.409475
2.961570 -5.027326 2.579376
3.033874 -5.156658 3.047049
3.040947 -5.169300 3.174815
3.037310 -5.162714 3.896318
3.011001 -5.115600 4.213390
2.911059 -4.936763 4.196951
2.780852 -4.703740 4.431867
2.671626 -4.508236 4.909816
2.608801 -4.395771 5.316981
2.447316 -4.106762 5.707759
2.595082 -4.371127 6.173739
2.778915 -4.700051 6.476932
2.800986 -4.739526 6.666338
2.868039 -4.859454 7.209150
2.798443 -4.734889 7.449632
2.644049 -4.458573 7.806040
3.113434 -4.557224 2.417334
3.189298 -4.674174 2.833022
3.291870 -4.832365 2.708087
3.407146 -5.010122 2.816555
3.455888 -5.085213 3.580616
3.375249 -4.960821 3.967563
3.336582 -4.901172 4.168813
3.220381 -4.721985 4.093805
3.111650 -4.554245 4.742605
3.011169 -4.399282 4.848306
2.905966 -4.236988 5.452885
2.687266 -3.899725 5.481241
2.855034 -4.158347 6.453614
3.129114 -4.581014 6.412526
3.177049 -4.654899 6.778533
3.139427 -4.596830 7.312154
3.396830 -4.337734 2.300913
3.538621 -4.528042 2.709340
3.661790 -4.693382 2.762000
3.697196 -4.740864 3.298883
3.689945 -4.731140 3.196594
3.676196 -4.712628 3.804157
3.618189 -4.634756 3.831859
3.483932 -4.454479 4.358715
3.378662 -4.313146 4.522559
3.221109 -4.101622 4.764618
3.118621 -3.963974 5.492713
2.834435 -3.582461 5.664618
3.439515 -4.394696 6.107157
3.489704 -4.462039 6.472976
3.493776 -4.467465 6.920784
3.397974 -4.338842 7.100753
3.302918 -4.211186 7.665498
3.274966 -3.628618 2.037103
3.620758 -4.033299 2.431447
3.829546 -4.277644 2.653913
3.995679 -4.472042 3.171639
4.056884 -4.543680 3.115614
4.020754 -4.501364 3.488590
3.967189 -4.438660 3.629704
3.882669 -4.339698 4.136420
3.791670 -4.233160 4.531432
3.690897 -4.115194 4.812808
3.507143 -3.900118 4.936413
3.367501 -3.736644 5.423134
3.081737 -3.402159 5.775498
3.723334 -4.153052 6.094022
3.859130 -4.311949 6.553804
3.801488 -4.244447 7.024767
3.940784 -3.852003 2.315699
4.087628 -4.002618 2.429807
4.281226 -4.201141 3.181621
4.342370 -4.263867 3.067229
4.308172 -4.228757 3.497652
4.250728 -4.169823 3.639703
4.192133 -4.109659 4.439421
4.076297 -3.990825 4.660850
3.926334 -3.837008 4.589159
3.795295 -3.702546 5.248699
3.902084 -3.812026 6.001613
4.058591 -3.972554 6.089803
4.117178 -4.032621 6.454974
4.023355 -3.936361 6.750014
4.169373 -3.571159 2.042981
4.339090 -3.723768 2.393815
4.516487 -3.883281 2.796995
4.526460 -3.892242 2.926028
4.567447 -3.929068 3.403390
4.511514 -3.878751 3.603113
4.468933 -3.840434 3.920711
4.405313 -3.783163 4.665365
4.187073 -3.586886 4.728746
4.313766 -3.700727 6.109776
4.345687 -3.729422 6.298776
4.287392 -3.676957 6.828423
5.514480 -4.182384 0.397476
4.402245 -3.304612 2.239683
4.684174 -3.527035 2.871854
4.773050 -3.597157 2.990746
4.794910 -3.614391 3.236064
4.861623 -3.666988 3.886697
4.819348 -3.633609 4.204015
4.658702 -3.506846 4.189164
4.573000 -3.439181 4.761512
4.367554 -3.277051 5.003898
4.086602 -3.055338 5.268681
3.912941 -2.918275 5.701223
4.148759 -3.104325 6.154744
4.467966 -3.356207 6.140564
4.557272 -3.426673 6.190550
4.570067 -3.436735 6.694889
4.530660 -3.405626 6.907004
4.402508 -3.304465 7.466733
5.779541 -3.806107 0.310531
4.610282 -3.003416 2.210797
4.795917 -3.130815 2.502236
4.999133 -3.270271 2.963271
5.005569 -3.274684 3.034790
5.034696 -3.294657 3.338560
4.997990 -3.269434 3.771459
4.863805 -3.177313 4.046423
4.763098 -3.108156 4.558746
4.589403 -2.988899 5.094832
4.348083 -2.823255 5.161839
4.025743 -2.601998 5.247334
4.297928 -2.788782 5.885083
4.719766 -3.078297 6.346104
4.677894 -3.049571 6.122825
4.910385 -3.209103 6.874847
4.777983 -3.118212 7.053900
4.698744 -3.063796 7.470647
6.103899 -3.466103 0.025848
4.794311 -2.689231 2.142385
5.000928 -2.811751 2.609243
5.198121 -2.928692 2.893776
5.312437 -2.996477 3.185009
5.252512 -2.960919 3.441009
5.194715 -2.926622 3.698550
5.061280 -2.847458 4.030429
4.990252 -2.805284 4.777557
4.711691 -2.640072 4.663514
4.503953 -2.516836 5.025701
4.310313 -2.401958 5.454376
4.532791 -2.533897 5.728503
4.852673 -2.723606 6.035242
4.984456 -2.801755 6.261183
5.046282 -2.838406 6.566609
4.996485 -2.808834 7.155230
4.846361 -2.719785 7.277566
4.957807 -2.371528 2.126205
5.192158 -2.490627 2.828629
5.365470 -2.578739 2.763364
5.500573 -2.647395 3.229754
5.425971 -2.609461 3.370751
5.424230 -2.608533 4.093876
5.282093 -2.536256 4.370563
5.163361 -2.475907 4.165097
4.977766 -2.381518 4.756464
4.783532 -2.282744 5.238688
4.533231 -2.155488 5.368105
4.577652 -2.178055 5.622377
4.879656 -2.331551 6.251276
5.129820 -2.458711 6.573545
5.283693 -2.536921 6.855693
5.181665 -2.485030 7.211583
5.034812 -2.021081 2.491477
5.305669 -2.137590 2.419491
5.530739 -2.234372 2.880828
5.574158 -2.253024 3.300470
5.562910 -2.248192 3.197275
5.526990 -2.232713 3.687645
5.499391 -2.220813 4.180413
5.389642 -2.173577 4.692326
5.110815 -2.053645 4.697095
4.860157 -1.945818 4.880180
4.694178 -1.874387 5.547929
4.674697 -1.865985 5.942379
5.018790 -2.013972 6.250116
5.188492 -2.086971 6.160144
5.228302 -2.104084 6.350013
5.321973 -2.144350 6.774413
6.568860 -2.174151 0.064795
5.258695 -1.712322 2.544794
5.568269 -1.821397 2.823510
5.819273 -1.909816 3.395549
5.914454 -1.943357 3.396672
5.815677 -1.908551 3.364839
5.720454 -1.874954 4.100677
5.535881 -1.809910 4.144185
5.339159 -1.740553 4.733978
5.092181 -1.653507 4.977321
4.950492 -1.603560 5.266081
4.614924 -1.485295 5.533994
4.932270 -1.597089 6.167370
5.156727 -1.676177 6.313872
5.316589 -1.732494 6.598327
5.584641 -1.826936 6.913599
5.362683 -1.748726 6.798078
5.358182 -1.747097 7.566817
4.046668 -0.997897 1.740934
5.479985 -1.400125 2.807746
5.798603 -1.489536 3.082231
6.068827 -1.565390 2.888912
6.121198 -1.580063 3.360941
6.086392 -1.570267 3.846034
5.861196 -1.507036 4.307291
5.700367 -1.461884 4.526477
5.466263 -1.396159 4.883031
5.236677 -1.331701 5.245690
4.933588 -1.246637 5.194559
4.908265 -1.239508 5.587154
5.052332 -1.279930 5.820095
5.198272 -1.320878 6.050749
5.533602 -1.414960 6.668522
5.672071 -1.453815 6.832887
5.517295 -1.410364 7.012148
5.254006 -1.336438 7.540970
4.076948 -0.724728 1.178110
4.097084 -0.728953 1.625261
4.221696 -0.755227 2.065085
5.550119 -1.035531 2.705242
5.854721 -1.099806 2.804267
6.159638 -1.164148 2.900365
6.205982 -1.173906 3.313873
6.210696 -1.174859 4.084882
6.027612 -1.136217 4.184214
5.559489 -1.037386 4.959571
5.101626 -0.940750 5.180075
5.003240 -0.919959 5.709924
5.125700 -0.945796 5.821496
5.338967 -0.990773 6.347939
5.450369 -1.014280 6.396375
5.674337 -1.061516 6.913838
5.703556 -1.067655 7.419312
5.407781 -1.005235 7.451019
4.020103 -0.443703 1.270814
4.026018 -0.444546 1.407661
4.233474 -0.474352 1.596195
5.571385 -0.666604 2.317190
6.008993 -0.729475 2.759735
6.335723 -0.776419 3.027313
6.363407 -0.780385 3.267321
6.219815 -0.759724 3.705495
6.041247 -0.734051 3.859790
5.156230 -0.606781 5.202516
5.021121 -0.587343 5.551923
5.218848 -0.615736 6.022677
5.305356 -0.628173 5.953618
5.399764 -0.641719 6.381069
5.781611 -0.696560 7.110185
5.643694 -0.676746 6.970837
5.739057 -0.690412 7.712278
5.423590 -0.645073 7.687351
6.907776 -0.399853 0.138604
4.027370 -0.177602 0.887654
3.959134 -0.172296 1.655560
4.166116 -0.188257 1.783122
5.593702 -0.298368 2.199092
6.155147 -0.341645 2.867004
6.485542 -0.367119 3.133994
6.422954 -0.362274 3.444587
6.318461 -0.354215 3.413153
6.168418 -0.342619 3.797965
5.199660 -0.267804 5.281033
5.017550 -0.253749 5.390919
5.633198 -0.301127 7.586361
5.719818 -0.307793 7.892345
6.919115 0.050061 0.089763
3.941692 0.085668 1.224593
4.056336 0.084316 1.546425
5.720799 0.064492 2.431870
6.276687 0.057884 2.976929
6.509722 0.055117 3.252177
6.418926 0.056205 3.333422
6.328377 0.057291 3.415169
6.161847 0.059293 3.683459
5.205364 0.070797 5.277295
5.106837 0.072002 5.808201
5.943433 0.062087 7.174457
5.720407 0.064767 7.498867
6.902079 0.497632 0.281402
3.949744 0.341674 1.684866
4.153416 0.352441 1.748693
6.424686 0.472527 2.628762
6.515750 0.477383 3.438779
6.488986 0.475957 3.222804
6.392350 0.470891 4.003321
6.179624 0.459644 3.929515
5.215627 0.408775 5.411800
5.628601 0.430698 7.218116
5.664253 0.432609 7.727195
5.447901 0.421193 8.058576
3.916343 0.599623 1.638953
5.462977 0.783676 2.413639
6.182853 0.869336 2.654798
6.486181 0.905427 2.695555
6.451738 0.901361 3.288665
6.354752 0.889823 3.313773
6.244444 0.876735 3.983775
6.067206 0.855657 4.141774
6.777576 1.396851 -0.101657
4.046864 0.888489 1.239026
3.963361 0.872960 1.568819
3.985673 0.877135 1.956662
6.407055 1.328012 2.636450
6.321710 1.312129 2.773282
6.373158 1.321733 3.242387
6.320163 1.311886 3.610105
6.061222 1.263689 3.893934
5.622111 1.182110 7.205171
5.608320 1.179560 7.535996
5.516705 1.162504 7.574175
5.524173 1.163916 7.966191
4.171477 1.201936 1.185188
3.988810 1.155317 1.454737
4.323652 1.240842 2.190455
6.436381 1.780257 2.965659
6.425728 1.777532 2.864606
6.388692 1.768106 3.398368
6.219633 1.724957 3.606537
6.140326 1.704718 3.746047
5.886338 1.639892 4.030660
5.513974 1.544870 4.786725
7.456943 2.040951 5.645099
5.225297 1.471281 6.773123
5.330273 1.498104 7.199584
5.255088 1.478936 7.678093
6.617526 2.341305 0.197981
6.135811 2.181167 2.292458
6.265986 2.224496 2.691371
6.195196 2.200960 2.939162
6.181703 2.196510 3.643865
6.089042 2.165686 3.667848
5.815948 2.074840 3.776782
5.048734 1.819760 6.516309
5.219872 1.876734 7.238352
5.054103 1.821593 7.359781
6.563608 2.759630 -0.121013
6.323659 2.664063 1.573944
6.082567 2.567977 2.172553
5.974856 2.525022 1.965901
6.093324 2.572274 2.312649
6.020931 2.543426 2.562217
6.084434 2.568780 3.200701
6.020010 2.543109 3.453673
5.817216 2.462250 3.320598
5.683570 2.408993 3.762809
5.144484 2.194146 5.171630
6.655159 2.796461 5.643210
5.024461 2.146370 6.492207
4.976776 2.127371 6.707293
5.091233 2.173032 7.194968
4.914931 2.102746 7.259652
6.372353 3.184425 0.568928
6.194849 3.099826 0.726166
5.938330 2.977582 1.201044
5.855847 2.938276 1.389950
5.864731 2.942522 1.574524
5.806500 2.914797 2.107515
5.725729 2.876305 2.243677
5.740074 2.883154 2.429251
5.681219 2.855121 2.796235
5.679048 2.854135 3.624327
5.605551 2.819111 3.766797
5.443405 2.741832 3.924450
5.047876 2.553392 5.501529
5.571090 2.802777 5.340112
4.746443 2.409786 6.763260
4.789177 2.430167 6.954079
4.846168 2.457369 7.585695
6.302086 3.724885 0.354558
6.133808 3.629519 0.728181
5.717173 3.393382 1.320352
5.659839 3.360918 1.906386
5.563886 3.306518 1.755161
5.491425 3.265457 2.003457
5.433814 3.232826 2.425589
5.473922 3.255591 2.897149
5.428879 3.230083 3.322839
5.369518 3.196450 3.578337
5.319280 3.167991 3.891456
5.069773 3.026563 4.004057
4.752600 2.846825 4.881826
4.715885 2.826033 5.207207
5.194371 3.097280 5.416275
4.499413 2.703427 6.880810
4.638754 2.782427 7.106308
4.415891 2.656109 7.313062
6.132691 4.175853 -0.008556
5.321892 3.644819 1.365486
5.251899 3.598989 1.668673
5.195625 3.562156 2.146230
5.120786 3.513141 2.281198
5.055221 3.470209 2.532673
5.090050 3.493050 2.948829
5.078616 3.485606 3.665420
4.927576 3.386675 3.820504
4.687427 3.229371 3.933011
4.507422 3.111531 5.095989
4.566176 3.150042 5.463073
4.804678 3.306268 5.358356
4.272328 2.957630 6.663671
5.774035 4.508721 0.670596
5.090073 3.994379 1.723296
4.957457 3.894670 2.207683
4.715573 3.712746 2.186136
4.644263 3.659122 2.323054
4.838652 3.805354 2.781092
4.785050 3.765060 3.093231
4.740226 3.731373 3.465254
4.706164 3.705783 3.897453
4.450533 3.513513 3.776213
4.232386 3.349500 4.642636
4.170893 3.303299 5.345047
4.417414 3.488709 5.359911
4.662622 3.673166 5.859170
4.420325 3.490934 5.876329
4.173333 3.305199 6.330824
4.188599 3.316715 6.843021
4.263745 3.373257 7.212229
5.160406 4.612684 0.425509
5.015776 4.488340 0.861281
4.811185 4.312452 1.568167
4.595358 4.126869 1.828746
4.139799 3.735111 1.835347
4.044051 3.652836 2.751853
4.330210 3.898901 2.492167
4.423282 3.978955 2.729046
4.397614 3.956925 3.335201
4.369876 3.933106 3.827529
4.139776 3.735231 3.823179
4.040031 3.649532 4.914993
3.934028 3.558398 5.261502
4.230356 3.813256 5.689584
4.288349 3.863118 5.565166
4.227998 3.811260 6.148104
4.018531 3.631139 6.286519
3.919014 3.545611 7.023469
3.909954 3.537817 6.976170
4.845695 4.941326 -0.186195
4.703196 4.801523 0.403607
4.568745 4.669615 0.931918
3.698185 3.815370 2.357650
3.864067 3.978189 2.709810
4.007115 4.118574 2.704530
4.053526 4.164165 3.304083
4.027101 4.138269 3.799046
3.869995 3.984078 3.663399
3.803936 3.919306 4.416129
3.573892 3.693536 4.296405
3.475571 3.597075 4.701530
3.607856 3.726933 5.177503
3.844040 3.958730 5.313028
3.949072 4.061823 5.542194
3.924770 4.037998 5.869429
3.892583 4.006463 6.574600
3.728187 3.845152 6.895544
3.682709 3.800532 7.051885
4.511356 5.247488 -0.117645
4.393821 5.116068 1.219050
3.440936 4.049837 2.366260
3.448467 4.058274 2.498173
3.634574 4.266599 3.260662
3.786953 4.437135 3.483810
3.681797 4.319487 3.815711
3.534937 4.155133 3.678102
3.460958 4.072398 4.313116
3.258567 3.845913 4.311765
3.225986 3.809479 4.641501
3.363578 3.963499 5.237573
3.599797 4.227859 5.490525
3.674704 4.311688 5.542423
3.712890 4.354479 6.281127
3.566979 4.191192 6.220418
3.478418 4.092148 6.955241
3.467184 4.079603 7.290328
4.035307 5.372934 -0.009799
3.276401 4.403126 2.024484
3.162246 4.257239 2.229404
3.207117 4.314658 3.015021
3.224313 4.336658 3.264481
3.278000 4.405267 3.146346
3.243834 4.361631 3.525490
3.162365 4.257548 4.039789
3.126976 4.212394 4.942479
3.168927 4.266044 5.312240
3.319925 4.459058 5.522815
3.450582 4.626100 6.043134
3.408266 4.572027 6.193991
3.177916 4.277623 6.353851
3.094098 4.170518 6.650116
3.030818 4.089674 7.069580
3.787407 5.792763 -0.206124
3.787239 5.792571 0.367035
2.746286 4.265323 1.804841
2.881066 4.463136 2.342291
2.893384 4.481233 2.593759
2.900391 4.491527 2.726038
2.873502 4.452120 3.226240
2.898867 4.489373 3.596839
2.861902 4.435160 3.861620
2.770669 4.301321 4.142478
2.697356 4.193793 4.607593
2.643016 4.114064 4.637192
2.778604 4.313084 5.416110
2.926790 4.530496 5.194190
3.063883 4.731718 5.897256
3.054758 4.718366 6.285377
2.970044 4.594088 6.521131
2.807416 4.355472 6.603593
2.757930 4.282907 7.084359
3.399118 6.026985 0.007850
2.460463 4.434971 1.785355
2.592245 4.658588 2.561900
2.601433 4.674193 2.754393
2.548642 4.584643 2.718390
2.514272 4.526376 3.041503
2.508849 4.517256 3.786162
2.472144 4.455015 3.993819
2.442792 4.405323 4.908988
2.538610 4.567906 5.382388
2.645339 4.748949 5.415369
2.695859 4.834695 5.900519
2.703596 4.847825 5.971128
2.576078 4.631548 6.225400
2.520633 4.537544 6.640532
2.460687 4.435897 6.999644
2.306069 4.861506 1.916700
2.271270 4.792628 2.234293
2.330333 4.909640 2.594589
2.283501 4.816888 2.556319
2.231047 4.713102 3.364957
2.193544 4.638848 3.508978
2.167147 4.586609 3.834247
2.138518 4.529944 4.101056
2.162857 4.578259 5.056537
2.257450 4.765595 5.092871
2.360318 4.969394 5.739309
2.328604 4.906606 5.890444
2.265083 4.780842 6.183019
2.196709 4.645460 6.418722
2.182740 4.617881 7.138064
2.015328 5.106684 2.046680
2.032709 5.147861 2.590731
2.010552 5.095525 3.026559
1.926278 4.896215 2.880943
1.884699 4.798000 3.693496
1.837687 4.686806 3.538006
1.824834 4.656482 4.045046
1.811858 4.625856 4.494047
1.939344 4.927629 6.649216
1.823850 4.654574 7.116749
1.778794 5.493135 1.801890
1.751449 5.414919 2.056173
1.740971 5.385059 2.841982
1.681967 5.216230 3.052926
1.621245 5.042474 3.206914
1.563178 4.876328 3.422754
1.546210 4.827830 3.808891
1.537023 4.801621 4.317406
1.683169 6.610805 0.443736
1.326116 5.314722 1.867688
1.417777 5.647636 2.447411
1.403743 5.596783 2.939399
1.331896 5.335981 3.222165
1.258875 5.070905 3.450421
1.236977 4.991427 3.597042
1.207044 4.882879 4.239831
1.200558 4.859297 4.073759
1.245748 6.704566 0.103827
1.158345 6.280788 1.972160
1.079770 5.899409 2.130102
1.065737 5.831391 2.500532
0.988947 5.458696 2.726883
0.916431 5.106801 3.138304
0.883723 4.948115 3.474994
0.878580 4.923304 4.043634
0.862927 4.847529 4.839121
0.925260 5.150257 5.417401
0.945587 5.248927 5.411568
0.771078 6.524739 1.719066
0.735189 6.266232 2.267331
0.548292 4.919446 3.667630
0.551825 4.944995 3.861844
0.533263 4.811362 4.326865
0.499440 4.567677 4.691451
0.533935 4.816459 4.975590
0.590241 5.222581 5.534983
0.592239 5.237013 5.607721
0.611878 5.378843 6.275391
0.592629 5.240357 6.979433
0.271523 5.643073 1.364616
0.287711 5.869212 1.834735
0.332021 6.487433 2.093045
0.357394 6.841778 2.701318
0.225726 5.006357 4.115408
0.223350 4.973989 5.151079
0.239172 5.194748 5.247622
0.240152 5.208474 5.320275
-0.063678 5.729662 0.841723
-0.067101 5.447756 1.337228
-0.066963 5.460356 1.587023
-0.050832 6.801831 2.159909
-0.047961 7.042066 2.602710
-0.045886 7.217265 3.270913
-0.074851 4.819935 4.828536
-0.073666 4.920765 5.386410
-0.070572 5.178778 5.661404
-0.071578 5.095694 5.754263
-0.072999 4.979569 6.169398
-0.466790 5.617000 1.043445
-0.467390 5.626874 1.291522
-0.461191 5.522672 1.190517
-0.474090 5.739381 1.546726
-0.519553 6.503492 2.433262
-0.551451 7.039865 2.791185
-0.565171 7.270464 3.058507
-0.578637 7.496833 3.266174
-0.430607 5.004822 4.828341
-0.442436 5.203371 5.362776
-0.443968 5.229023 5.494634
-0.816167 5.577687 1.063681
-0.806329 5.497094 1.494121
-0.808501 5.514710 1.802619
-0.973260 6.860959 2.475464
-1.010970 7.169121 2.571058
-1.038042 7.390275 2.783689
-1.057315 7.547575 3.276850
-1.070407 7.654553 3.330827
-1.077977 7.716228 3.776999
-1.079062 7.724791 4.455192
-0.742188 4.971411 4.846919
-1.433213 6.769537 0.214822
-1.189145 5.496663 0.569847
-1.193394 5.518620 1.289913
-1.198290 5.544013 1.774031
-1.220227 5.658345 2.015515
-1.430479 6.754725 2.187208
-1.494589 7.088924 2.618853
-1.540127 7.326291 2.995833
-1.577817 7.522840 2.985413
-1.630091 7.795091 4.228223
-1.616013 7.721809 3.755783
-1.543853 5.417586 0.951228
-1.543959 5.417993 0.964337
-1.546914 5.429307 1.271753
-1.577538 5.547157 1.690688
-1.683896 5.956684 2.025877
-1.846528 6.582888 2.557660
-1.948255 6.974646 2.587279
-2.010482 7.214200 3.018964
-2.042475 7.337362 3.237860
-2.098024 7.551258 3.387207
-2.120198 7.636527 3.992918
-1.403822 4.877022 7.009034
-1.893997 5.301036 0.813229
-1.930837 5.412279 1.292804
-1.966054 5.518661 1.534931
-2.001954 5.627104 1.775096
-2.111330 5.957518 2.400712
-2.225255 6.301679 3.010312
-2.249211 6.374111 2.786114
-2.220264 6.286621 2.865712
-2.177145 6.156229 3.412545
-2.278099 6.461275 3.555919
-2.420465 6.891428 3.900468
-1.763049 4.904478 5.819161
-1.788173 4.980338 6.189074
-1.758332 4.890157 6.222536
-1.715145 4.759601 6.518692
-2.200238 5.078538 0.995037
-2.202008 5.082890 1.126363
-2.209379 5.101025 1.551316
-2.250927 5.203575 1.733840
-2.409953 5.596137 2.068217
-2.458306 5.715462 2.417782
-1.981223 4.537445 3.677062
-1.916476 4.377565 3.896937
-1.865987 4.252849 4.363684
-1.769944 4.015694 4.667553
-1.847718 4.207618 5.276126
-1.987898 4.553723 5.094535
-2.087790 4.800221 5.927494
-2.171764 5.007529 6.015966
-2.177602 5.021932 6.086776
-2.151851 4.958273 6.677147
-2.565731 5.008255 0.733641
-2.490493 4.852354 1.461793
-2.443624 4.755313 1.300204
-2.583576 5.045091 1.710413
-2.728118 5.344368 2.168896
-2.728512 5.345183 2.180465
-2.700933 5.288017 2.607649
-2.589901 5.058023 3.059241
-2.439066 4.745599 3.531976
-2.270515 4.396530 3.654424
-2.148793 4.144433 3.826885
-2.172744 4.193908 4.853179
-2.254467 4.363092 5.332817
-2.414245 4.693938 5.647338
-2.463198 4.795310 5.698683
-2.491629 4.854150 6.007169
-2.503361 4.878377 6.574334
-3.470203 5.877469 -0.471530
-3.368935 5.698010 0.160200
-3.173971 5.352604 0.519183
-3.026615 5.091569 0.536552
-2.833407 4.749278 0.851454
-2.840954 4.762602 1.277738
-2.793443 4.678431 1.354131
-2.906742 4.879076 1.886774
-3.003359 5.050234 1.827670
-3.028201 5.094169 2.481424
-2.979793 5.008414 2.502898
-2.890581 4.850358 2.710069
-2.734480 4.573750 3.477095
-2.604180 4.342901 3.767564
-2.475385 4.114716 4.063191
-2.427455 4.029737 4.740928
-2.502754 4.163094 5.040667
-2.622342 4.374912 5.258831
-2.772406 4.640686 5.770134
-2.846678 4.772231 5.998807
-2.798232 4.686360 6.468830
-2.732019 4.569036 6.764888
-3.825839 5.523834 0.055535
-3.229368 4.625132 1.166460
-3.232431 4.629734 1.297269
-3.302461 4.735188 1.787705
-3.358111 4.819024 1.794393
-3.284368 4.707848 2.642231
-3.276087 4.695388 2.479317
-3.210549 4.596577 3.277468
-3.050590 4.355586 3.385442
-2.903498 4.133960 3.675489
-2.735512 3.880887 3.665712
-2.748940 3.900976 5.131565
-2.792584 3.966739 5.004937
-2.978751 4.247136 5.702322
-3.088480 4.412448 5.674316
-3.185677 4.558842 6.020946
-3.162474 4.523862 6.291109
-3.118888 4.458147 6.823165
-4.213823 5.364414 -0.246198
-3.432592 4.328963 0.618031
-3.596047 4.545458 2.117483
-3.599329 4.549803 2.188340
-3.545589 4.478568 2.325947
-3.492274 4.407896 2.464464
-3.412409 4.301991 3.146346
-3.301840 4.155438 3.300501
-3.136483 3.936268 3.528838
-2.967470 3.712259 3.700388
-2.932518 3.665850 4.680967
-3.050705 3.822437 5.222972
-3.205127 4.027068 5.499249
-3.339115 4.204637 5.592131
-3.452126 4.354376 5.998807
-3.468357 4.375836 6.564693
-3.387983 4.269290 6.861144
-3.748121 4.145752 2.028436
-3.813797 4.221958 2.033224
-3.758012 4.157212 2.229253
-3.724641 4.118445 2.781095
-3.607517 3.982524 2.991338
-3.435663 3.783085 3.335559
-3.316462 3.644759 3.492119
-3.159607 3.462714 3.968093
-2.972398 3.245478 4.083413
-2.899567 3.160920 4.681138
-3.099248 3.392570 5.274216
-3.278840 3.600972 5.110919
-3.524731 3.886260 5.488335
-3.605864 3.980393 5.600027
-3.664585 4.048494 6.027539
-3.691801 4.080023 6.654090
-3.493947 3.850443 6.676992
-3.257796 3.576376 7.292078
-4.735120 4.626598 -0.115437
-4.343260 4.227933 1.582785
-4.003893 3.882764 1.860238
-3.973920 3.852224 2.590038
-3.970990 3.849247 2.544332
-3.874767 3.751337 3.170528
-3.671678 3.544781 3.277880
-3.548714 3.419706 3.495895
-3.293537 3.160157 3.803552
-3.211312 3.076486 4.397715
-3.130483 2.994240 4.936389
-3.292930 3.159441 5.100248
-3.565496 3.436618 5.544948
-3.730276 3.604193 5.699517
-3.749607 3.623843 5.832707
-3.846941 3.722822 6.004284
-3.885691 3.762180 6.691526
-3.741189 3.615217 6.690077
-3.465720 3.335017 7.183112
-4.978503 4.209636 0.222742
-4.143946 3.474181 2.281439
-4.159925 3.488242 2.531568
-4.182083 3.507742 2.840753
-4.057761 3.398181 3.171984
-3.920137 3.276913 3.327354
-3.737811 3.116236 3.799685
-3.460648 2.872017 4.049996
-3.178262 2.623198 4.243502
-3.260895 2.695956 4.939479
-3.582416 2.979231 5.068378
-3.791109 3.163077 5.469712
-3.866650 3.229635 5.463570
-4.006079 3.352454 5.876374
-4.056799 3.397119 6.187677
-4.026654 3.370540 6.461378
-5.301639 3.964555 -0.098598
-4.428905 3.284075 2.351506
-4.441904 3.294195 2.541100
-4.382062 3.247530 2.799548
-4.256225 3.149410 3.189682
-4.095266 3.023941 3.164592
-3.889376 2.863422 3.513780
-3.615387 2.649813 3.944036
-3.283681 2.391202 4.523872
-3.300778 2.404519 4.661327
-3.774519 2.773774 5.205569
-3.976592 2.931275 5.484337
-4.084194 3.015142 5.658060
-4.058353 2.994976 5.991505
-3.993605 2.944497 6.085279
-4.070636 3.004515 6.519397
-5.567765 3.580019 0.144246
-4.560591 2.903371 2.265669
-4.591879 2.924360 2.694655
-4.492171 2.857400 2.479797
