-0.217913 1.134759 8.669502
-0.219579 1.140172 9.223510
-0.195266 2.065922 0.235910
-0.168530 1.797567 0.654149
-0.169154 1.795417 1.437920
-0.188881 1.965224 3.792206
-0.125239 1.288355 8.382749
-0.005866 2.074251 0.019478
-0.003933 1.784187 0.833127
-0.004297 1.753803 1.449846
-0.009114 1.983718 3.880981
-0.007983 1.361543 8.451915
0.142301 1.640600 1.264757
0.161631 1.916495 3.538060
0.072855 0.835109 6.779433
0.085825 1.010069 7.556354
0.114624 1.384362 8.234717
0.117322 1.427025 8.858568
0.089028 1.082930 9.932454
0.293619 1.650359 1.931457
0.287239 1.617136 2.592921
0.333392 1.892064 3.249213
0.227471 1.299559 7.797905
0.228341 1.309336 8.533437
0.225057 1.296384 9.527122
0.431979 1.548536 1.545580
0.454285 1.633934 2.269548
0.507604 1.834155 3.041688
0.527584 1.910369 3.621954
0.483125 1.750019 4.592236
0.342914 1.234724 5.305066
0.350299 1.264859 5.999882
0.359702 1.303474 6.945333
0.323573 1.173433 7.798522
0.352369 1.281954 8.311402
0.379063 1.383760 9.080724
0.495954 1.309988 0.310805
0.450164 1.188198 1.237695
0.521002 1.383321 1.972132
0.448984 1.189390 2.659897
0.561360 1.498139 3.569806
0.455715 1.224897 8.210961
0.496384 1.337888 8.944579
0.432397 1.165552 9.545936
0.693546 1.425041 1.596507
0.696968 1.433826 2.245904
0.774144 1.597529 3.012524
0.876494 1.814402 3.937431
0.779560 1.612309 4.393999
0.557447 1.149257 5.449451
0.417091 0.857047 6.277488
0.419847 0.864352 6.893394
0.532634 1.102848 7.712807
0.603297 1.252863 8.466356
0.581925 1.209425 9.018485
0.576115 0.939753 0.454931
0.570903 0.932505 1.172912
0.707200 1.163139 2.119372
0.598285 0.981647 2.709311
0.748176 1.234790 3.514396
0.689737 1.146592 8.235631
0.729670 1.214981 8.904516
0.620939 1.033813 9.501842
0.859007 1.155761 1.713249
0.864851 1.164929 2.355262
1.048203 1.417561 3.163468
1.109384 1.502403 3.733426
0.960908 1.300611 4.617409
0.770663 1.043931 6.789251
0.690464 0.936088 7.904851
0.769291 1.045164 8.508946
0.822502 1.119692 9.411844
0.871982 0.972590 1.518213
0.871394 0.973419 2.445325
1.047781 1.174920 3.009180
1.210362 1.361425 4.008729
1.079768 1.213992 4.677178
0.854787 0.961458 6.728944
0.766119 0.862255 7.738265
0.873083 0.985271 8.589323
0.895402 1.011740 9.261395
0.961146 0.890954 1.618681
0.836035 0.773561 2.172793
0.911251 0.846207 3.249451
1.167149 1.088764 3.781644
1.236966 1.155660 4.415986
1.042672 0.975599 6.806607
0.883691 0.826619 7.642306
1.015137 0.952191 8.582281
0.973598 0.913697 9.094738
0.639299 0.490954 0.692996
0.834486 0.647221 1.518509
0.899927 0.700156 2.192979
0.878004 0.683674 2.884719
1.112344 0.871061 3.709582
1.341220 1.053804 4.313600
1.061680 0.832646 5.070086
0.710388 0.554644 5.962814
0.716207 0.560150 6.609232
0.920455 0.723642 7.450806
0.986513 0.777026 8.095721
1.076736 0.850162 9.138887
0.814958 0.643058 9.847882
0.635771 0.396792 0.071835
0.754873 0.475638 1.138694
0.965773 0.613702 1.808115
1.049671 0.669347 2.641580
1.216658 0.778766 3.251835
1.299536 0.833638 3.999095
1.088937 0.697696 4.842436
0.744507 0.474683 5.684613
0.661241 0.421328 6.327071
0.838498 0.537779 7.212306
1.014947 0.653568 7.990308
0.964164 0.621206 8.522579
1.012395 0.653956 9.598783
0.940180 0.484674 1.558971
0.985009 0.509094 2.083366
0.889517 0.459602 3.056602
1.055931 0.548730 3.742372
1.369272 0.716081 4.646814
1.054951 0.550176 5.369755
0.376774 0.191070 5.976392
0.454698 0.233408 6.796628
0.959894 0.502492 7.647472
1.084725 0.569519 8.303260
1.201351 0.632466 9.185066
0.422998 0.160252 0.452940
0.648211 0.254413 1.267469
0.924393 0.369388 1.835771
1.044804 0.420263 2.731342
1.146968 0.463385 3.453031
1.114341 0.452390 5.625380
0.880023 0.356468 6.549755
0.982338 0.399958 7.536248
1.088615 0.444713 8.197881
1.140740 0.467206 8.991998
0.982919 0.402862 9.841459
0.599635 0.173999 -0.050666
0.658676 0.193711 0.940586
1.043221 0.315747 1.719627
1.024866 0.310600 2.288462
1.116309 0.340473 3.235894
1.146893 0.350778 3.833073
1.110429 0.340369 4.798263
1.165734 0.360319 7.053805
1.099878 0.340323 7.728176
1.111175 0.344601 8.370187
1.170980 0.364346 9.175126
0.297297 0.049010 0.351599
0.561852 0.106207 1.282003
0.993349 0.198800 2.159924
1.002698 0.201362 2.688125
1.238390 0.252268 3.470809
1.262466 0.258166 4.189965
0.858674 0.173221 4.928493
0.843247 0.170967 5.865110
0.963967 0.197561 6.742415
0.956819 0.196870 7.500537
1.060360 0.219411 8.006682
1.199554 0.249896 8.855224
0.995580 0.207468 9.669418
0.523561 0.050280 0.328884
0.658136 0.067446 0.941225
1.027836 0.113495 1.590398
0.894096 0.097907 2.350118
1.203009 0.136673 3.161005
1.649966 0.192562 4.147436
1.358715 0.157363 4.638845
0.879062 0.099481 5.528443
0.707429 0.079310 6.349836
0.893104 0.102898 7.104769
1.174617 0.138389 7.995605
1.200023 0.142355 8.784722
1.156544 0.137943 9.641639
0.798012 0.008496 1.314971
1.025352 0.015680 2.362437
1.419595 0.026837 2.961456
1.729488 0.036062 3.858119
1.486455 0.030353 4.583156
0.996077 0.017986 5.253189
0.608310 0.008471 6.030848
0.693102 0.011426 6.679298
1.015453 0.020838 7.439999
1.259170 0.028423 8.454232
1.081129 -0.079294 1.588234
0.999794 -0.073408 2.394428
1.486401 -0.102603 3.197416
1.908100 -0.127876 3.918667
1.614453 -0.108777 4.819873
1.024528 -0.071651 5.465871
0.662552 -0.048329 6.368442
0.772385 -0.054311 7.118052
1.135733 -0.075781 8.026385
1.178079 -0.077828 8.557288
1.143938 -0.074635 9.571020
0.468068 -0.087007 0.339618
0.561466 -0.100601 1.241012
1.151163 -0.191523 2.221745
1.177146 -0.194790 2.949412
1.492976 -0.243516 3.447271
1.690866 -0.273382 4.373225
1.159243 -0.189891 4.899113
0.982703 -0.161423 5.760693
0.960255 -0.156927 6.681594
0.926191 -0.150937 7.307831
1.139152 -0.183177 8.213393
1.263218 -0.201596 9.076591
1.011872 -0.161612 9.797270
1.511460 -0.394085 0.948147
1.279033 -0.334571 1.859752
1.233468 -0.322564 2.346442
1.602885 -0.414751 3.082618
0.956271 -0.246915 7.677857
1.047974 -0.269136 8.463079
1.083975 -0.277208 9.362921
0.938827 -0.345856 1.378758
1.374403 -0.499203 2.133583
1.678839 -0.606200 2.822068
1.908884 -0.686773 3.587398
1.691645 -0.609125 4.242325
1.205510 -0.436019 5.130631
0.823686 -0.299899 5.966777
0.713073 -0.259839 6.762287
0.840042 -0.303850 7.591494
1.112284 -0.399255 8.450858
1.508797 -0.709093 1.124602
1.313897 -0.618369 1.953471
1.155503 -0.544921 2.386665
1.532964 -0.717759 3.219713
1.992997 -0.928676 4.006638
1.614031 -0.753330 4.717568
0.985216 -0.462605 5.704901
0.290275 -0.141892 6.299272
0.395453 -0.189238 7.224829
0.882984 -0.412995 7.860422
0.916735 -0.427408 8.820953
0.772410 -0.360231 9.430450
1.330383 -0.785078 1.808369
1.275625 -0.752577 2.433652
1.616937 -0.949294 3.293274
0.522361 -0.311275 6.335892
0.545948 -0.323893 7.187108
0.877243 -0.515085 7.819680
0.879682 -0.515490 8.637337
0.856689 -0.501258 9.373352
1.269690 -0.911555 1.667454
1.322221 -0.947730 2.363891
1.559315 -1.114409 2.901274
1.736593 -1.238302 3.864904
1.524312 -1.087682 4.444328
1.015777 -0.727609 5.258329
0.625678 -0.451113 6.098746
0.585412 -0.421369 7.107016
0.714778 -0.511991 7.647323
0.822344 -0.586688 8.596829
0.845934 -0.602357 9.350980
1.097201 -0.949966 1.391880
1.140083 -0.985533 2.040729
0.986874 -0.854178 2.778674
0.572269 -0.496343 6.468042
0.581411 -0.502880 7.351827
0.695928 -0.599277 8.074171
0.751028 -0.644776 9.051272
0.624749 -0.536425 9.719904
1.236851 -1.288994 1.627353
1.221151 -1.271485 2.524472
1.533309 -1.590984 3.381363
1.568333 -1.626229 3.871083
1.401189 -1.453035 4.796924
0.551737 -0.575341 7.866146
0.590306 -0.613722 8.687236
0.596309 -0.618558 9.558672
1.111019 -1.384674 1.359568
1.017792 -1.269189 1.944085
0.962473 -1.199681 2.871485
1.232126 -1.529465 3.693540
1.398643 -1.733029 4.251642
1.251854 -1.551211 5.162034
0.995210 -1.234916 5.811965
0.519634 -0.649503 6.602020
0.456382 -0.570020 7.667335
0.624212 -0.774868 8.419024
0.645691 -0.800449 8.891831
0.461031 -0.571998 9.873949
0.929266 -1.394037 1.363351
0.947423 -1.419564 2.029512
1.102546 -1.647060 2.776910
1.326888 -1.977061 3.335625
1.332888 -1.984378 4.143237
1.259725 -1.874640 5.074102
0.458275 -0.686140 8.115767
0.544553 -0.811777 9.000595
0.493723 -0.735698 9.562616
0.890163 -1.646375 1.256857
0.893689 -1.651254 1.950460
0.872332 -1.611309 2.440020
0.830011 -1.531987 3.485661
0.954280 -1.756431 4.238764
1.103662 -2.027219 4.698660
0.397872 -0.735575 8.049402
0.490022 -0.901402 8.881708
0.461047 -0.847382 9.466750
0.686548 -1.606492 1.271173
0.712476 -1.663780 2.083367
0.832337 -1.933346 4.066914
0.908397 -2.105382 4.959541
0.373532 -0.870481 8.089153
0.431993 -1.002554 8.833909
0.411516 -0.953148 9.750404
0.541860 -1.680341 1.071864
0.560509 -1.734082 1.854110
0.571938 -1.765545 2.766745
0.467064 -1.445816 3.517202
0.721792 -2.211112 5.014726
0.282315 -0.871609 8.064017
0.338953 -1.040251 8.844015
0.313115 -0.958740 9.834049
0.386819 -1.732261 1.349648
0.403394 -1.801765 1.833024
0.408159 -1.817549 2.855814
0.373284 -1.662908 3.609735
0.403764 -1.792384 4.147395
0.484822 -2.140437 4.793420
0.423646 -1.872010 5.515918
0.295089 -1.310569 6.480214
0.187443 -0.840985 7.175181
0.201658 -0.898245 8.084323
0.239812 -1.060055 8.813696
0.218945 -0.965625 9.665595
0.244652 -1.873708 1.038458
0.256144 -1.951499 1.767462
0.247554 -1.882067 2.664071
0.256987 -1.944727 3.414770
0.264504 -1.995411 3.917722
0.263790 -1.982927 4.849521
0.244994 -1.841696 5.444305
0.175015 -1.327589 6.160555
0.106591 -0.823726 7.012415
0.113660 -0.866538 8.105121
0.144381 -1.084816 8.737182
0.148739 -1.111511 9.373019
0.074673 -2.062615 1.013682
0.077434 -2.111464 1.651977
0.068910 -1.895508 2.276797
0.068874 -1.870147 3.253703
0.062004 -1.695498 3.781247
0.064386 -1.732374 4.542097
0.067717 -1.786963 5.485217
0.052003 -1.399264 6.222442
0.031372 -0.896116 6.957899
0.033067 -0.911624 7.926752
0.044763 -1.174001 8.420611
0.046937 -1.200879 9.384812
-0.114878 -2.054567 0.767642
-0.111770 -2.011737 1.696022
-0.104072 -1.868290 2.268483
-0.099776 -1.797364 3.010449
-0.097416 -1.765451 3.743710
-0.097314 -1.780525 4.535885
-0.091454 -1.677733 5.267801
-0.072390 -1.307191 5.979790
-0.048977 -0.855678 7.017957
-0.051075 -0.912766 7.693066
-0.068084 -1.269833 8.282212
-0.071932 -1.368359 9.235224
-0.247739 -1.641106 0.855952
-0.295338 -1.978207 1.351055
-0.274526 -1.837734 2.050791
-0.267491 -1.794722 2.879578
-0.256366 -1.723280 3.736353
-0.250903 -1.689528 4.333476
-0.233531 -1.572787 4.986003
-0.196723 -1.321383 5.831250
-0.159727 -1.067854 6.568464
-0.173263 -1.170725 7.637302
-0.212007 -1.447327 8.333854
-0.455367 -1.891847 1.234479
-0.492573 -2.052814 1.612666
-0.427982 -1.780230 2.420212
-0.401352 -1.670028 3.217502
-0.386272 -1.608499 3.856104
-0.364901 -1.520517 4.593772
-0.340237 -1.419158 5.483825
-0.278926 -1.160888 6.350830
-0.196416 -0.811686 7.169740
-0.267441 -1.118751 7.844323
-0.372600 -1.572020 8.550951
-0.346659 -1.464822 9.360800
-0.537908 -1.586591 0.258614
-0.621290 -1.842611 1.194986
-0.668556 -1.988160 1.849792
-0.576070 -1.709577 2.392152
-0.561662 -1.668418 3.133699
-0.542610 -1.613025 3.830948
-0.505573 -1.503244 4.570705
-0.471366 -1.402521 5.450119
-0.382581 -1.136481 6.381061
-0.261231 -0.770367 6.920800
-0.358570 -1.068285 7.733299
-0.533320 -1.601243 8.638999
-0.513164 -1.542120 9.224040
-0.685623 -1.528414 0.238721
-0.789085 -1.765861 0.829619
-0.850750 -1.908742 1.692470
-0.728137 -1.631355 2.502898
-0.690451 -1.547396 3.239596
-0.618435 -1.384540 3.739451
-0.611767 -1.371359 4.500101
-0.596739 -1.339383 5.360102
-0.506562 -1.136017 6.197237
-0.412677 -0.924189 7.030663
-0.521270 -1.173683 7.752835
-0.676217 -1.528523 8.349159
-0.695094 -1.574073 9.295080
-0.820865 -1.461669 0.377973
-0.946732 -1.691547 0.997503
-1.009255 -1.806814 1.792052
-0.856805 -1.531403 2.405385
-0.803299 -1.436143 3.254001
-0.743958 -1.329640 3.809374
-0.744094 -1.331386 4.487055
-0.714269 -1.279533 5.523844
-0.602180 -1.077740 6.292010
-0.585549 -1.048710 6.817491
-0.723282 -1.300826 7.751581
-0.865030 -1.559821 8.501074
-0.869841 -1.570060 9.181113
-1.007589 -1.460439 0.039625
-0.927023 -1.342955 0.727094
-1.009527 -1.466032 1.478594
-0.962663 -1.398494 2.299371
-0.909899 -1.322174 3.076885
-0.828828 -1.203813 3.694530
-0.841209 -1.223334 4.360152
-0.813269 -1.183640 5.149937
-0.853035 -1.243809 5.957647
-0.868642 -1.268514 6.848251
-0.856073 -1.251491 7.641343
-1.021135 -1.496312 8.400510
-0.868448 -1.035171 0.361427
-1.039058 -1.244293 1.245712
-1.174458 -1.410499 2.091827
-1.084970 -1.302494 2.629122
-0.983072 -1.179821 3.424948
-0.934525 -1.121958 4.150108
-0.943166 -1.133701 4.879572
-1.047467 -1.264417 7.127974
-1.315603 -1.592298 8.051872
-0.907556 -0.898391 0.432588
-1.146184 -1.140797 1.126167
-1.222258 -1.218959 1.928789
-1.134381 -1.131289 2.726072
-1.082676 -1.079948 3.355048
-1.070545 -1.069246 4.387162
-1.056453 -1.055953 5.019556
-1.412853 -1.419657 7.149482
-1.737935 -1.749407 7.778598
-1.007921 -0.826845 0.552863
-1.229841 -1.013673 1.176795
-1.338829 -1.106310 2.117486
-1.230151 -1.015966 2.636363
-1.161911 -0.959829 3.387320
-1.147700 -0.949331 4.400144
-1.107355 -0.916327 4.976310
-1.038347 -0.859574 5.747053
-0.745788 -0.615479 6.504853
-1.989967 -1.659964 7.883362
-0.810504 -0.545867 0.446388
-1.191663 -0.811291 1.111623
-1.488670 -1.018562 1.974347
-1.377410 -0.942164 2.611036
-1.268341 -0.867531 3.434933
-1.232038 -0.843350 4.217269
-1.186509 -0.812496 4.792793
-1.668837 -1.150159 7.011741
-2.140900 -1.478705 7.698118
-1.176664 -0.660312 0.010187
-1.248252 -0.702393 0.751198
-1.492578 -0.844068 1.700297
-1.459825 -0.826058 2.370584
-1.347820 -0.762423 3.001260
-1.262045 -0.714113 3.827177
-1.291294 -0.731840 4.563159
-1.186076 -0.672079 5.170423
-1.291348 -0.733605 5.971669
-1.683284 -0.960199 6.947083
-2.026474 -1.158116 7.399037
-2.319646 -1.327612 8.129685
-0.895461 -0.391846 0.466662
-1.344656 -0.596876 1.250896
-1.637405 -0.730502 1.766171
-1.543496 -0.688761 2.559528
-1.421750 -0.634406 3.382694
-1.336488 -0.596599 4.180123
-1.296363 -0.579147 4.846128
-1.179862 -0.527228 5.714589
-0.781066 -0.346699 6.294175
-2.228337 -1.006226 7.915899
-2.400363 -1.085217 8.619159
-2.010270 -0.908733 9.275487
-1.183223 -0.401088 0.060577
-1.168165 -0.396648 0.815788
-1.514336 -0.519009 1.376156
-1.629051 -0.560389 2.297785
-1.491059 -0.512705 3.039101
-1.397708 -0.480802 3.854574
-1.408001 -0.485269 4.603151
-1.303020 -0.448912 5.096747
-1.765290 -0.614037 7.371601
-2.169943 -0.757108 8.061439
-0.902595 -0.212151 0.447012
-1.429752 -0.345189 1.240894
-1.744956 -0.424858 1.825656
-1.625653 -0.395878 2.670723
-1.532087 -0.373434 3.592196
-1.464687 -0.357121 4.124480
-1.403430 -0.342554 4.842846
-1.269181 -0.309955 5.805033
-0.888453 -0.215259 6.493185
-1.187735 -0.291070 7.199540
-1.862833 -0.461299 8.084608
-2.082498 -0.517194 8.831608
-1.875255 -0.465767 9.314698
-1.870462 -0.277436 1.721720
-1.669902 -0.247220 2.529699
-1.570690 -0.232532 3.168739
-1.473782 -0.218370 3.964562
-1.435511 -0.213440 4.892889
-1.291949 -0.191994 5.640426
-1.180889 -0.175704 6.496214
-1.411157 -0.212159 7.201239
-1.823050 -0.276844 7.976754
-1.973016 -0.300569 8.420182
-1.912589 -0.292179 9.324574
-1.543323 -0.080942 1.228340
-1.910745 -0.103758 1.671115
-1.718321 -0.093090 2.637246
-1.673359 -0.091077 3.311453
-1.559964 -0.084850 3.936509
-1.493387 -0.081568 4.653134
-1.356953 -0.074165 5.488621
-1.317497 -0.072521 6.194827
-1.544555 -0.087224 7.032614
-1.756620 -0.100838 7.704493
-2.007556 -0.117048 8.593494
-1.986308 -0.116657 9.436711
-1.897368 0.069740 2.306456
-1.769111 0.065128 2.953004
-1.595838 0.059205 3.539903
-1.586184 0.057798 4.580676
-1.534124 0.055613 5.135999
-1.674460 0.057596 7.297146
-1.751861 0.059181 8.028038
-1.945718 0.064108 8.964315
-1.657167 0.054451 9.747033
-1.909069 0.246074 1.898360
-1.760516 0.227025 2.693132
-1.576164 0.203621 3.460150
-1.525491 0.196650 4.171597
-1.491262 0.191668 4.906246
-1.291074 0.166215 5.774889
-0.902944 0.117927 6.472875
-1.145831 0.146846 7.244195
-1.719664 0.216380 7.938684
-1.912961 0.239262 8.675952
-1.755833 0.219149 9.483706
-1.506553 0.343001 1.218358
-1.944429 0.438258 1.766230
-1.828268 0.411836 2.675808
-1.751240 0.394061 3.510616
-1.675856 0.376804 4.201382
-1.529011 0.343985 4.816461
-1.294000 0.291495 5.771006
-1.137239 0.256562 6.334905
-1.319838 0.295721 7.080477
-1.650567 0.367139 7.979186
-1.867472 0.413697 8.826032
-1.760806 0.389487 9.612619
-1.780979 0.575375 1.256857
-2.051353 0.659864 1.984643
-1.849585 0.595527 2.591272
-1.682215 0.542026 3.213079
-1.600588 0.515274 4.104823
-1.561505 0.502169 4.796679
-1.452432 0.466690 5.749935
-1.433577 0.460186 6.245678
-1.510558 0.483369 7.232142
-1.578927 0.504013 8.059574
-1.732998 0.551962 8.649760
-1.602208 0.509810 9.443000
-1.992768 0.839953 0.961757
-2.124907 0.894110 1.476564
-1.830286 0.770864 2.489068
-1.727243 0.727251 3.283382
-1.685252 0.708945 4.068165
-1.566135 0.658896 4.667617
-1.494603 0.628236 5.551252
-1.350478 0.567648 6.304128
-1.065583 0.448661 7.118358
-1.235225 0.518196 7.772640
-1.590106 0.664443 8.462818
-1.568520 0.654751 9.110077
-1.843966 0.993925 1.199798
-1.731890 0.933190 2.202995
-1.681878 0.905881 2.822220
-1.620111 0.872311 3.456280
-1.569355 0.844063 4.525968
-1.562212 0.839438 5.213782
-1.487798 0.797477 7.232580
-1.331833 0.713608 8.091991
-1.515623 0.810144 8.978761
-1.287302 0.687803 9.875251
-1.643384 1.085495 1.194149
-1.776879 1.171448 1.956562
-1.616735 1.066475 2.502401
-1.533012 1.010796 3.416671
-1.421700 0.937480 4.072199
-1.586999 1.043888 5.034309
-1.610257 1.058356 5.565314
-1.493898 0.979555 7.947846
-1.299777 0.852300 8.617983
-1.246721 0.816626 9.503220
-1.266151 1.021153 0.398435
-1.554731 1.248821 1.183453
-1.738593 1.393508 1.951090
-1.560458 1.251313 2.686269
-1.716329 1.371964 4.813030
-1.668243 1.332772 5.603607
-1.426066 1.138030 7.649305
-1.199608 0.957179 8.643696
-1.148034 0.915383 9.316992
-1.556544 1.502049 0.981385
-1.672379 1.611213 1.838153
-1.442606 1.391353 2.388778
-1.518420 1.462589 3.093673
-1.696487 1.630950 4.038764
-1.691831 1.625678 4.604278
-1.551501 1.490754 5.380025
-0.500582 0.485208 7.876585
-1.023906 0.983214 8.480768
-1.090338 1.045217 9.380785
-1.021421 1.197913 0.000043
-1.451494 1.690855 1.430710
-1.262555 1.472093 2.155155
-1.399542 1.628535 2.961758
-1.631108 1.893895 3.766386
-1.609442 1.867992 4.351621
-1.481516 1.719092 5.322353
-1.272894 1.475282 7.509768
-0.940600 1.091246 8.349414
-1.028959 1.451328 0.575265
-1.129205 1.589076 1.333203
-1.134477 1.595111 2.035231
-1.263778 1.772773 3.018559
-1.429641 2.002321 3.377291
-1.448202 2.026686 4.141403
-1.339737 1.874838 4.858370
-0.795753 1.114049 8.028757
-0.922754 1.288617 8.958880
-0.745102 1.040723 9.686769
-0.853897 1.472257 0.427400
-0.963915 1.657020 1.116779
-1.065278 1.827354 1.701112
-1.151807 1.968843 4.066773
-1.203561 2.054758 4.867770
-1.026625 1.754111 5.428110
-0.864567 1.474783 7.829408
-0.679316 1.159857 8.487638
-0.682248 1.163216 9.251359
-0.882468 1.904814 0.048945
-0.767574 1.659866 0.554640
-0.800573 1.727604 1.453687
-0.810847 1.747166 2.344371
-0.723370 1.560124 2.947138
-0.842610 1.811565 3.530733
-0.998987 2.140721 4.532770
-0.883819 1.894942 5.138019
-0.510200 1.094508 8.338982
-0.557696 1.193794 8.918076
-0.498021 1.064586 9.973519
-0.623046 1.741869 0.207794
-0.655725 1.828251 1.125871
-0.698593 1.943509 1.703494
-0.749545 2.080215 2.483310
-0.800713 2.218074 3.081932
-0.767491 2.124911 3.871083
-0.754716 2.087176 4.790104
-0.618401 1.713166 5.368784
-0.517223 1.429780 7.661322
-0.444478 1.227733 8.761543
-0.460209 1.268836 9.357855
-0.544304 2.079381 -0.137679
-0.464253 1.777251 0.940891
-0.474108 1.812401 1.306322
-0.557038 2.110304 3.859545
-0.300340 1.137383 8.314252
-0.280982 1.753418 0.317373
-0.289448 1.797805 1.238799
-0.321497 1.985778 1.627040
-0.338057 2.077052 2.737792
-0.383154 2.341791 3.247827
-0.340525 2.082852 4.116058
-0.241530 1.490344 4.763066
-0.193201 1.198177 5.530969
-0.189721 1.171543 6.455898
-0.171468 1.059038 7.082016
-0.178120 1.093405 7.885022
-0.197747 1.205312 8.622148
-0.207334 1.257502 9.366316
-0.155148 2.143747 -0.108226
-0.130676 1.824722 0.594260
-0.128997 1.793805 1.309057
-0.143607 1.947770 3.584976
-0.094884 1.266504 8.388304
0.037067 1.651930 0.457869
0.034688 1.547860 1.308194
0.036919 1.747130 1.857970
0.036064 1.746854 2.655283
0.039745 2.074135 3.543083
0.037146 1.932903 4.106372
0.025565 1.173075 4.889030
0.022073 1.103937 7.243724
0.023411 1.266658 8.146019
0.024307 1.385451 8.880343
0.021426 1.227387 9.485536
0.207346 1.832682 1.793423
0.202501 1.793287 2.402064
0.235701 2.114478 3.309846
0.229802 2.064096 3.811245
0.173667 1.545749 4.726660
0.133729 1.178345 5.514523
0.144135 1.284410 6.333847
0.140540 1.257583 7.024286
0.127995 1.145614 7.612106
0.146148 1.324549 8.437445
0.150072 1.368706 9.158945
0.313054 1.497019 1.468897
0.376046 1.823138 3.674056
0.264923 1.293289 8.155302
0.476462 1.548513 1.814594
0.489411 1.594685 2.601087
0.560624 1.834814 3.219573
0.379135 1.246336 7.959076
0.386772 1.274015 8.543477
0.391174 1.292504 9.560998
0.584519 1.415526 1.518828
0.707705 1.727220 3.723532
0.755663 1.848130 4.429069
0.567946 1.384485 5.039548
0.515437 1.256967 5.971756
0.507500 1.239482 6.740020
0.439885 1.074095 7.526378
0.515597 1.264165 8.356050
0.543752 1.044788 0.494304
0.508981 0.978268 1.435621
0.611271 1.181890 2.020423
0.525094 1.012852 2.588216
0.654284 1.270088 3.354205
0.884652 1.731424 5.835859
0.601687 1.173500 6.484560
0.493565 0.961859 7.384801
0.558004 1.090611 7.954806
0.613461 1.202089 8.729884
0.567841 1.114124 9.673009
0.613244 0.942766 0.151714
0.596271 0.918066 1.213333
0.715978 1.108408 1.809535
0.785076 1.219384 2.707277
0.983178 1.533510 3.258194
0.654754 1.023601 7.788450
0.740101 1.160347 8.734131
0.696694 1.092989 9.350101
0.802968 1.032455 1.558401
0.809183 1.041829 2.252856
0.908315 1.173383 3.127429
1.027339 1.330800 3.873356
1.037565 1.345255 4.465692
0.747546 0.966560 5.416506
0.363022 0.463386 6.065556
0.444819 0.572051 6.852872
0.720182 0.934767 7.743218
0.805694 1.048257 8.503310
0.842897 1.098256 9.189026
0.553573 0.579051 0.346722
0.600916 0.631787 1.281800
0.786966 0.834154 1.858571
0.773296 0.820757 2.751534
1.038473 1.109102 3.517202
1.213788 1.302468 5.760640
0.770002 0.822937 6.403955
0.702568 0.751245 7.248027
0.862041 0.925324 8.135960
0.905669 0.973708 8.861985
0.778907 0.837546 9.560929
0.980275 0.867204 1.578495
0.901870 0.797693 2.411695
0.868697 0.768845 3.155204
1.119754 0.996202 3.811972
1.220841 1.088447 4.564479
1.017169 0.908083 6.870475
0.899999 0.803677 7.748156
0.987960 0.883951 8.407322
1.034748 0.927298 9.209076
0.529833 0.376246 0.174339
0.625323 0.448583 1.213930
0.901121 0.654147 1.688157
0.984266 0.717159 2.613163
1.223466 0.896061 3.487233
1.321040 0.969472 4.170185
1.100397 0.806621 4.996450
0.784275 0.572525 5.598526
0.714276 0.521471 6.320493
0.795129 0.582487 7.025190
1.015048 0.747195 7.999837
1.033326 0.761812 8.777392
0.922072 0.679927 9.366873
0.524637 0.305583 0.747992
0.791637 0.469710 1.239449
0.930477 0.555794 2.084782
0.859910 0.513399 2.740598
1.116784 0.671809 3.619208
0.717660 0.431156 6.632548
0.973880 0.589204 7.541468
1.136263 0.689466 8.195471
0.479113 0.219621 0.431484
0.649683 0.304101 1.144122
0.927587 0.441339 1.966142
1.031901 0.493272 2.628584
1.138491 0.546524 3.460750
0.918468 0.441165 5.580932
0.672952 0.322104 6.690899
0.962344 0.464900 7.450380
1.120091 0.542953 8.045408
1.143683 0.555584 8.939921
1.035000 0.503301 9.785502
0.964922 0.354030 1.438561
1.022481 0.376810 2.185854
1.091120 0.404111 3.195551
1.151492 0.427880 3.870758
1.143477 0.425504 4.463259
1.151880 0.431257 6.697676
1.077434 0.403931 7.602016
1.128224 0.424109 8.328907
1.255647 0.473790 9.327746
0.342769 0.081837 0.454188
0.650819 0.169114 1.298988
0.973585 0.260433 2.068772
1.095430 0.295442 2.842391
1.197434 0.325036 3.747377
1.153250 0.313211 4.251699
0.859324 0.231898 5.216436
0.683275 0.183265 5.857855
0.803691 0.218004 6.748906
0.914729 0.249942 7.485204
1.067459 0.293451 8.117836
0.420546 0.065795 0.288654
0.614140 0.103700 1.310977
1.034302 0.184232 1.934458
0.998997 0.178220 2.576742
1.245508 0.225767 3.217073
1.420951 0.259973 4.010003
1.111891 0.202039 4.751018
0.696111 0.123856 5.523574
0.674673 0.120833 6.491077
0.977163 0.179233 7.328573
1.191824 0.220646 7.894379
1.233270 0.229583 8.869507
1.116046 0.208127 9.627770
0.832553 0.066138 1.619406
0.915655 0.074673 2.257162
1.360336 0.117705 3.208336
1.177441 0.105298 7.753299
1.289176 0.116768 8.605062
1.284546 0.117211 9.426639
0.303948 -0.012164 0.578663
0.518008 -0.010538 1.170851
1.064726 -0.006915 2.187338
1.246234 -0.005220 2.985668
1.627680 -0.002797 3.597245
1.664384 -0.001781 4.389157
1.152526 -0.003390 5.107565
0.982269 -0.003404 5.835495
0.928445 -0.002865 6.574404
0.915879 -0.002124 7.322814
1.111502 -0.000346 8.138039
1.242557 0.001217 9.032262
0.973731 0.000893 9.897568
0.928968 -0.094345 1.584577
1.194397 -0.116895 2.351241
1.626031 -0.154083 3.114610
0.329732 -0.036475 6.350843
0.495211 -0.050349 7.000717
1.189771 -0.110634 7.813776
1.226741 -0.113332 8.333466
1.221233 -0.111946 9.175126
1.253935 -0.240863 1.952802
1.078364 -0.208059 2.692778
1.362907 -0.259102 3.449015
1.694729 -0.318943 4.039613
1.306904 -0.247088 5.113676
0.941616 -0.179889 5.683411
0.759696 -0.145779 6.559796
0.828122 -0.157545 7.210439
1.133973 -0.212331 8.097022
1.178545 -0.219753 8.744421
1.017974 -0.189299 9.837761
1.575535 -0.454301 1.045736
1.339061 -0.387321 1.795796
1.248018 -0.361257 2.334794
1.642051 -0.470311 3.388691
2.053340 -0.584811 3.884548
1.726836 -0.492646 4.635041
0.994894 -0.287107 5.350909
0.317403 -0.096485 6.350843
0.453596 -0.133561 7.271494
0.955574 -0.273495 7.708257
1.072063 -0.305087 8.604536
1.102161 -0.312662 9.366873
1.476923 -0.577873 0.907603
1.191715 -0.468337 1.499145
1.416428 -0.553226 2.270517
1.698041 -0.659915 2.968748
1.846741 -0.715663 3.851392
1.573414 -0.610508 4.578141
1.193808 -0.462886 6.969332
0.921458 -0.357980 7.804576
1.016688 -0.393663 8.386775
1.130905 -0.436304 9.221464
1.115602 -0.562887 1.349242
1.351631 -0.678041 2.130657
1.643567 -0.820768 2.847885
1.859575 -0.926143 3.572596
1.649528 -0.821844 4.407779
1.154099 -0.577250 5.190948
0.786056 -0.395293 5.987105
0.662532 -0.333565 6.807557
0.885474 -0.442165 7.687991
0.981471 -0.488650 8.300429
1.001021 -0.497128 9.255828
1.187545 -0.743253 1.383777
1.607875 -0.998421 3.481182
0.832719 -0.519120 6.585957
0.666005 -0.415970 7.306238
0.888290 -0.551054 8.301262
0.963502 -0.596301 9.005613
0.752751 -0.466225 9.660329
1.292846 -0.977985 1.245712
1.233612 -0.933109 1.848297
1.230258 -0.929627 2.590071
1.576323 -1.186222 3.264454
1.734546 -1.302719 4.188866
1.244987 -0.937460 4.939505
0.829980 -0.627629 5.722651
0.506535 -0.385738 6.647182
0.494869 -0.376081 7.380840
0.706781 -0.532880 8.038836
0.820398 -0.616439 8.774675
0.796304 -0.597299 9.685861
1.206662 -1.090135 1.385163
1.429793 -1.285155 3.777684
1.566633 -1.405554 4.685437
1.217216 -1.093908 5.314805
0.806254 -0.727217 6.161510
0.584943 -0.529307 6.925368
0.571958 -0.516773 7.616508
0.694087 -0.624143 8.486384
0.776048 -0.695923 9.263928
1.146077 -1.247040 1.173530
1.117018 -1.214745 1.912885
1.200271 -1.302812 2.643532
1.512963 -1.636415 3.577332
1.508384 -1.630529 4.202657
1.355234 -1.465174 5.000788
0.557453 -0.605640 7.988338
0.623952 -0.675862 8.649886
0.590877 -0.639088 9.501631
0.968078 -1.273069 0.059836
0.944817 -1.241608 0.878302
1.086580 -1.423193 1.716596
1.024525 -1.342310 2.150243
0.859126 -1.127383 2.931406
1.412574 -1.839114 4.587937
0.456970 -0.600088 7.534943
0.567486 -0.741129 8.486384
0.611665 -0.797083 9.112061
0.898253 -1.436262 1.183471
0.934481 -1.491422 2.086253
1.038001 -1.652930 2.709742
1.230880 -1.954824 3.381722
1.277828 -2.027022 4.191991
1.188487 -1.884882 5.038433
0.482280 -0.768461 8.140428
0.507525 -0.806854 8.791960
0.484920 -0.769602 9.654044
0.892704 -1.769922 1.529553
0.806625 -1.599471 2.572308
0.675918 -1.343204 3.065336
1.041677 -2.053825 4.460883
0.932342 -1.838501 5.282915
0.722413 -1.426617 6.198929
0.395856 -0.787658 6.876610
0.351416 -0.698769 7.794829
0.408511 -0.808348 8.588958
0.417737 -0.824202 9.509565
0.566520 -1.444043 0.359368
0.604121 -1.534646 1.334436
0.675315 -1.709193 2.131438
0.723874 -1.828545 2.569741
0.667093 -1.685063 3.428934
0.701529 -1.768788 4.059781
0.830172 -2.085682 4.976207
0.336269 -0.849840 8.170894
0.396967 -0.998598 8.870052
0.335267 -0.843420 9.546235
0.552348 -1.907448 0.897485
0.556401 -1.917587 1.835247
0.494860 -1.708189 2.383887
0.489494 -1.687443 3.094003
0.561574 -1.927388 3.868445
0.626447 -2.142840 4.698650
0.583892 -1.996794 5.410820
0.434393 -1.490625 6.073417
0.246446 -0.854240 6.917258
0.230222 -0.796363 7.774419
0.311677 -1.067718 8.594436
0.319523 -1.091006 9.433593
0.388594 -1.975575 0.995402
0.390562 -1.981020 1.784704
0.342078 -1.739966 2.304533
0.370531 -1.875322 3.140522
0.392547 -1.980319 3.737707
0.400508 -2.015408 4.491876
0.393992 -1.978897 5.329597
0.305126 -1.537709 6.163221
0.174113 -0.889327 7.008688
0.142452 -0.730502 7.611310
0.212494 -1.069373 8.610205
0.229673 -1.149727 9.370812
0.157628 -1.511588 1.209212
0.194657 -1.830410 2.180948
0.191199 -1.794347 2.750747
0.191779 -1.791594 3.580008
0.201223 -1.866660 4.483897
0.197098 -1.825756 4.942201
0.166613 -1.547630 5.785966
0.109937 -1.038584 6.512134
0.080383 -0.768550 7.372214
0.107219 -0.999210 8.119030
0.137555 -1.259348 9.026309
0.098772 -0.909568 9.674354
0.020042 -1.942812 1.145619
0.021522 -1.992123 1.746510
0.019480 -1.818316 2.600255
0.020447 -1.818836 3.498293
0.019810 -1.748110 4.026918
0.021383 -1.783993 4.929134
0.021078 -1.718321 5.689020
0.013994 -1.262571 6.307917
0.007650 -0.835078 7.169740
0.012007 -1.031515 8.123803
0.018268 -1.353971 8.856124
0.017451 -1.258749 9.606310
-0.166198 -2.103722 0.874667
-0.163659 -2.079680 1.613796
-0.144267 -1.824595 2.410307
-0.136166 -1.722512 3.046473
-0.134541 -1.710049 3.719046
-0.136202 -1.747225 4.691021
-0.126006 -1.614372 5.195289
-0.099291 -1.261209 6.172969
-0.062962 -0.771253 6.843844
-0.074440 -0.942054 7.718436
-0.106467 -1.392437 8.380572
-0.106495 -1.404648 9.182953
-0.388860 -2.220205 0.567523
-0.341532 -1.945021 1.342136
-0.317966 -1.810648 2.141340
-0.310685 -1.773118 3.010449
-0.301014 -1.719108 3.515445
-0.305281 -1.750588 4.486294
-0.276688 -1.585436 5.125546
-0.225519 -1.287965 5.969744
-0.190496 -1.086200 6.835681
-0.207255 -1.189701 7.506312
-0.253458 -1.467036 8.107392
-0.394760 -1.448474 0.369877
-0.487627 -1.805559 1.217284
-0.511731 -1.899548 1.747728
-0.467387 -1.734496 2.641708
-0.446350 -1.656747 3.197631
-0.415293 -1.541988 4.023547
-0.398691 -1.481882 4.759832
-0.368133 -1.368834 5.541329
-0.270579 -1.001374 6.471655
-0.235880 -0.872602 7.261881
-0.352175 -1.318453 8.008696
-0.444926 -1.674980 8.827805
-0.379704 -1.428916 9.356999
-0.606407 -1.614124 -0.059630
-0.652500 -1.742975 0.910543
-0.718810 -1.925799 1.486976
-0.631171 -1.689310 2.382240
-0.592709 -1.586003 2.929283
-0.546857 -1.463196 3.694441
-0.558464 -1.497913 4.670398
-0.559288 -1.502526 5.431685
-0.448010 -1.200372 5.963700
-0.344995 -0.921543 6.742415
-0.434528 -1.168947 7.697621
-0.588397 -1.591392 8.458546
-0.644147 -1.329840 0.480150
-0.729099 -1.511847 1.442921
-0.791527 -1.645006 1.913547
-0.746368 -1.551362 2.647180
-0.675625 -1.403662 3.392672
-0.652510 -1.356571 4.104495
-0.668415 -1.392488 5.022732
-0.590999 -1.230902 5.857423
-0.418562 -0.868272 6.630897
-0.492237 -1.026307 7.541468
-0.711730 -1.491881 8.154577
-0.772752 -1.622169 8.665476
-0.670126 -1.407699 9.666672
-0.771248 -1.286356 0.189978
-0.906736 -1.519301 1.190923
-0.979769 -1.644783 1.690878
-0.888297 -1.490618 2.486495
-0.824710 -1.384269 3.427891
-0.781906 -1.312720 4.081727
-0.801118 -1.347001 4.816461
-0.732641 -1.231730 5.477519
-0.458304 -0.766530 6.517812
-0.467615 -0.783781 7.175865
-0.804795 -1.359855 7.940786
-0.964248 -1.633019 8.652130
-0.910226 -1.542276 9.266589
-0.909512 -1.233149 0.749104
-1.035032 -1.407435 1.271173
-1.023776 -1.393178 1.978452
-0.961421 -1.308939 3.005056
-0.882210 -1.200397 3.469620
-0.875034 -1.192018 4.310154
-0.836442 -1.139962 4.989698
-0.935294 -1.278228 5.955548
-0.923172 -1.262878 6.719348
-0.890554 -1.219458 7.611370
-1.075589 -1.475710 8.011850
-0.844610 -0.955878 0.291810
-1.068742 -1.216645 1.195903
-1.199063 -1.368388 1.794668
-1.118088 -1.276104 2.649004
-1.034183 -1.180003 3.240745
-1.001424 -1.143727 4.234379
-1.012106 -1.156975 4.779801
-1.280737 -1.471815 7.272689
-1.483216 -1.706689 7.659434
-1.196378 -1.135645 0.129406
-1.187090 -1.127918 0.966082
-1.271550 -1.210246 1.489546
-1.230841 -1.172185 2.329192
-1.142456 -1.087912 3.049075
-1.016301 -0.966932 3.609385
-1.044931 -0.995803 4.436157
-0.998498 -0.951964 5.106774
-1.143676 -1.093387 5.945576
-1.408339 -1.350328 6.883142
-1.648154 -1.582847 7.531651
-1.939293 -1.864798 8.095082
-1.063530 -0.834369 0.411603
-1.232639 -0.970903 1.187587
-1.302242 -1.027872 2.072122
-1.237327 -0.976752 2.717969
-1.166980 -0.921385 3.439627
-1.180085 -0.932778 4.094502
-1.139035 -0.901250 5.086415
-1.625432 -1.293885 7.267685
-2.079894 -1.658746 7.847739
-0.968599 -0.623033 0.403846
-1.400999 -0.909576 1.224088
-1.621939 -1.055935 1.600823
-1.395380 -0.907564 2.551341
-1.331691 -0.866316 3.178709
-1.242529 -0.808361 3.894574
-1.197470 -0.779670 4.722705
-1.083783 -0.705456 5.385486
-0.881809 -0.573221 6.260802
-2.125106 -1.395904 7.660180
-2.339345 -1.538232 8.344436
-2.176437 -1.431664 9.120644
-1.071442 -0.557000 0.765982
-1.314197 -0.687596 1.560921
-1.466578 -0.769528 2.022365
-1.434885 -0.753744 2.965212
-1.341484 -0.704792 3.729460
-1.303720 -0.685267 4.260148
-1.252571 -0.658849 4.999715
-1.175973 -0.619089 5.945652
-0.954834 -0.501916 6.704302
-2.348506 -1.247943 8.183679
-0.953561 -0.386864 0.577366
-1.406518 -0.578395 1.239179
-1.669531 -0.690072 2.023904
-1.545685 -0.638652 2.660776
-1.423708 -0.588224 3.474869
-1.367564 -0.565557 4.320154
-1.305228 -0.540068 4.979679
-1.118637 -0.462291 5.675753
-0.606869 -0.247673 6.464683
-2.190045 -0.916143 7.941923
-0.886126 -0.264250 0.152628
-1.849356 -0.569092 1.590947
-1.618292 -0.497480 2.599297
-1.515280 -0.465655 3.138826
-1.410871 -0.433565 3.834573
-1.384456 -0.426194 4.679472
-1.248715 -0.384353 5.475928
-1.327400 -0.410054 6.306840
-1.547869 -0.480255 7.018428
-1.837228 -0.572308 7.876238
-2.127366 -0.664262 8.427830
-1.988461 -0.621284 9.097688
-1.571945 -0.329241 0.687742
-1.800792 -0.380299 1.714214
-1.713081 -0.361850 2.345832
-1.581932 -0.333854 2.915401
-1.462372 -0.308700 3.771990
-1.474455 -0.312398 4.743082
-1.334840 -0.282600 5.354545
-1.412122 -0.300528 6.328394
-1.538723 -0.328929 7.037860
-1.701933 -0.365174 7.615156
-2.040375 -0.439973 8.481831
-1.694361 -0.195251 2.009636
-1.606903 -0.185531 2.925363
-1.502313 -0.173562 3.699488
-1.497058 -0.173604 4.337203
-1.481252 -0.172579 5.182959
-1.672403 -0.198159 7.212693
-1.918751 -0.229313 8.143878
-2.046183 -0.245616 8.800310
-1.769725 -0.212566 9.533302
-1.830327 -0.047011 2.012598
-1.686174 -0.042891 2.509812
-1.545444 -0.039154 3.262927
-1.476653 -0.037804 4.077289
-1.497664 -0.039324 4.866269
-1.280998 -0.033164 5.644221
-0.935378 -0.023048 6.615001
-1.190063 -0.031853 7.164024
-1.797097 -0.052208 7.883027
-1.949746 -0.057853 8.555733
-1.873127 -0.056376 9.488117
-1.611872 0.105519 1.066390
-2.015100 0.127877 1.784704
-1.841793 0.117036 2.628160
-1.675176 0.106717 3.341292
-1.562085 0.099325 4.188709
-1.533350 0.096850 4.962831
-1.394529 0.088233 5.575140
-1.430612 0.089562 6.268327
-1.574057 0.097088 6.923448
-1.781704 0.108035 7.823537
-1.956468 0.117233 8.595215
-1.921202 0.114472 9.285065
-1.836549 0.281811 0.781889
-1.916795 0.292566 1.679826
-1.917230 0.292116 2.155155
-1.668205 0.254975 2.859685
-1.546527 0.236015 3.956463
-1.547267 0.235644 4.401148
-1.498603 0.227507 5.352850
-1.733398 0.259439 7.550483
-1.849044 0.275387 8.428806
-1.564137 0.399898 1.036501
-1.988443 0.503750 1.921291
-1.833811 0.464830 2.575090
-1.714043 0.434529 3.223000
-1.603726 0.406324 4.087727
-1.509114 0.382237 4.736640
-1.342752 0.340303 5.494946
-1.288708 0.325957 6.399901
-1.407605 0.354454 7.196417
-1.702476 0.426377 8.037963
-1.914835 0.478047 8.758932
-1.650895 0.412223 9.321152
-2.022644 0.706535 1.129377
-2.189642 0.763014 1.769758
-1.863776 0.650785 2.311523
-1.745081 0.609041 3.275748
-1.668966 0.582181 3.974554
-1.612955 0.562135 4.737190
-1.522497 0.530300 5.491476
-1.307795 0.456036 6.132228
-1.085761 0.379212 6.816496
-1.330007 0.461975 7.611717
-1.687922 0.583555 8.510991
-1.571819 0.543161 9.066409
-1.938589 0.886152 0.707078
-1.918728 0.876210 1.573354
-1.823238 0.832332 2.388778
-1.690887 0.772350 2.806333
-1.697340 0.774189 3.713637
-1.617554 0.737655 4.284912
-1.528218 0.696561 5.085257
-1.575492 0.715054 7.441268
-1.458848 0.661785 8.155536
-1.530031 0.692883 8.925093
-1.141200 0.517098 9.780015
-1.521704 0.874365 1.479621
-1.789633 1.024982 2.118145
-1.687293 0.966548 2.611019
-1.607842 0.920776 3.325243
-1.469033 0.841261 4.204258
-1.554799 0.888776 4.978715
-1.536461 0.877540 5.691203
-1.086472 0.622224 6.537852
-0.947172 0.542564 7.309178
-1.341713 0.764507 8.126523
-1.504378 0.855577 8.817874
-1.273928 0.724389 9.605853
-1.770449 1.240462 0.932315
-1.887203 1.320564 1.427688
-1.624020 1.137237 2.439755
-1.550845 1.086003 2.923056
-1.500537 1.049985 3.867346
-1.621425 1.132793 4.481446
-1.753074 1.222579 5.452487
-1.485130 1.034512 7.579949
-1.165048 0.812266 8.259293
-1.452440 1.229396 1.424034
-1.610519 1.360537 2.046394
-1.511762 1.277107 2.737456
-1.508503 1.273265 3.543041
-1.728896 1.456521 4.108752
-1.818947 1.530705 4.838506
-1.537704 1.294771 5.613029
-1.226324 1.033491 6.516496
-0.916731 0.773815 7.340171
-0.980939 0.826214 8.216411
-1.179907 0.991436 8.884996
-1.066654 0.895833 9.624884
-1.190975 1.217118 0.496975
-1.377657 1.403925 1.115215
-1.525715 1.551615 1.914587
-1.356955 1.381021 2.492525
-1.323202 1.346077 3.152581
-1.648451 1.671577 4.207601
-1.750637 1.773517 4.753632
-1.506944 1.527550 5.340754
-1.263445 1.279180 7.644555
-1.025155 1.037852 8.756794
-1.015712 1.027191 9.525798
-1.089599 1.337095 0.188704
-1.292668 1.580655 1.112868
-1.447018 1.766233 1.546075
-1.251651 1.529093 2.341117
-1.174994 1.435354 3.065689
-1.408328 1.715869 3.736628
-1.577420 1.918693 4.497551
-1.425921 1.734160 5.496225
-1.243384 1.510002 7.786650
-0.952737 1.158004 8.493848
-0.908252 1.103023 9.263086
-1.005561 1.492796 0.198192
-1.010964 1.499542 0.802811
-1.180398 1.745542 1.524211
-1.110034 1.641122 2.420029
-1.066404 1.576252 3.041688
-1.280038 1.886655 3.829265
-1.406406 2.069981 4.445810
-1.237595 1.822079 5.212107
-1.019861 1.500159 7.351855
-0.714067 1.051543 8.504525
-0.868414 1.580945 0.555034
-0.894462 1.625495 1.485408
-0.880312 1.599253 1.913547
-0.962960 1.744871 2.914972
-1.181130 2.133409 3.664556
-1.201602 2.168283 4.458643
-1.064631 1.921762 5.172893
-0.631988 1.141396 8.200914
-0.727924 1.311382 8.926797
-0.576835 1.039623 9.635322
-0.679857 1.587007 0.387364
-0.689269 1.606098 1.291027
-0.745247 1.731817 2.088927
-0.779787 1.809288 2.619075
-0.956656 2.210561 3.618390
-0.946520 2.185646 4.282714
-0.814515 1.882174 5.033294
-0.466684 1.079378 8.197881
-0.556313 1.282405 8.824359
-0.509960 1.174506 9.589945
-0.580891 1.757561 0.346379
-0.585841 1.769899 1.029291
-0.610938 1.841707 1.709449
-0.661653 1.988363 2.619821
-0.783244 2.345177 3.238737
-0.730230 2.185996 4.054170
-0.625862 1.875266 4.862722
-0.519357 1.558708 5.527574
-0.486157 1.458213 6.281407
-0.409476 1.229334 7.049751
-0.349290 1.048177 8.107734
-0.391972 1.172593 8.576192
-0.433089 1.290863 9.504548
-0.430931 1.876085 0.207328
-0.422830 1.838615 0.929682
-0.447240 1.938002 1.677484
-0.486390 2.099616 2.398446
-0.546296 2.348690 3.116604
-0.484989 2.087583 3.724785
-0.461799 1.985122 4.754234
-0.389534 1.676996 5.546115
-0.329687 1.414331 7.822003
-0.251557 1.082125 8.477706
-0.287667 1.229895 9.422786
-0.260146 1.931813 -0.039626
-0.230562 1.717454 0.774711
-0.252904 1.868390 1.603055
-0.254340 1.874059 2.187814
-0.242013 1.781301 2.980710
-0.246642 1.805998 4.018636
-0.159910 1.163157 8.304169
-0.174272 1.257855 9.142933
-0.095373 2.172216 -0.088542
-0.073629 1.727515 0.576080
-0.073768 1.708573 1.600931
-0.087798 1.941244 3.735587
-0.059281 1.279360 8.322434
0.080272 1.578272 0.648334
0.075010 1.468576 1.230891
0.080835 1.623806 1.924165
0.069251 1.367844 2.632596
0.081426 1.681423 3.651992
0.061331 1.323542 8.291319
0.067218 1.476494 8.836820
0.056183 1.240856 9.836764
0.248634 1.754962 1.856683
0.249416 1.765545 2.453313
0.285587 2.039399 3.107815
0.108310 0.749745 6.468042
0.117680 0.825958 7.296620
0.165533 1.184541 7.697776
0.183090 1.322700 8.669659
0.180800 1.312019 9.460609
0.345646 1.428252 1.200883
0.416421 1.743103 3.480872
0.309054 1.304196 8.245669
0.339654 1.438467 8.836820
0.273112 1.156756 9.732384
0.426925 1.260911 1.517171
0.582609 1.742854 3.686489
0.426421 1.282587 8.295852
0.463670 1.398266 8.922723
0.373316 1.125611 9.722304
0.515717 1.171145 0.613578
0.484345 1.099975 1.411550
0.549506 1.253318 1.786997
0.504613 1.151131 2.802580
0.629728 1.445748 3.592196
0.759597 1.750738 4.109200
0.588513 1.353420 5.072970
0.389344 0.889710 5.764535
0.196692 0.441741 6.642608
0.272695 0.621498 7.412048
0.484532 1.118088 7.924595
0.521992 1.207750 8.695491
0.463456 1.072982 9.457665
0.696273 1.249391 1.492980
0.728334 1.309980 2.322052
0.867271 1.566472 3.191038
0.926566 1.676263 3.708522
0.822181 1.486698 4.465692
0.559323 1.007309 5.457695
0.288875 0.513509 6.223248
0.330509 0.591235 6.872119
0.607134 1.100268 7.863786
0.616079 1.117634 8.302324
0.640637 1.164801 9.277549
0.651534 0.955574 0.716602
0.664115 0.976011 1.503256
0.917833 1.361391 3.485284
0.988418 1.472146 5.873709
0.650654 0.965624 6.615870
0.627482 0.932666 7.596962
0.735540 1.096249 8.155302
0.831891 1.243006 9.118684
0.583880 0.871324 9.790880
0.658841 0.790488 0.577366
0.684774 0.823598 1.254610
0.766334 0.925295 1.946728
0.730768 0.882666 2.658858
0.986513 1.199480 3.604632
1.155447 1.411543 5.875622
0.749019 0.911773 6.561053
0.688459 0.838774 7.531259
0.838809 1.025175 8.175388
0.861381 1.054201 8.886224
0.701095 0.858059 9.721213
0.552965 0.548855 0.581372
0.637343 0.636819 1.392672
0.844310 0.850287 1.886270
0.804240 0.810195 2.598308
1.077824 1.092624 3.414963
1.390616 1.415165 4.110578
1.120861 1.139352 5.045816
0.709868 0.717928 5.685963
0.624274 0.631185 6.487330
0.751450 0.763188 7.334251
0.881240 0.897941 8.221860
0.885088 0.902785 8.803312
0.816865 0.833967 9.651725
0.577483 0.478180 0.163628
0.665210 0.554961 1.108968
0.894050 0.752746 1.796798
0.864637 0.728350 2.436807
1.075390 0.910989 3.416611
1.259012 1.069832 4.067822
1.059984 0.899973 5.003099
0.979169 0.831398 5.664328
0.933920 0.793703 6.532156
0.784848 0.666323 7.121790
0.954025 0.813182 8.085659
0.915704 0.781179 8.764573
0.887594 0.758252 9.651725
0.559437 0.378429 0.266186
0.713410 0.488293 1.047962
0.992611 0.686291 1.532452
0.929268 0.642684 2.426712
1.041235 0.722892 3.237189
1.227645 0.855693 4.024541
1.140422 0.794808 4.615657
0.797626 0.553773 5.598526
0.641707 0.444481 6.306690
0.770157 0.536246 7.044648
1.009534 0.706537 7.869009
1.044666 0.732229 8.524637
1.056681 0.741775 9.329999
0.949171 0.532928 1.689307
0.959015 0.539427 2.357639
0.806613 0.452406 3.042485
1.007343 0.569201 3.908879
1.282101 0.728567 4.686300
1.191197 0.678898 6.910598
1.034409 0.589592 7.793619
1.092690 0.624138 8.560464
1.059829 0.605794 9.048287
0.463307 0.198113 0.565247
0.758903 0.335139 1.487110
0.946895 0.422360 2.138219
1.009264 0.451813 2.793809
1.179477 0.531242 3.772457
1.055192 0.476683 5.983717
0.773483 0.347961 6.693590
1.025686 0.465020 7.607059
1.088764 0.494693 8.172305
1.106328 0.503651 8.921510
0.725322 0.329363 9.716028
0.383413 0.121208 0.432976
0.607187 0.201154 1.054390
0.947237 0.322572 1.937085
1.024714 0.351014 2.826026
1.034918 0.355122 3.262678
1.115665 0.384688 4.120662
0.978479 0.336870 4.794160
0.680777 0.232556 5.772334
0.724841 0.248839 6.372038
0.988598 0.343336 7.339113
1.144466 0.399160 7.894379
1.181792 0.413471 8.859446
0.961252 0.336070 9.474645
1.053821 0.259738 1.618557
1.069366 0.264596 2.377845
1.034369 0.256477 3.224433
1.229348 0.307770 3.998918
1.244704 0.312369 4.567847
1.155251 0.291803 6.902684
1.069783 0.270754 7.864818
1.108439 0.281340 8.395901
1.232920 0.314377 9.152990
0.303505 0.035527 0.661227
0.562368 0.078020 1.159024
0.949097 0.141717 2.102002
0.863616 0.128509 2.699028
1.156593 0.176902 3.540736
1.476464 0.229487 4.227265
1.046653 0.160636 4.976286
0.930023 0.142726 5.894014
0.991266 0.153532 6.707553
0.987421 0.153750 7.485450
1.126649 0.176911 8.036477
1.277422 0.202306 8.923970
1.001876 0.158443 9.659291
1.095034 0.063217 1.861103
0.949113 0.053704 2.367236
1.404875 0.086209 3.396572
1.812569 0.114902 3.959192
1.464140 0.091608 4.626286
0.995438 0.060360 5.604924
0.684987 0.039602 6.196641
0.878645 0.053955 7.139957
1.147243 0.073340 7.960545
1.201650 0.077835 8.658072
1.203377 0.078857 9.501842
0.855638 -0.032322 1.526785
1.138374 -0.038161 2.172793
1.560686 -0.047189 2.849563
1.805815 -0.051760 3.870005
1.517226 -0.044285 4.629996
1.017618 -0.032109 5.229426
0.634303 -0.022396 6.037102
0.694640 -0.023093 6.689512
1.068457 -0.030777 7.576701
1.321634 -0.035633 8.503310
1.288198 -0.034320 9.010303
0.874787 -0.113122 1.546076
1.178558 -0.147371 2.149680
1.597087 -0.194737 2.815763
1.883833 -0.226911 3.530616
1.686423 -0.203455 4.253964
1.230180 -0.149850 5.362543
0.781650 -0.097590 6.043770
0.784960 -0.097159 6.798582
1.040996 -0.125710 7.601953
1.247523 -0.148656 8.327950
0.925506 -0.206710 1.319768
1.325967 -0.289705 2.049142
1.662967 -0.359150 3.028690
1.938707 -0.416187 3.631817
1.713833 -0.368420 4.287849
1.196263 -0.259264 5.077135
0.808047 -0.177057 5.974703
0.767282 -0.167662 6.768016
0.999066 -0.215256 7.596858
1.186739 -0.253935 8.136680
1.287991 -0.408482 1.938765
1.302422 -0.411827 2.915346
1.599000 -0.501951 3.823627
1.779077 -0.556673 4.375070
1.286438 -0.404314 5.244175
0.958650 -0.302940 5.821477
0.843481 -0.266664 6.613612
0.918365 -0.288623 7.556205
1.189177 -0.370908 8.393860
1.186128 -0.369378 8.925694
0.775617 -0.242277 9.777133
1.372702 -0.581218 1.080094
1.263335 -0.535137 1.857207
1.035087 -0.439854 2.711149
0.616895 -0.262485 6.693919
0.719578 -0.304223 7.285858
0.898160 -0.377203 7.977158
0.959944 -0.401737 8.835406
0.830076 -0.347298 9.515764
1.639604 -0.877466 0.851166
1.378326 -0.739021 1.687408
1.299512 -0.696785 2.333647
1.641875 -0.875907 3.134967
0.565746 -0.305916 6.393098
0.506594 -0.273894 7.145313
0.835428 -0.446163 7.728582
0.882693 -0.469897 8.663275
0.903921 -0.480061 9.494896
1.322011 -0.869384 1.536676
1.376518 -0.903665 2.282634
1.694860 -1.108501 3.001622
1.835700 -1.198325 3.947809
1.476960 -0.965651 4.588607
0.963094 -0.632426 5.457695
0.561459 -0.371807 6.272283
0.495308 -0.328163 6.972152
0.747520 -0.490224 7.718456
0.784145 -0.513042 8.389509
0.829170 -0.540905 9.363218
1.263202 -0.999352 1.615333
1.300290 -1.027111 2.441884
1.590495 -1.252326 2.991770
1.693796 -1.331620 3.832778
1.521604 -1.196583 4.546877
1.033494 -0.815652 5.197495
0.601795 -0.478120 6.235344
0.518286 -0.412161 6.927762
0.647086 -0.511329 7.754063
0.689389 -0.543303 8.467033
0.785573 -0.617071 9.296325
1.119272 -1.072384 1.358100
1.456209 -1.386560 3.658874
1.617467 -1.537613 4.290824
1.353575 -1.287615 5.169866
0.943786 -0.900260 5.949649
0.577647 -0.553867 6.849515
0.525727 -0.503750 7.657131
0.676121 -0.644603 8.262258
0.798310 -0.758251 9.292214
1.014131 -1.167070 1.248304
1.050201 -1.206828 1.905558
1.053885 -1.209627 2.755971
1.365539 -1.560658 3.781732
1.506569 -1.719382 4.323993
1.286809 -1.469800 4.875935
1.076665 -1.230245 5.957445
0.576274 -0.662745 6.719658
0.405495 -0.468226 7.498291
0.551102 -0.631910 8.176828
0.661555 -0.755570 9.004831
0.494357 -0.565177 9.738836
0.966115 -1.341397 1.433969
0.996612 -1.382076 1.979820
1.124971 -1.556285 2.622709
1.369627 -1.888752 3.616214
1.392043 -1.918351 4.185157
1.265949 -1.744820 4.878589
0.498599 -0.690566 8.120616
0.617961 -0.852262 8.885997
0.556246 -0.766475 9.698495
0.988714 -1.673510 1.778567
