-0.181590 -0.850307 1.877311
-0.181071 -0.840915 2.113970
-0.172730 -0.633492 2.757032
-0.160073 -0.305259 2.982176
-0.198144 -1.325077 4.118757
-0.184742 -0.987506 4.913588
-0.178052 -0.824263 5.602740
-0.173382 -0.702379 5.642763
-0.159185 -0.337181 6.060398
-0.144677 0.045789 5.944323
-0.016849 -4.951250 3.550941
-0.126795 -0.854500 1.459504
-0.126133 -0.869182 1.860129
-0.130637 -0.684032 2.445931
-0.133724 -0.561011 2.697568
-0.138472 -0.377832 2.848722
-0.116425 -1.174399 4.236007
-0.123593 -0.886078 4.921935
-0.123577 -0.879308 5.208246
-0.129744 -0.629536 5.865479
-0.133863 -0.478374 5.697339
-0.143239 -0.113494 6.120771
-0.153483 0.278883 6.340152
-0.165244 0.724806 6.413720
0.340136 -5.263287 3.172662
0.338560 -5.243004 3.621877
0.325999 -5.105908 3.878490
-0.111788 -0.401513 2.816269
-0.043999 -1.119666 4.374918
-0.061306 -0.930031 4.828935
-0.065962 -0.876956 5.230167
-0.086615 -0.650232 5.828540
-0.102608 -0.478910 5.717067
-0.130298 -0.179067 5.960529
-0.173960 0.294287 6.418481
-0.234588 0.947424 6.492706
0.664149 -5.116089 3.798080
0.629924 -4.898125 4.443024
0.642910 -4.979504 4.501832
0.639207 -4.956995 4.324549
0.018844 -1.057156 4.270312
-0.043540 -0.660716 5.247144
-0.025545 -0.772711 5.508967
-0.068089 -0.503295 5.956631
-0.095239 -0.333097 5.845131
-0.150461 0.014473 5.937778
-0.221720 0.464205 6.338526
0.922842 -4.754036 3.331814
0.981444 -5.012183 3.682765
0.909206 -4.688523 5.007134
0.965180 -4.937763 4.481057
0.060147 -0.934743 4.300714
0.013440 -0.725707 5.081428
0.002969 -0.678143 5.482676
-0.033431 -0.516640 5.638416
-0.083632 -0.293530 5.973298
-0.179160 0.130091 6.307947
-0.263960 0.504874 6.195540
0.435539 -2.007634 1.355964
0.306746 -1.569879 1.559538
0.237478 -1.334631 1.591919
1.147934 -4.416923 5.227020
0.164857 -1.082410 3.935333
0.120575 -0.931198 4.295301
0.024760 -0.604554 4.852646
-0.029387 -0.420863 4.792783
0.035156 -0.638752 5.306425
0.041144 -0.658534 5.532119
-0.044084 -0.368603 5.770641
0.710227 -2.379811 1.408676
0.645617 -2.202676 1.538313
0.459601 -1.693124 1.692178
0.294124 -1.240006 1.744178
1.486406 -4.498305 4.624413
-0.089746 -0.186403 3.103918
0.235559 -1.075342 3.921885
0.181633 -0.926995 4.281998
0.049503 -0.564470 4.684724
-0.016550 -0.382677 5.170051
0.064099 -0.602450 5.679741
0.062184 -0.597175 5.694817
-0.076541 -0.216328 6.231670
0.811663 -2.204544 1.646439
0.594195 -1.712863 1.584793
0.351097 -1.163020 1.644243
1.723978 -4.262535 4.683252
-0.069594 -0.209669 2.825847
0.207437 -0.833778 4.230264
0.139655 -0.678916 5.166056
0.138570 -0.675981 5.450796
0.019550 -0.405970 5.959051
-0.084369 -0.170754 6.085443
-0.196380 0.082870 6.275078
1.196941 -2.625437 1.712116
2.003173 -4.172048 4.393806
-0.012034 -0.298238 3.093971
0.144818 -0.599222 3.553857
0.274047 -0.847238 3.908087
0.187336 -0.679444 4.602331
0.151240 -0.609739 4.793743
0.148024 -0.603128 5.081071
0.191817 -0.686478 5.671873
0.145765 -0.597937 5.653252
-0.065906 -0.190270 6.038982
-0.184504 0.038015 6.169048
1.515544 -2.793959 1.803129
2.084452 -3.731409 4.207467
0.277661 -0.744193 4.130809
0.305422 -0.789585 4.515787
0.239996 -0.681005 4.822713
0.284593 -0.754313 5.146172
0.259873 -0.712913 5.547331
0.148383 -0.528571 5.551610
-0.062879 -0.178564 6.090555
-0.325583 0.256113 6.338044
1.745894 -2.767239 2.043262
1.873587 -2.950311 2.258331
1.970827 -3.089297 2.778756
2.069457 -3.229747 3.743304
2.154511 -3.351139 4.345732
2.127202 -3.312087 4.214973
0.404221 -0.838285 4.314924
0.505167 -0.983099 4.410759
0.431134 -0.876124 4.983807
0.413966 -0.851387 5.058611
0.345107 -0.752160 5.365009
0.133975 -0.448544 5.778809
1.946093 -2.680196 2.381444
2.159374 -2.947549 2.589602
2.324286 -3.153830 3.151701
2.467782 -3.333633 3.358129
2.259897 -3.072353 3.786685
0.461536 -0.815303 4.556073
0.600078 -0.988845 4.803089
0.609809 -1.000806 5.029242
0.420891 -0.763246 5.527186
0.344923 -0.667894 5.566407
0.143130 -0.414400 5.864738
-0.121921 -0.081869 5.864887
2.019306 -2.443221 2.226183
2.367067 -2.825562 2.531380
2.315764 -2.768322 3.309062
2.274809 -2.723138 3.427172
0.368481 -0.626840 2.159816
0.128067 -0.361800 2.658911
0.690569 -0.978921 4.446531
0.699273 -0.988269 4.672623
0.523142 -0.793809 5.319949
0.429783 -0.690715 5.682908
0.329354 -0.580384 5.511836
0.068459 -0.292831 5.987629
-0.245576 0.052835 6.110081
1.241538 -1.407591 1.264372
0.790332 -0.971099 1.786495
0.421211 -0.614310 1.904761
0.308348 -0.505169 1.991734
0.157943 -0.359219 2.639562
0.116786 -0.319113 2.993715
-0.183105 -0.029153 3.182148
0.654365 -0.836881 4.771582
0.799641 -0.977227 4.806575
0.530541 -0.716565 5.474301
0.459024 -0.647478 5.454296
0.272494 -0.467122 5.574275
-0.020742 -0.183260 6.112867
-0.258515 0.046533 6.150537
1.065741 -1.097321 1.272749
1.011639 -1.051443 1.400998
0.776655 -0.852539 1.548481
0.518880 -0.634301 1.758431
0.352986 -0.493792 1.961120
0.189840 -0.355406 2.387870
0.694916 -0.781162 4.047746
0.783763 -0.855649 4.794145
0.795922 -0.865733 5.019186
0.667586 -0.757039 5.169547
0.421842 -0.548667 5.728534
0.274211 -0.423835 5.674636
1.033507 -0.951579 1.087272
1.026231 -0.946177 1.103445
0.772327 -0.757831 1.471053
0.546810 -0.590552 1.786984
0.324295 -0.425491 2.107955
0.154067 -0.299062 2.536792
0.765414 -0.750362 4.236424
0.845010 -0.808854 4.771341
0.894900 -0.845706 4.883015
0.613215 -0.636579 5.494637
0.462538 -0.524811 5.708049
0.237639 -0.358103 5.890030
-0.171626 -0.054810 6.129909
1.023807 -0.838540 1.029026
0.910404 -0.765189 1.272303
0.698911 -0.628553 1.527209
0.438818 -0.460469 1.902684
0.357076 -0.407585 2.093757
0.170237 -0.285925 3.490287
0.649705 -0.594656 4.179616
0.868086 -0.734983 4.850070
0.824221 -0.706365 5.246848
0.684124 -0.615869 5.398435
0.471515 -0.478406 5.784784
0.237121 -0.327058 5.966417
1.004903 -0.732206 0.968267
0.913798 -0.681221 1.155647
0.742575 -0.585392 1.516612
0.393694 -0.390276 2.068118
0.412426 -0.400762 2.025796
0.151523 -0.254699 2.630822
0.762938 -0.594634 4.228813
0.810716 -0.620996 4.611182
0.741615 -0.582078 5.068531
0.516202 -0.455991 5.454211
0.314422 -0.343133 5.786617
0.164127 -0.259351 5.675022
-0.291070 -0.004892 6.248469
0.958932 -0.622790 0.943442
0.886641 -0.588077 1.295042
0.601772 -0.451888 1.889541
0.432823 -0.371273 2.035630
0.264533 -0.290971 2.183697
0.259086 -0.288195 2.421723
0.047157 -0.186840 2.912454
0.211525 -0.264919 3.233331
0.463389 -0.384289 4.082106
0.572514 -0.435922 4.565935
0.584273 -0.441147 5.065288
0.703986 -0.498237 5.002853
0.494266 -0.397853 5.600986
0.364648 -0.336016 5.699862
-0.011566 -0.156546 5.969568
-0.357444 0.008177 5.853101
0.907939 -0.524744 0.909582
0.746200 -0.459615 1.435763
0.677833 -0.431988 1.789024
0.475727 -0.350937 1.993106
0.440154 -0.336642 2.068576
0.212942 -0.245495 2.335220
0.059240 -0.183370 3.149908
-0.057807 -0.136491 3.185181
0.558644 -0.382537 4.155698
0.477859 -0.349858 4.620250
0.448460 -0.337635 5.238300
0.445915 -0.336405 5.525291
0.312232 -0.282820 5.624647
0.031658 -0.170329 5.869243
-0.276042 -0.047133 5.905774
0.950489 -0.467445 1.096063
0.851566 -0.435039 1.285894
0.579636 -0.345945 1.825174
0.401387 -0.287534 2.193681
0.197100 -0.220743 2.402698
0.563315 -0.339094 3.950895
0.460105 -0.305246 4.202151
0.221923 -0.227113 4.808308
0.369572 -0.275169 4.958871
0.394310 -0.282685 5.730146
0.088100 -0.182578 6.033409
0.810829 -0.363365 0.995203
0.879398 -0.380819 1.282063
0.720108 -0.339586 1.588809
0.593399 -0.306782 1.839071
0.240277 -0.215500 2.340301
0.207731 -0.206909 2.638453
0.036897 -0.162656 3.012688
0.110753 -0.181280 3.571037
0.471129 -0.273797 3.967077
0.479344 -0.275748 4.200091
0.146658 -0.189680 4.769279
0.184938 -0.199417 4.940576
0.338891 -0.238763 5.360237
0.295960 -0.227423 5.764648
0.066700 -0.168343 5.830638
-0.467370 -0.030563 6.195369
0.725732 -0.289936 0.575572
0.745272 -0.293082 1.367407
0.822411 -0.307630 1.432599
0.515517 -0.249308 1.811436
0.330743 -0.214095 2.182085
0.179155 -0.185199 2.495962
0.181696 -0.185360 2.955974
-0.166722 -0.119243 3.248977
0.463836 -0.237817 4.277725
0.299457 -0.206062 5.224907
0.282222 -0.202372 5.842593
0.100766 -0.167891 6.062209
-0.275655 -0.096760 5.945809
0.920045 -0.264007 1.076053
0.689705 -0.235214 1.719583
0.532742 -0.215835 1.807091
0.259574 -0.181837 2.353699
0.222536 -0.177226 2.429990
0.308058 -0.187559 2.711466
0.009768 -0.150730 2.879185
0.558392 -0.217422 4.088731
0.363285 -0.192718 5.092221
0.271558 -0.181068 5.615650
0.065347 -0.155496 5.893905
-0.293127 -0.111080 6.323882
0.450084 -0.175954 0.922130
0.666247 -0.188121 1.362395
0.653444 -0.187220 1.599867
0.584260 -0.183139 1.732367
0.396551 -0.172060 2.100160
0.300431 -0.166384 2.293434
0.063834 -0.152401 2.784595
-0.018793 -0.147350 3.201290
0.296529 -0.165184 3.719321
0.553321 -0.179714 4.130554
0.196320 -0.158337 5.277815
0.309915 -0.164709 5.542483
0.058869 -0.149956 5.939993
0.661833 -0.145557 0.970763
0.797141 -0.144591 1.140026
0.509255 -0.146031 1.680053
0.470748 -0.146222 1.754327
0.195107 -0.147580 2.301284
0.162094 -0.147584 2.598197
-0.139418 -0.149363 2.767301
0.517787 -0.144230 4.237866
0.511171 -0.144261 4.253440
0.245917 -0.145849 4.368387
0.070299 -0.146657 4.800048
0.182029 -0.145586 5.340855
0.073134 -0.145870 5.926489
0.016106 -0.146322 5.789267
-1.292259 -0.242904 -0.835430
0.606796 -0.106860 1.296700
0.682205 -0.101322 1.580511
0.374256 -0.122886 1.959818
0.336960 -0.125479 2.033796
0.182888 -0.136185 2.344871
0.122473 -0.140223 2.700618
0.066615 -0.143938 3.055997
0.379495 -0.121410 3.574316
0.459635 -0.115168 4.395617
0.320580 -0.124417 5.280959
0.253742 -0.128836 5.745082
0.017701 -0.145519 5.810965
0.532575 -0.078150 1.235470
0.488515 -0.083966 1.532416
0.447617 -0.089350 1.828937
0.380663 -0.098253 2.183927
0.226202 -0.119297 2.273248
-0.126144 -0.167089 2.782787
-0.278744 -0.187875 2.876894
0.494880 -0.081170 4.326553
0.123858 -0.131222 5.259795
0.166061 -0.125339 5.429714
0.094575 -0.134973 5.623819
-0.329297 -0.192469 6.233483
-0.616098 -0.231712 6.152935
-1.233509 -0.315871 6.445060
0.701943 -0.010208 0.925457
0.592990 -0.032052 1.339642
0.460547 -0.058627 1.812859
0.248327 -0.101438 2.242449
0.042818 -0.142883 2.675422
0.002482 -0.151178 2.529428
-0.127338 -0.177020 3.289814
0.324674 -0.084893 3.729016
0.576817 -0.033386 4.140156
0.248837 -0.099254 5.228256
0.181804 -0.112545 5.695211
0.062559 -0.136739 5.737030
-0.304355 -0.211165 5.893028
-0.791668 -0.309788 6.423836
-1.209460 -0.394645 6.441641
0.632600 0.016660 0.847236
0.639209 0.018742 1.251970
0.625334 0.015142 1.491182
0.382165 -0.050587 1.977785
0.230208 -0.091812 2.068237
-0.006281 -0.155877 2.339201
-0.463768 -0.279804 2.875051
0.587923 0.006834 4.115695
0.217582 -0.093132 5.050838
0.084879 -0.128731 5.698342
-0.003993 -0.152697 5.954608
-0.273074 -0.225675 6.146765
-0.696634 -0.340502 6.513461
0.393673 -0.023350 0.474517
0.561754 0.034789 0.978612
0.546346 0.029666 1.218298
0.471858 0.004480 1.797244
0.350546 -0.037037 2.049250
-0.315567 -0.265615 2.582021
0.717152 0.090420 4.047597
0.505157 0.017745 4.316692
0.272888 -0.061853 4.648621
-0.065701 -0.177976 5.008822
-0.045066 -0.170517 5.516159
0.147420 -0.104334 5.542395
-0.139196 -0.202674 5.789786
0.382180 -0.002825 0.498013
0.614804 0.094560 0.661663
0.670418 0.118192 1.173562
0.570916 0.076895 1.588045
0.560316 0.072640 1.826761
0.777409 0.164053 2.695625
0.667286 0.118903 3.903500
0.566778 0.077065 4.154105
0.400946 0.008045 4.582298
0.242580 -0.058055 4.739152
-0.000831 -0.159738 4.861284
0.082285 -0.124540 5.464233
0.142432 -0.099309 5.575885
-0.137149 -0.216022 5.824352
0.522627 0.092355 1.250129
0.479526 0.071371 1.770847
0.444704 0.054155 1.846400
1.301971 0.480528 3.294888
0.931695 0.296977 3.469891
0.784034 0.224003 3.833329
0.731456 0.198021 3.966022
0.507407 0.087125 4.293538
0.456887 0.062166 4.427765
0.031798 -0.148633 4.529765
-0.102255 -0.214635 5.183453
0.127405 -0.100358 5.639882
-0.105000 -0.215551 5.768395
0.383595 0.048723 0.286172
0.562383 0.152686 0.734306
0.588510 0.168277 1.304463
0.470628 0.100337 1.778191
0.745420 0.259958 2.255758
1.108769 0.471098 2.985612
1.149562 0.495212 3.587129
1.087331 0.459084 3.504519
0.843725 0.318210 3.882337
0.612515 0.184310 3.992852
0.497439 0.117867 4.302478
0.243042 -0.029203 4.753519
-0.024570 -0.184313 4.719116
0.031271 -0.151428 5.383928
0.149426 -0.082793 5.590308
0.532014 0.175378 0.776389
0.510844 0.161608 1.240279
0.521424 0.169011 1.643413
1.292621 0.685920 3.368103
1.057151 0.528830 3.740187
0.997129 0.488642 3.657551
0.765032 0.333812 4.036550
0.564521 0.199828 4.089645
0.434622 0.113302 4.458091
0.157738 -0.071759 4.478687
-0.064675 -0.220099 4.877267
0.163221 -0.067438 5.277468
-0.042654 -0.204497 5.952217
0.384462 0.106356 1.087182
0.393176 0.113390 1.491917
0.594826 0.268604 2.089112
1.332660 0.835751 3.369115
1.098641 0.656354 3.526110
0.958150 0.548698 3.671443
0.777398 0.410256 3.934300
0.618608 0.288616 4.142488
0.131072 -0.084805 4.842900
0.033609 -0.159305 5.158110
0.087849 -0.117361 5.544021
0.370295 0.125097 1.103303
0.520091 0.256160 1.155612
1.281371 0.923377 2.673883
1.440459 1.062949 3.147411
1.197255 0.850426 3.357054
0.975075 0.656244 3.515244
0.802407 0.505461 3.776743
0.467993 0.213441 4.294684
0.043763 -0.156819 5.158110
-0.012269 -0.205648 5.354476
-0.023263 -0.214697 5.979914
0.324529 0.111643 1.200597
0.399242 0.186103 1.428431
1.368949 1.151557 3.379532
1.274308 1.057337 3.195983
1.064325 0.848832 3.350994
0.798711 0.585217 3.683040
0.673622 0.461061 3.831290
0.495169 0.284050 4.156850
0.257370 0.048539 4.971135
0.091939 -0.115257 5.582780
0.100054 -0.113696 0.136720
0.413095 0.240881 1.141318
1.201166 1.132572 2.753701
1.377682 1.332298 3.116147
1.103118 1.022384 3.282200
0.793660 0.673186 3.571065
0.711843 0.581318 4.090408
0.602220 0.457388 3.969656
0.067520 -0.145845 4.596177
-0.047248 -0.275010 5.034832
0.062572 -0.150262 5.733569
0.425949 0.304473 1.053482
1.141831 1.228589 3.151692
1.208604 1.314572 3.156577
0.971094 1.008875 3.268518
0.772724 0.753694 3.486217
0.655521 0.603250 3.907183
0.532103 0.444569 4.116987
0.104974 -0.103772 5.586984
0.270310 0.131144 0.252908
0.416229 0.347154 0.810494
1.337863 1.709926 3.051662
0.758256 0.855849 4.071519
0.528986 0.517746 4.258834
0.407392 0.338310 4.257334
0.206267 0.042586 5.139917
0.139086 -0.056168 5.454440
0.346368 0.293663 0.770613
0.336641 0.277438 1.013324
1.404949 2.098750 3.460999
0.507112 0.571500 3.951491
0.317610 0.249851 4.574240
0.131298 -0.065943 5.513215
0.115030 -0.093896 5.314281
0.356024 0.374076 0.858831
0.251266 0.166645 1.289062
1.298537 2.250282 3.540115
0.405159 0.476865 4.278820
0.327348 0.322541 4.431670
0.188765 0.047209 4.391739
0.054257 -0.218828 5.141635
0.012887 -0.300194 5.674511
0.390541 0.535591 0.791595
0.327217 0.386808 0.877399
1.091416 2.188527 3.397383
0.986655 1.942302 3.489973
0.651185 1.154464 4.151409
0.479605 0.750497 3.907635
0.316178 0.366939 4.369221
0.159452 -0.001803 4.290619
0.049673 -0.257790 5.552074
0.389992 0.660313 0.601897
0.240955 0.235756 1.213292
0.914582 2.165326 3.592930
0.382812 0.647300 4.230664
0.311500 0.443544 4.226874
0.113963 -0.120028 4.624024
0.106672 -0.139612 5.226942
0.297945 0.513273 0.920763
0.259593 0.376373 1.394880
0.335376 0.650092 1.714128
0.776531 2.243983 3.774329
0.336276 0.659825 4.257925
0.265291 0.404490 4.370828
0.131782 -0.075879 4.530466
0.088230 -0.230966 5.214950
0.401500 1.156831 0.597141
0.363508 0.980733 0.914523
0.376776 1.044234 1.418601
0.435046 1.318358 2.170795
0.288694 0.643092 4.343420
0.122251 -0.131783 4.692871
0.056983 -0.434385 5.215158
0.046169 -0.484356 5.352229
0.350756 1.350639 1.941377
0.332028 1.225345 2.184163
0.370070 1.483861 2.551725
0.439844 1.957695 3.159245
0.471589 2.174155 3.624530
0.261190 0.756169 4.117432
0.237108 0.593032 3.995133
0.101270 -0.318318 5.199587
0.073257 -0.506375 5.423471
0.267255 1.412483 1.028832
0.287285 1.657288 1.409191
0.268288 1.433273 2.036216
0.252813 1.249512 2.393153
0.259606 1.333758 2.670016
0.293872 1.751373 3.176877
0.303496 1.869267 3.391481
0.245972 1.179691 3.931842
0.208814 0.731603 3.958983
0.182457 0.415494 4.188627
0.148064 0.004460 4.662485
0.103171 -0.537081 4.675819
0.094515 -0.637042 5.217108
0.113240 -0.411406 5.182943
0.180403 1.647875 1.453257
0.182838 1.783469 1.621652
0.180833 1.683510 1.805504
0.173067 1.290067 2.340196
0.167377 0.985295 2.277751
0.153966 0.331290 3.903377
0.161125 0.716190 4.021227
0.142669 -0.229240 5.007057
0.136698 -0.537622 5.256328
0.053667 1.842173 1.530322
0.055697 1.799405 1.816959
0.057648 1.760967 1.888338
0.074693 1.427915 2.307713
0.108738 0.755287 3.707479
0.115850 0.610992 4.288178
0.159174 -0.231432 5.040483
0.173870 -0.516317 5.228729
-0.087239 2.028537 1.398526
-0.075582 1.927985 1.580025
-0.074615 1.919644 1.595218
-0.066459 1.848033 1.936545
-0.031394 1.546644 2.297688
0.014063 1.158051 2.403961
0.082248 0.567336 3.899806
0.072365 0.651355 3.955910
0.222917 -0.641540 5.314343
-0.240495 2.145226 1.374151
-0.216730 2.014406 1.611555
-0.225419 2.061450 1.731809
-0.186382 1.847316 1.922615
-0.147860 1.635174 2.331106
-0.109052 1.423092 2.312803
0.034651 0.631054 4.010875
0.067147 0.451781 4.438791
0.152515 -0.015304 4.541920
0.254715 -0.574288 4.616284
0.272664 -0.674477 5.160135
-0.406485 2.231046 1.182734
-0.365303 2.065767 1.688026
-0.355766 2.027620 1.759438
-0.274164 1.701764 2.173554
-0.201132 1.410144 2.538596
-0.155518 1.228851 2.465109
0.036830 0.458708 4.172776
0.225951 -0.296208 5.029641
0.273169 -0.483939 4.975880
-0.576863 2.278918 1.238642
-0.461556 1.919384 1.914939
-0.495086 2.023475 1.923021
-0.375609 1.651332 2.448652
-0.372433 1.641911 2.250405
-0.182788 1.051813 2.812691
-0.000632 0.483319 4.115838
0.118510 0.112465 4.528954
0.219226 -0.199689 4.274471
0.315714 -0.499829 4.519949
-0.582435 1.879697 1.306147
-0.619224 1.971934 1.744326
-0.593560 1.906393 2.083995
-0.536883 1.762495 2.377302
-0.405331 1.429278 2.638652
-0.378916 1.363026 2.337375
-0.203578 0.919027 2.618889
0.849615 -1.742985 1.646636
0.015539 0.362421 3.909833
0.046060 0.284865 4.103594
0.223186 -0.163839 4.483017
0.329404 -0.432838 4.667969
-0.736042 1.906099 1.375619
-0.779302 1.996886 1.812067
-0.763037 1.962378 1.881840
-0.658454 1.740823 2.126412
-0.481650 1.365991 2.713340
-0.426206 1.249041 2.525264
-0.841903 1.826931 1.845667
-0.895016 1.922767 1.853616
-0.790534 1.733652 2.256594
-0.686539 1.546014 2.235069
-0.555494 1.309098 2.543245
-0.254793 0.765955 2.898538
-0.099808 0.485297 3.589232
-0.073644 0.437201 4.214595
0.075801 0.167572 4.173347
-0.926502 1.739207 1.921438
-0.921810 1.731788 1.937691
-0.790554 1.524510 2.185807
-0.614594 1.246522 2.607700
-0.453631 0.992521 2.763793
-0.168015 0.540698 3.916502
-0.185995 0.568827 4.090559
-0.043258 0.343616 4.205510
-0.914967 1.505667 1.678414
-1.064087 1.709391 2.052405
-0.971903 1.583090 2.133158
-0.845418 1.409697 2.327375
-0.652843 1.145555 2.751517
-0.472461 0.898664 2.693229
-0.216977 0.547817 3.616218
-0.160249 0.469610 4.084406
0.095479 0.119200 4.340710
-0.994334 1.426378 1.721031
-1.043640 1.485253 2.000157
-1.000084 1.432844 2.128508
-0.734528 1.113516 2.720190
-0.560342 0.904367 2.820321
-0.295164 0.584913 3.956366
-0.274069 0.559515 4.032099
-0.071279 0.315897 4.264837
-1.049717 1.322661 2.026159
-1.023202 1.294431 2.315307
-0.876005 1.139116 2.513591
-0.749273 1.005420 2.657662
-0.403314 0.640497 3.005846
-0.251110 0.479385 3.727625
-0.336782 0.569456 3.941322
-0.857847 0.998906 0.837614
-1.142012 1.261656 1.373486
-1.216239 1.330010 1.813251
-0.749099 0.896306 2.832849
-0.382951 0.556785 3.181884
-0.348793 0.524596 3.767310
-0.353749 0.528969 4.000608
-0.176205 0.364442 4.056396
-0.430597 0.598125 6.187419
-2.202565 1.981744 2.606397
-2.022637 1.835107 3.050292
0.074002 0.129779 4.378245
-0.900023 0.823257 2.063524
-0.990484 0.887440 2.284629
-0.820445 0.766098 2.699712
-0.559843 0.580299 3.133232
-0.444030 0.497633 3.439812
-0.405599 0.469994 3.788535
-0.391330 0.459598 4.078223
-0.120017 0.266528 4.093418
0.101995 0.108220 4.487473
-0.689038 0.669705 6.145703
-1.314988 0.988275 1.270425
-1.246847 0.945547 2.047270
-1.315536 0.987941 2.108601
-1.087216 0.846443 2.631642
-0.755960 0.638765 6.361881
-0.969886 0.684724 2.346075
-1.000374 0.700483 2.951246
-0.745797 0.564702 3.324825
-0.461699 0.413328 3.546551
-0.547824 0.458955 3.818145
-1.459261 0.822689 1.216253
-1.358874 0.776919 1.833272
-1.485255 0.833835 1.998344
-0.544726 0.407729 4.147726
-0.470707 0.374178 4.338187
-0.648456 0.453972 4.914079
-1.150122 0.680213 5.153680
-1.086537 0.651178 5.603778
-1.422280 0.694771 1.382480
-1.602711 0.762457 1.654609
-1.480616 0.716189 2.109479
-1.419668 0.693008 2.452184
-1.221774 0.618409 2.648718
-1.006003 0.536884 3.120605
-0.888924 0.492813 3.150752
-0.657189 0.405234 3.687049
-0.577821 0.375234 3.877539
-0.664729 0.407536 4.419653
-1.044921 0.550342 4.744078
-1.165284 0.595079 5.495416
-0.969888 0.521370 5.760988
-0.561693 0.367560 6.078258
-1.498532 0.600397 1.953363
-1.433637 0.580884 2.297908
-1.318857 0.546479 2.755372
-1.284065 0.536097 2.828677
-1.163380 0.500243 2.858080
-0.963074 0.440627 3.060216
-0.636132 0.343202 3.555468
-0.454783 0.289055 3.981502
-0.751562 0.376963 4.273709
-1.024538 0.457384 5.154300
-1.178210 0.502717 5.566599
-1.109357 0.482140 5.754481
-0.891260 0.417153 6.080841
-0.504599 0.302393 6.020049
-0.351702 0.256448 6.791233
-1.596041 0.516216 1.834864
-1.471916 0.487644 2.290639
-1.438505 0.479839 2.577302
-1.320679 0.452851 2.819148
-1.144181 0.412577 2.961509
-0.968377 0.372461 3.105802
-0.688700 0.308538 3.484114
-0.604584 0.289258 3.674736
-0.894666 0.354889 4.240077
-1.284904 0.443297 4.833399
-1.323890 0.451869 5.265038
-1.252158 0.435411 5.450965
-1.703334 0.435770 1.685187
-1.459062 0.394501 2.366906
-1.397505 0.383982 2.711571
-1.389238 0.382590 2.728379
-1.127552 0.338667 3.042786
-0.896098 0.299830 3.304305
-0.705400 0.267688 3.727006
-0.571142 0.245051 4.035751
-1.297609 0.365441 5.393666
-1.295910 0.364963 5.674107
-1.246875 0.356683 5.804770
-0.909757 0.300138 6.153815
-1.434418 0.295886 1.599441
-1.567868 0.309189 1.984132
-1.560200 0.308102 2.431508
-1.580195 0.310162 2.392378
-1.235102 0.274599 3.089274
-1.137113 0.264654 3.063348
-1.020558 0.252635 3.310243
-0.737328 0.223578 3.690681
-0.659580 0.215208 4.370275
-1.152713 0.264909 5.002428
-1.583275 0.308685 5.001321
-1.264841 0.275754 5.810999
-1.059687 0.254712 6.079509
-0.929638 0.241644 5.855414
-1.509824 0.205336 1.699782
-1.646718 0.210300 1.867312
-1.637311 0.209646 2.313990
-1.428334 0.201611 2.725283
-1.391968 0.200212 2.798545
-1.210408 0.193377 2.941878
-0.878929 0.180596 3.648278
-0.727978 0.174932 3.740180
-0.909230 0.181259 4.323271
-1.405206 0.199411 4.689334
-1.466709 0.201256 5.329335
-1.371132 0.197543 5.572505
-1.321017 0.195595 5.702751
-0.926566 0.180824 5.900492
-1.689229 0.101845 1.390568
-1.523240 0.106028 2.119748
-1.604984 0.103534 2.396333
-1.539523 0.105292 2.524398
-1.334369 0.110796 2.936272
-1.216889 0.113943 3.179766
-0.878714 0.123145 3.670643
-0.833139 0.124527 3.529302
-0.910527 0.121788 4.343353
-1.407375 0.107527 4.707933
-1.583800 0.102308 5.064633
-1.441213 0.106087 5.418843
-1.346863 0.108583 5.661232
-0.931069 0.120135 5.914923
-1.698584 -0.007373 1.379179
-1.503495 0.010172 2.164742
-1.701274 -0.008196 2.216453
-1.492011 0.010920 2.625846
-1.261876 0.031930 3.095510
-1.281748 0.030116 3.054098
-0.942515 0.061225 3.543344
-0.714405 0.082187 3.807911
-1.046132 0.051277 4.043479
-1.368804 0.020843 4.809882
-1.455672 0.012391 5.391867
-1.520031 0.006351 5.500531
-1.227158 0.033162 5.991415
-0.971752 0.056754 6.110562
-1.682967 -0.115739 1.607511
-1.786257 -0.132421 2.045521
-1.575760 -0.099323 2.453944
-1.371698 -0.067248 2.865701
-1.363945 -0.066030 2.881671
-1.024046 -0.012467 3.369103
-0.937771 0.001084 3.558227
-0.711446 0.036790 3.823377
-0.941365 0.000008 4.289664
-1.314429 -0.059784 5.204782
-1.516906 -0.092097 5.501413
-1.402934 -0.074231 5.800224
-1.221113 -0.045541 6.006806
-0.866434 0.010829 5.824704
-1.637974 -0.216148 1.463348
-1.852699 -0.264858 1.894983
-1.871882 -0.269306 2.069870
-1.465478 -0.178095 2.657424
-1.457371 -0.176279 2.673994
-1.179140 -0.113964 3.259460
-1.030530 -0.080523 3.348427
-0.893478 -0.049839 3.653699
-0.759873 -0.019933 3.960573
-0.964897 -0.066521 4.483270
-1.450814 -0.176322 4.846602
-1.387207 -0.162665 5.821934
-1.340206 -0.152159 5.950122
-1.761503 -0.363238 2.031558
-1.894387 -0.402474 2.197112
-1.858140 -0.391855 2.268760
-1.436259 -0.268121 2.912924
-1.210160 -0.201746 3.169951
-1.228786 -0.207200 3.129375
-0.877706 -0.104241 3.678326
-0.722287 -0.058749 4.043277
-0.955173 -0.127444 4.237373
-1.361761 -0.247515 4.773516
-1.533897 -0.298628 5.392127
-1.422286 -0.265985 5.689562
-1.244426 -0.213774 5.896472
-0.977950 -0.135454 6.071837
-2.056136 -0.594178 1.818092
-1.879264 -0.529658 2.167181
-1.761034 -0.486534 2.407144
-1.402641 -0.355672 2.941665
-1.336353 -0.331336 2.858604
-1.071905 -0.234918 3.447203
-0.904170 -0.173599 3.596126
-0.727496 -0.109204 4.017590
-0.955732 -0.192929 4.210794
-1.330785 -0.330712 4.804337
-1.416817 -0.362833 5.648884
-1.473302 -0.383407 5.494577
-1.138003 -0.261095 6.156644
-0.867876 -0.162107 6.070013
-1.993573 -0.719915 1.855986
-1.903318 -0.680075 2.038132
-1.922896 -0.689035 2.424823
-1.702969 -0.591811 2.673402
-1.372652 -0.445545 2.723956
-1.188190 -0.364152 3.136507
-0.854401 -0.216718 3.683750
-0.955434 -0.261467 3.682140
-0.755184 -0.173332 4.431452
-0.895738 -0.235698 4.581788
-1.250245 -0.393394 5.489636
-1.401680 -0.460771 5.895319
-1.357940 -0.441493 6.023116
-1.038047 -0.299868 6.105522
-2.097176 -0.926164 1.543232
-2.034796 -0.893702 1.668976
-1.997375 -0.874389 1.953107
-1.080502 -0.397081 3.568009
-0.809630 -0.256037 4.003051
-0.795860 -0.249071 4.290008
-0.888029 -0.297384 4.556975
-1.310266 -0.518087 4.974038
-1.390699 -0.560515 5.553476
-1.362108 -0.546093 6.204487
-1.237480 -0.481117 6.298957
-2.095856 -1.099568 1.411870
-1.903088 -0.982840 2.024284
-1.895439 -0.978203 2.040858
-0.906296 -0.378059 3.701273
-0.760708 -0.290039 4.337121
-0.869894 -0.356601 4.548180
-1.296022 -0.616007 4.910730
-1.315177 -0.628255 5.661925
-1.469028 -0.721879 5.750778
-1.266697 -0.599357 6.388789
-1.902384 -1.149846 1.668118
-1.892825 -1.143343 1.896201
-1.764334 -1.053617 2.186826
-3.387934 -2.192154 4.240123
-0.965736 -0.495721 3.712689
-0.854419 -0.418031 4.016205
-0.931997 -0.472798 4.553885
-1.245934 -0.693150 5.197721
-1.265301 -0.707115 5.682928
-1.284034 -0.720416 5.903714
-1.270323 -0.711093 6.236756
-1.973647 -1.390827 1.734430
-3.618832 -2.711888 4.382363
-0.881674 -0.517382 3.854360
-0.848386 -0.491000 4.198635
-0.852876 -0.495035 4.696213
-1.064384 -0.665155 5.358326
-1.204701 -0.777707 5.447378
-1.203951 -0.777350 5.725839
-1.061188 -0.663605 6.514996
-1.840400 -1.478518 1.221359
-3.124920 -2.654488 4.108339
-3.016956 -2.555523 3.731695
-2.652358 -2.222579 3.823750
-1.022786 -0.734317 4.055302
-0.821452 -0.550763 4.431256
-0.794757 -0.526943 5.041254
-1.149833 -0.851409 5.185328
-1.114726 -0.819704 5.576717
-0.883269 -0.608796 6.127056
-0.825411 -0.555876 6.050006
-1.633205 -1.466371 1.513313
-1.643200 -1.477035 1.899635
-1.554582 -1.386072 2.134597
-1.426098 -1.253986 2.268760
-2.266799 -2.120684 3.869854
-0.867923 -0.682203 4.932480
-0.995705 -0.814305 5.552801
-1.071968 -0.892779 5.547239
-1.541721 -1.597466 1.468453
-1.592777 -1.658110 1.531469
-1.450471 -1.489688 1.930355
-1.349949 -1.370727 2.221417
-1.175728 -1.164337 2.524714
-1.939164 -2.071675 3.963186
-1.619749 -1.692810 4.077493
-1.310838 -1.326641 4.409428
-1.119496 -1.099279 4.093146
-0.869172 -0.802683 4.481596
-0.801613 -0.723066 4.993012
-0.947206 -0.895786 4.968678
-0.889105 -0.827667 5.740868
-0.885557 -0.823474 5.755373
-0.604574 -0.490420 6.069340
-1.305080 -1.516389 1.046566
-1.365531 -1.598560 1.270960
-1.317895 -1.534650 1.824905
-1.242017 -1.432104 2.061394
-1.237400 -1.425864 2.075956
-0.990363 -1.091795 2.661842
-1.042198 -1.162347 2.935022
-1.389706 -1.634767 4.269554
-1.208596 -1.389296 4.216451
-1.066597 -1.196934 4.261816
-0.855335 -0.910741 4.326303
-0.778917 -0.807538 4.627205
-0.748400 -0.767257 5.557496
-0.908458 -0.983979 5.416313
-0.771054 -0.798161 5.737908
-0.474738 -0.397208 6.229231
-1.202741 -1.594414 1.663903
-1.196374 -1.584803 1.893497
-1.111813 -1.453406 1.972698
-1.027306 -1.322365 2.267937
-0.755816 -0.900875 2.816757
-0.788987 -0.952877 3.148322
-1.118165 -1.465503 3.731478
-1.170561 -1.547320 3.997800
-0.919769 -1.158019 4.548698
-0.793732 -0.962729 5.107142
-0.707797 -0.829957 5.788783
-0.681362 -0.789013 5.919612
-0.525996 -0.547299 5.831706
-1.028805 -1.544033 1.302662
-1.079131 -1.634934 1.526670
-0.956643 -1.415408 2.202879
-0.909735 -1.330930 2.171843
-0.706433 -0.965521 2.549892
-0.576554 -0.732184 2.866191
-0.642478 -0.851757 3.513588
-0.903455 -1.321888 3.780347
-0.914153 -1.341757 4.215675
-0.695496 -0.949303 5.017174
-0.703890 -0.964728 5.241660
-0.635599 -0.842310 5.601261
-0.488959 -0.578690 5.835793
-0.844512 -1.434604 1.440537
-0.876148 -1.501872 1.721031
-0.795107 -1.331266 2.074354
-0.690486 -1.110699 2.327966
-0.574683 -0.866610 2.642886
-0.571161 -0.859199 2.659512
-0.561139 -0.838838 3.166044
-0.760880 -1.261762 3.820186
-0.830980 -1.410404 4.185374
-0.725113 -1.187302 4.500419
-0.551007 -0.820293 4.954540
-0.528825 -0.774079 5.354219
-0.636100 -1.000950 5.536794
-0.506518 -0.727629 5.770001
-0.324857 -0.343929 5.764574
-0.578965 -1.050498 1.047237
-0.656454 -1.246498 1.703420
-0.695745 -1.345683 1.928241
-0.550619 -0.981868 2.468852
-0.461398 -0.758072 2.730170
-0.480983 -0.807523 2.849501
-0.316111 -0.393516 3.087862
-0.672584 -1.292397 4.600183
-0.543990 -0.970713 5.450559
-0.558047 -1.005871 5.353633
-0.439749 -0.709528 5.912044
-0.294177 -0.343978 6.118897
-0.489486 -1.021310 0.759365
-0.513235 -1.094535 0.826344
-0.522176 -1.123291 1.389493
-0.562621 -1.248596 1.777227
-0.467757 -0.958000 2.366042
-0.446452 -0.892257 2.281125
-0.633749 -1.472947 4.261156
-0.458633 -0.936531 5.356369
-0.444449 -0.893764 5.753417
-0.420419 -0.819653 5.676516
-0.265481 -0.344003 6.173140
-0.320557 -0.650541 0.677322
-0.425721 -1.063762 0.939191
-0.413371 -1.016137 1.234034
-0.370897 -0.851594 1.978434
-0.412542 -1.015244 2.087312
-0.345504 -0.753773 2.623563
-0.478828 -1.282063 4.553631
-0.392948 -0.947544 5.400408
-0.385967 -0.920363 5.472818
-0.334194 -0.718029 5.741392
-0.236641 -0.335947 5.945702
-0.349841 -1.052950 1.004566
-0.342140 -1.012177 1.079230
-0.338935 -0.995975 1.317041
-0.285619 -0.714592 2.074631
-0.300364 -0.793419 2.137499
-0.288139 -0.729563 2.489831
-0.222840 -0.383353 2.990100
-0.365526 -1.149234 4.427779
-0.376768 -1.209566 4.538643
-0.297879 -0.789967 4.782451
-0.287985 -0.737713 4.913172
-0.304348 -0.827111 5.501416
-0.275025 -0.672374 5.922361
-0.269499 -0.977156 1.179640
-0.267498 -0.962043 1.416837
-0.250950 -0.828610 1.884547
-0.238968 -0.731156 2.075312
-0.245055 -0.781889 2.195462
-0.237525 -0.723192 2.765511
-0.207974 -0.480457 2.812474
-0.309381 -1.321518 4.079243
-0.273718 -1.033561 5.018811
-0.259320 -0.918384 5.588113
-0.239351 -0.755046 5.741165
-0.137433 0.078063 6.623103
-0.221548 -1.281518 0.866295
-0.204822 -0.988355 1.396592
-0.203962 -0.975835 1.631674
-0.194875 -0.816764 1.935680
-0.192601 -0.779609 2.228322
-0.187241 -0.688587 2.636800
-0.170420 -0.389213 2.798095
-0.220451 -1.302248 4.162075
-0.202736 -0.993790 4.889749
-0.194470 -0.853391 5.517464
-0.190384 -0.782493 5.705117
-0.171064 -0.440720 6.059183
-0.149866 -0.059478 5.939061
-0.121915 0.434912 6.457433
-0.102348 0.784175 6.561934
-0.138135 -1.365520 0.941338
-0.140816 -1.015776 1.366464
-0.140548 -1.032977 1.545345
-0.142138 -0.811933 1.966023
-0.142666 -0.717036 2.374508
-0.143339 -0.600284 2.841441
-0.144981 -0.412743 2.770040
-0.137277 -1.208276 4.153395
-0.139074 -0.920922 5.097398
-0.139063 -0.894846 5.437487
-0.140123 -0.736344 5.858050
-0.142765 -0.427797 5.828194
-0.146930 0.081477 6.065033
-0.149982 0.453475 6.224075
0.237883 -5.219454 3.466655
0.216585 -4.926589 4.016223
-0.111232 -0.506138 3.057832
-0.129178 -0.263205 3.107151
-0.073358 -1.005591 4.385582
-0.096597 -0.681696 5.454894
-0.091700 -0.746852 5.564363
-0.106885 -0.539157 5.837051
-0.124295 -0.303312 5.902375
-0.158705 0.162735 6.023123
-0.186369 0.541113 6.520259
0.562222 -5.129354 3.377125
0.588867 -5.321073 3.440424
0.578478 -5.244457 3.790851
0.553182 -5.060388 4.143629
-0.117633 -0.230468 3.195788
0.009680 -1.143682 4.070847
-0.051456 -0.696317 5.428943
-0.042452 -0.760664 5.539157
-0.082474 -0.469702 6.047017
-0.106343 -0.298217 5.937251
-0.176140 0.206023 6.179716
-0.240693 0.673595 6.649157
0.837061 -4.822256 3.657019
0.888807 -5.074288 3.812103
0.889792 -5.078393 4.018192
0.866521 -4.963285 4.466768
0.839019 -4.829647 4.292980
-0.000905 -0.735176 2.820484
0.042441 -0.941750 4.286507
0.069391 -1.073488 4.227450
0.001008 -0.737835 4.783160
-0.037566 -0.549761 4.724310
-0.037561 -0.546968 5.553670
-0.022615 -0.618627 5.932336
-0.065834 -0.407658 5.939719
0.294563 -1.649498 1.420806
1.127578 -4.697937 4.890099
1.114379 -4.649822 4.762922
0.097897 -0.920115 4.327557
0.120178 -1.001746 4.384008
0.013022 -0.607247 4.846708
-0.037649 -0.420708 5.061850
0.022183 -0.639678 5.305513
0.021760 -0.637383 5.592089
-0.057621 -0.345397 5.833826
0.573828 -2.135825 1.280913
0.427642 -1.709236 1.265445
0.279210 -1.275618 1.474510
1.394995 -4.525224 4.628854
-0.114742 -0.122700 3.007102
0.148138 -0.886965 4.389410
0.064589 -0.641813 5.018782
0.043613 -0.579058 5.749666
0.055687 -0.614506 5.648914
-0.041941 -0.329087 5.890138
-0.193417 0.113229 6.011144
-0.390716 0.690192 6.569136
0.875149 -2.488405 1.541331
0.757833 -2.206631 1.675261
0.596507 -1.819600 1.606508
0.389056 -1.321855 1.550436
0.179009 -0.817088 1.942019
0.232556 -0.941986 3.972493
0.236133 -0.950163 4.201337
0.059845 -0.526077 4.779494
0.012562 -0.412057 5.089459
0.117690 -0.664122 5.214788
0.066733 -0.540706 5.850786
-0.024207 -0.322350 5.916462
1.096592 -2.549732 1.703324
1.842207 -4.050493 4.530521
0.268993 -0.875443 4.097856
0.178540 -0.692113 4.577762
0.081745 -0.495888 5.119959
0.121787 -0.576222 5.442508
0.180343 -0.694522 5.377526
-0.011600 -0.306154 5.969600
1.418208 -2.752997 1.744754
2.069275 -3.876593 4.190290
0.279100 -0.778158 4.055119
0.284137 -0.786563 4.284348
0.254010 -0.733867 4.686878
0.296483 -0.806942 5.009865
0.227627 -0.686896 5.642308
0.087634 -0.444336 5.822680
-0.077786 -0.157966 5.854822
-0.373771 0.355020 6.341853
1.768373 -2.918588 1.997914
2.053482 -3.343100 4.241565
2.218825 -3.591075 4.089354
0.374376 -0.827209 3.868111
0.372048 -0.822772 4.638217
0.406524 -0.874301 4.749809
0.351603 -0.791361 5.264983
0.362759 -0.807803 5.490343
0.218999 -0.592215 5.609428
-0.006757 -0.253231 6.145682
-0.196108 0.030244 5.909517
1.833423 -2.640295 2.145751
2.076563 -2.957601 2.455557
2.165758 -3.073493 3.022976
2.278225 -3.219856 3.531204
2.303190 -3.252067 3.891418
0.451505 -0.832755 4.025221
0.522150 -0.924211 4.773602
0.517730 -0.918117 5.056743
0.499975 -0.894839 5.129751
0.290776 -0.620835 5.746520
0.213133 -0.519656 5.516826
2.138440 -2.676505 2.382331
2.255891 -2.810335 3.103952
2.443139 -3.024782 3.207349
2.229527 -2.779360 3.841686
0.096296 -0.335947 2.970870
0.037039 -0.267847 3.165224
0.665591 -0.986709 4.464843
0.612079 -0.924643 5.187450
0.637920 -0.954355 5.089169
0.439406 -0.726374 5.587577
0.212821 -0.466378 5.942877
-0.032216 -0.185448 6.095435
-0.222346 0.032323 6.013258
0.335157 -0.547931 2.110092
0.204039 -0.416030 2.257721
0.639687 -0.851875 4.251682
0.794493 -1.007195 4.501020
0.688437 -0.900274 4.860141
0.601951 -0.813072 5.163699
0.452086 -0.662215 5.432757
0.237993 -0.446846 5.670508
1.141389 -1.208979 1.035290
1.016267 -1.098076 1.333408
0.784865 -0.893339 1.481428
0.597312 -0.727273 1.738443
0.389340 -0.543096 2.057658
0.141044 -0.323154 2.499870
0.727513 -0.840201 4.144953
0.711768 -0.825530 4.966999
0.811013 -0.913336 4.907103
0.684201 -0.801074 5.058090
0.457369 -0.600055 5.558912
0.198695 -0.371014 5.916250
1.043384 -0.996063 1.224574
0.916936 -0.898189 1.307079
0.647482 -0.689598 1.515935
0.330868 -0.444232 2.069034
0.347187 -0.456889 2.028312
0.087948 -0.255804 2.694213
0.086271 -0.254300 2.932819
0.094151 -0.260000 3.390028
0.784106 -0.792570 4.644226
0.776820 -0.786458 5.196188
0.679780 -0.711368 5.234349
0.442698 -0.527561 5.737868
0.341164 -0.449225 5.510191
0.101536 -0.263674 5.751559
-0.285737 0.036022 5.932148
1.026533 -0.873239 0.985494
0.934052 -0.810503 1.393282
0.776230 -0.703896 1.535239
0.669726 -0.632010 1.563528
0.338624 -0.408144 2.117575
0.210194 -0.321229 2.429786
0.287427 -0.372539 3.404397
0.598320 -0.581584 4.288876
0.854082 -0.753699 4.846041
0.828830 -0.736379 5.187898
0.612311 -0.590187 5.305247
0.551770 -0.549181 5.494671
0.212577 -0.319874 6.026294
1.012113 -0.764962 1.127566
0.868608 -0.680831 1.430700
0.521599 -0.477539 1.979561
0.411239 -0.413000 2.010020
0.327027 -0.363617 2.203546
0.330910 -0.364977 3.353447
0.674919 -0.565427 4.180295
0.922118 -0.709662 4.527859
0.813124 -0.645706 4.830414
0.609451 -0.526172 5.423916
0.542948 -0.487356 5.345694
0.150305 -0.257307 5.996414
0.890335 -0.612870 1.056572
0.875565 -0.605297 1.294144
0.728738 -0.531592 1.599422
0.425370 -0.379452 2.036088
0.391009 -0.362200 2.112078
0.278540 -0.305727 2.364623
0.568030 -0.449113 4.297248
0.743791 -0.536830 4.603451
0.714670 -0.521996 4.946109
0.506090 -0.417167 5.542832
0.300572 -0.314071 5.875543
0.185304 -0.256566 5.645676
-0.262825 -0.031930 6.157831
0.892278 -0.539149 1.126601
0.735463 -0.472546 1.652746
0.588025 -0.410064 1.960225
0.525508 -0.383731 1.873490
0.273074 -0.276739 2.418959
0.056440 -0.184903 2.910363
-0.143816 -0.100352 2.903331
0.490563 -0.367169 4.310323
0.524127 -0.381214 4.481685
0.471126 -0.358535 4.886002
0.551394 -0.392188 5.209094
0.448286 -0.348224 5.786254
0.230328 -0.256146 5.851130
0.800819 -0.435651 1.159957
0.845877 -0.451168 1.281387
0.720318 -0.407504 1.528531
0.596942 -0.364595 1.776903
0.252062 -0.244791 2.275668
0.193474 -0.224242 2.631285
-0.023693 -0.148676 3.121254
0.116331 -0.197057 3.278296
0.305587 -0.262219 3.810760
0.416663 -0.300337 4.296518
0.341368 -0.274122 4.487051
0.309780 -0.262735 5.106031
0.421097 -0.300903 5.638875
0.348287 -0.275744 5.559344
0.042839 -0.169739 5.859939
-0.438294 -0.002930 6.102438
0.849360 -0.395244 1.113476
0.774296 -0.373801 1.467194
0.676841 -0.346153 1.658241
0.465724 -0.286251 2.083912
0.258209 -0.227520 2.291819
0.254149 -0.226206 2.528021
0.051017 -0.168712 2.737124
0.602281 -0.323521 3.889835
0.450153 -0.280314 4.255501
0.213739 -0.213338 4.585483
0.205580 -0.210636 5.147971
0.469265 -0.284989 5.271254
0.335289 -0.246906 5.638681
0.907988 -0.346699 1.049018
0.709807 -0.304018 1.635086
0.582148 -0.276613 1.885804
0.543911 -0.268404 1.962034
0.304161 -0.217080 2.226321
0.243074 -0.203802 2.581362
-0.125721 -0.124741 3.150283
0.548792 -0.267979 4.061322
0.324871 -0.219836 4.605325
0.251764 -0.204299 4.524022
0.219292 -0.197129 4.873022
0.286268 -0.210958 5.528874
0.195214 -0.191359 5.781178
0.658289 -0.246645 1.131673
0.730330 -0.256896 1.417988
0.627322 -0.241671 1.830641
0.471155 -0.218807 2.140029
0.316026 -0.196245 2.230009
0.221340 -0.182378 2.424438
0.010591 -0.151665 2.636009
0.561386 -0.230562 4.070457
0.455219 -0.214990 4.321737
0.141334 -0.169112 4.832357
0.089701 -0.161719 4.693499
0.242985 -0.183659 5.117686
0.244449 -0.183484 5.678951
-0.096050 -0.133845 6.045370
-0.579148 -0.063645 6.235075
0.817295 -0.214792 1.075255
0.800989 -0.213337 1.314387
0.486281 -0.188019 1.915140
0.417832 -0.182509 2.050283
0.350060 -0.177052 2.185770
0.592945 -0.195012 4.029360
0.253425 -0.167394 5.120228
0.342519 -0.174222 5.445888
0.068644 -0.152233 5.903446
0.629378 -0.158499 1.024320
0.764400 -0.160273 1.194447
0.568773 -0.157285 1.560384
0.527283 -0.156502 1.856967
0.280677 -0.152868 2.122428
0.126594 -0.150498 2.435400
-0.044683 -0.147693 3.031643
0.257026 -0.151710 3.333588
0.497647 -0.154607 4.024110
0.507168 -0.154582 4.255730
0.309495 -0.151669 4.468849
-0.074368 -0.146010 4.886554
0.106525 -0.148294 5.250262
0.335909 -0.151340 5.491518
-0.074030 -0.145231 6.034370
0.720823 -0.112724 0.874509
0.665886 -0.115208 1.394048
0.595410 -0.118759 1.527027
0.433990 -0.126738 2.058325
0.279336 -0.134518 2.369642
0.095117 -0.143935 2.520491
-0.172652 -0.157546 2.853465
0.663747 -0.113596 3.913750
0.383138 -0.127645 4.574931
0.215982 -0.136365 4.456117
-0.004994 -0.147408 5.008501
0.244988 -0.134363 5.192846
0.132782 -0.139761 5.778576
-0.188551 -0.156157 6.087274
0.720240 -0.066402 0.886104
0.573559 -0.083111 1.581186
0.414156 -0.101575 1.891232
0.258312 -0.119621 2.203107
0.049322 -0.143811 2.636009
-0.042620 -0.154449 2.832175
0.020241 -0.146850 3.172110
0.205095 -0.124630 3.986709
0.588123 -0.079671 4.102440
0.231364 -0.120684 5.250021
0.185362 -0.125794 5.657855
0.064369 -0.139942 5.699740
-0.307780 -0.183440 5.855463
-0.896776 -0.252110 6.354600
-1.333057 -0.303411 6.090549
0.176883 -0.120385 0.038624
0.756757 -0.013230 1.030970
0.588141 -0.043820 1.561070
0.606811 -0.040267 1.740588
0.363070 -0.084835 2.004977
0.093158 -0.134164 2.332805
-0.172896 -0.182781 2.665595
-0.040519 -0.158015 3.329850
0.287345 -0.097309 4.063592
0.454367 -0.066387 4.432588
0.261278 -0.101690 4.647001
0.001671 -0.149270 4.767536
0.063655 -0.137621 5.155605
0.158652 -0.119764 5.753719
-0.074653 -0.162552 5.821844
-0.411198 -0.224083 6.195131
-0.809853 -0.297311 6.144970
-1.536951 -0.430579 6.475098
0.506496 -0.030072 1.084654
0.487350 -0.034434 1.546640
0.388930 -0.058233 1.961200
0.381220 -0.060110 1.976863
0.171545 -0.111287 2.184686
-0.203104 -0.202591 2.755958
-0.176566 -0.195969 2.934577
0.640401 0.004748 3.991027
0.152728 -0.113761 5.217024
0.237568 -0.092958 5.268549
0.101962 -0.125890 5.641046
-0.365005 -0.239871 6.097700
-0.614678 -0.300891 6.232281
-0.941615 -0.380646 6.617477
0.594941 0.034043 0.916193
0.544236 0.018108 1.435709
0.446579 -0.013004 1.848928
0.269575 -0.069668 2.217915
0.323337 -0.052133 2.557340
0.090590 -0.126956 2.604311
-0.400617 -0.284995 2.525402
0.638445 0.050240 3.991027
0.536461 0.017619 4.239698
0.191208 -0.093170 4.590832
-0.105216 -0.188136 5.106882
0.156018 -0.104030 5.229109
0.091501 -0.124445 5.696012
-0.235283 -0.229282 6.064152
-0.709700 -0.381474 6.608994
0.551689 0.056495 0.581662
0.542941 0.053668 1.433648
0.503263 0.038226 1.730474
0.467445 0.024145 1.805051
0.682916 0.109660 2.455719
0.637842 0.092991 3.981220
0.646420 0.096546 4.211756
0.554632 0.060304 4.188191
0.191240 -0.082608 4.874132
-0.053179 -0.178981 4.996398
-0.032951 -0.170625 5.503276
0.197928 -0.079575 5.410216
-0.224223 -0.245691 6.077364
0.383984 0.015434 0.089505
0.508947 0.075005 0.656329
0.621221 0.128440 1.051920
0.550392 0.095188 1.408242
0.697577 0.165264 1.960225
1.025980 0.321496 3.026330
0.893512 0.259586 4.064009
0.698522 0.167297 4.058285
0.518317 0.082169 4.269018
0.295674 -0.022953 4.600742
0.013853 -0.156151 4.840700
0.113025 -0.109013 5.109469
0.114344 -0.107962 5.673648
-0.243855 -0.277327 5.889483
0.626971 0.172998 0.814619
0.549500 0.130961 1.395887
0.510662 0.109893 1.694945
1.270010 0.527633 3.321492
1.207222 0.493133 3.239265
1.013379 0.387187 3.714259
0.746651 0.241239 4.153490
0.512926 0.113139 4.267872
0.356477 0.027667 4.697975
0.022404 -0.155446 4.842805
-0.106012 -0.225583 5.221534
0.235613 -0.038136 5.322076
0.011505 -0.160739 5.723039
0.277753 -0.000886 0.503677
0.564033 0.181746 0.716021
0.541272 0.167615 1.180768
0.398658 0.077153 1.714868
1.230369 0.608547 3.327036
1.178468 0.575573 3.457598
1.072940 0.508341 3.489327
0.878800 0.384819 3.751951
0.622981 0.222131 4.193065
0.497092 0.141974 4.288267
0.110466 -0.103961 4.881116
-0.072249 -0.220410 4.885724
0.139667 -0.084973 5.346343
0.077614 -0.124363 5.543087
0.492493 0.174895 1.055315
0.500254 0.180917 1.460441
1.233548 0.718709 2.981486
1.167764 0.670918 3.382066
0.938958 0.503832 3.757107
0.870318 0.453773 3.946821
0.654794 0.296181 4.057375
0.414026 0.120404 4.504066
0.217230 -0.023296 4.838854
-0.088434 -0.247041 4.708957
-0.057127 -0.223753 5.160426
0.055750 -0.140760 5.643059
-0.229889 -0.349662 5.739670
0.498662 0.221220 0.803854
0.479441 0.205582 1.267770
1.257040 0.856084 2.568481
1.333992 0.920967 3.268419
1.106963 0.731522 3.424706
0.830871 0.501454 3.972042
0.814531 0.487634 3.774488
0.473345 0.203183 4.292851
0.057973 -0.142963 5.097761
0.017813 -0.176378 5.234437
0.054170 -0.145620 5.680466
0.494843 0.264848 0.981586
0.456168 0.228478 1.503522
1.317329 1.051053 3.365193
1.200716 0.939784 3.238749
0.986224 0.735488 3.396482
0.903851 0.657206 3.641871
0.646582 0.412510 4.195243
0.400621 0.178346 4.485212
0.281483 0.065429 5.163928
0.047494 -0.157054 5.741760
0.424444 0.240041 1.122958
1.354270 1.251863 3.264438
1.117764 0.995319 3.531544
0.892403 0.750611 3.535360
0.719251 0.562916 3.855921
0.600105 0.433692 4.006455
0.410721 0.228713 4.666840
0.185133 -0.016222 4.689780
-0.150298 -0.380563 4.581447
0.051079 -0.160699 5.768445
0.333896 0.174742 0.921566
0.434147 0.299073 1.257001
1.359167 1.445030 3.205566
1.241514 1.299466 3.133012
0.964450 0.957104 3.356541
0.802627 0.757343 3.672787
0.691664 0.620291 3.820266
0.428298 0.295124 4.280475
0.146748 -0.052119 5.119253
0.016056 -0.213126 5.673503
-0.073949 -0.324311 5.775669
0.190790 0.009764 0.301027
0.361132 0.251362 0.797732
1.229064 1.481828 2.874066
1.264217 1.531951 3.200586
0.847307 0.942778 3.792275
0.715853 0.756524 3.569268
0.495301 0.445198 4.182126
0.380718 0.283328 4.393780
0.218874 0.055162 5.087245
0.073475 -0.149765 5.758144
0.325452 0.241061 0.865825
0.396119 0.355402 1.036987
1.464102 2.083141 3.419055
1.363126 1.920591 3.815282
0.448958 0.444913 4.263530
0.139395 -0.053432 5.464000
0.087276 -0.137623 5.443344
0.363460 0.363447 0.863415
0.374060 0.383273 0.822631
0.444845 0.516885 1.382204
1.361981 2.240571 3.491116
1.229466 1.992476 3.844736
0.424559 0.482972 4.237068
0.233169 0.124189 4.430411
0.136827 -0.055821 4.937547
0.156893 -0.017529 5.382901
0.387855 0.496119 0.647512
0.264878 0.223951 1.192982
1.148656 2.190383 3.568345
0.491624 0.732001 3.927972
0.067959 -0.206331 5.396254
0.341188 0.483611 0.717392
0.289661 0.346965 1.192761
1.014648 2.287110 3.509128
0.417307 0.693418 4.095672
0.356107 0.530316 4.247332
0.254191 0.258550 4.421331
0.419884 0.873598 0.644893
0.307490 0.501349 0.930818
0.282788 0.420758 1.509942
0.895314 2.457319 3.279496
0.839313 2.272438 3.673788
0.392377 0.790682 4.175096
0.330236 0.584485 4.169366
0.124728 -0.094484 5.398894
0.356272 0.876113 0.686809
0.303092 0.645359 0.496230
0.321131 0.725486 1.171310
0.376273 0.965970 1.769510
0.680167 2.287300 3.749602
0.690418 2.331382 3.655065
0.341598 0.823125 4.155212
0.276172 0.540459 4.324482
0.111353 -0.169829 5.343214
0.328970 1.047422 1.441458
0.365709 1.266051 1.875142
0.354206 1.200456 2.439256
0.519066 2.178278 3.594081
0.258159 0.640420 4.123817
0.126842 -0.128906 5.537478
0.311364 1.568082 1.770795
0.307349 1.529558 1.842959
0.278902 1.255258 2.152331
0.293252 1.397200 2.532178
0.319572 1.659932 3.587677
0.201096 0.514771 4.458003
0.131623 -0.157909 4.794627
0.102107 -0.443409 4.980560
0.207554 1.584752 0.946721
0.204399 1.504637 1.293033
0.210048 1.665881 1.621973
0.211750 1.714843 1.741151
0.203547 1.497318 2.150181
0.192413 1.194514 2.301197
0.174504 0.725418 3.503193
0.174897 0.744569 3.949675
0.160366 0.353256 4.355186
0.147292 -0.004149 4.434704
0.127175 -0.550965 4.724844
0.128490 -0.511601 4.899529
0.128883 -0.491174 5.412543
0.098049 1.756392 1.475804
0.096541 1.805160 1.594387
0.099322 1.705852 1.776600
0.105379 1.489282 2.185047
0.116534 1.100423 2.507377
0.126931 0.721027 3.534552
0.126743 0.715670 4.038275
0.135134 0.424875 4.208389
0.146182 0.037590 4.621209
0.159365 -0.407648 4.389025
0.167379 -0.699064 5.136430
0.162639 -0.540441 5.283224
-0.042644 1.995356 1.460388
-0.035784 1.921911 1.801111
-0.018024 1.735537 2.150807
-0.005934 1.610181 2.175578
0.033993 1.194102 2.553465
0.074707 0.764435 3.696128
0.078714 0.720482 4.043050
0.115937 0.332197 4.449699
0.136697 0.117259 4.448684
0.177652 -0.306678 4.433690
0.200893 -0.549756 4.777475
