-1.520451 -0.305820 3.161077
-2.047027 -0.411734 4.088955
-2.338009 -0.470261 4.713609
-2.056777 -0.413695 5.771435
-1.821541 -0.366380 6.655692
-1.696436 -0.341217 7.367355
-1.642888 -0.330446 8.253206
-1.479631 -0.297609 9.129379
-1.591840 -0.180882 2.026226
-1.723416 -0.195833 2.940254
-2.239535 -0.254480 3.738254
-2.512478 -0.285495 4.653282
-2.151729 -0.244503 5.358631
-1.739156 -0.197622 6.308346
-1.698928 -0.193051 7.393526
-1.755670 -0.199498 8.200475
-1.652288 -0.187751 9.128267
-1.301040 -0.037283 0.305430
-1.690957 -0.048456 1.134479
-1.677407 -0.048068 2.044014
-1.808558 -0.051826 2.934696
-2.290328 -0.065632 3.863549
-2.532507 -0.072572 4.481194
-2.227311 -0.063826 7.032395
-1.704804 -0.048853 7.898369
-1.701026 -0.048745 9.073856
-1.524358 0.088449 0.347098
-1.661772 0.096422 1.059534
-1.749498 0.101512 2.029365
-1.866307 0.108290 2.724866
-2.317656 0.134479 3.656704
-2.520823 0.146267 4.407181
-2.228877 0.129328 5.295191
-1.489973 0.086454 6.115914
-1.368687 0.079416 7.209171
-1.790725 0.103904 8.082612
-1.725529 0.100122 8.852184
-1.709478 0.252355 0.453271
-1.775937 0.262165 1.250129
-1.726782 0.254909 1.889147
-1.949569 0.287797 2.739424
-2.397134 0.353867 3.668568
-2.602252 0.384147 4.448620
-2.259134 0.333495 5.299115
-1.554767 0.229516 6.137030
-1.445445 0.213378 7.002341
-1.716692 0.253419 7.791504
-1.706200 0.393535 0.215711
-1.774274 0.409236 1.270871
-1.726690 0.398261 1.920294
-1.862533 0.429593 2.959511
-2.277055 0.525202 3.816120
-1.453313 0.335207 7.030584
-1.709651 0.394331 7.888587
-1.926743 0.625249 0.139237
-1.918053 0.622429 1.125175
-1.701190 0.552055 1.735922
-2.113818 0.685957 2.754024
-2.467882 0.800854 3.343781
-2.189227 0.710428 4.206497
-1.614990 0.524082 5.257724
-1.723962 0.559444 6.221164
-1.809534 0.587213 6.913697
-1.461884 0.474397 7.819304
-1.563452 0.507357 8.700952
-1.347600 0.437311 9.609729
-1.916505 0.817032 0.791521
-1.656389 0.706141 1.411719
-1.606188 0.684740 2.365117
-1.768111 0.753770 3.401878
-1.919739 0.818411 4.078262
-1.765444 0.752633 5.020839
-1.349431 0.575281 5.775578
-1.091832 0.465463 6.735191
-1.179171 0.502697 7.552542
-1.482935 0.632195 8.436017
-1.395248 0.594813 9.161930
-1.741730 0.917822 1.201690
-1.883044 0.992288 3.739484
-2.046923 1.078646 4.538927
-1.643861 0.866249 5.685914
-0.952573 0.501968 6.528322
-0.895223 0.471747 7.330740
-1.313333 0.692074 8.315705
-1.384567 0.729611 9.036770
-1.831867 1.173337 0.032009
-1.736551 1.112286 0.963243
-1.481926 0.949195 1.650759
-1.691151 1.083206 2.553818
-1.935472 1.239697 3.401511
-1.877279 1.202424 4.235851
-1.569858 1.005516 5.180925
-1.133262 0.725870 5.982396
-0.932008 0.596965 7.008131
-1.141653 0.731245 7.934160
-1.370204 0.877635 8.625233
-1.233451 0.790043 9.701673
-1.448613 1.119630 1.550763
-1.295598 1.001365 2.219673
-0.978497 0.756279 2.988234
-1.649239 1.274693 4.728294
-1.317186 1.018050 7.424324
-1.192155 0.921414 8.299743
-1.285091 0.993244 9.182773
-1.384077 1.266648 0.247283
-1.374828 1.258184 1.021926
-1.327616 1.214977 1.972944
-1.344522 1.230449 2.771378
-1.600252 1.464482 3.638701
-1.684703 1.541768 4.273025
-1.394619 1.276296 5.188416
-1.258915 1.152105 7.774740
-1.184097 1.083635 8.641370
-1.034365 0.946607 9.440744
-1.358396 1.476866 0.696595
-1.108689 1.205381 1.720873
-1.245200 1.353798 2.651265
-1.450460 1.576959 3.339800
-1.533624 1.667376 4.102742
-1.309579 1.423792 4.942538
-0.849887 0.924008 5.884319
-0.362003 0.393574 6.776128
-1.124431 1.222496 8.425621
-1.040388 1.131123 9.248702
-1.096906 1.427471 1.400947
-0.981056 1.276708 2.177775
-1.001076 1.302762 3.055825
-1.232602 1.604061 3.944213
-0.698683 0.909239 7.510033
-1.017199 1.323743 8.344785
-0.989316 1.287457 9.068968
-0.844631 1.302959 0.433597
-0.935715 1.443467 1.252501
-0.846438 1.305746 2.104649
-0.828658 1.278317 3.130518
-0.980380 1.512369 3.999009
-1.175731 1.813724 4.740664
-0.926834 1.429767 5.487867
-0.488867 0.754143 6.365118
-0.654994 1.010417 7.408786
-0.961183 1.482754 8.076842
-0.922965 1.423798 9.052256
-0.679951 1.283835 0.434687
-0.770361 1.454541 1.276502
-0.728038 1.374630 2.093810
-0.601394 1.135510 2.962691
-0.693767 1.309922 4.064324
-0.850855 1.606525 4.815053
-0.648896 1.225200 5.742804
-0.442871 0.836197 6.504332
-0.590381 1.114717 7.443381
-0.788553 1.488891 8.296425
-0.781806 1.476151 9.160692
-0.580226 1.359505 0.466994
-0.637564 1.493850 1.374690
-0.605765 1.419344 2.322846
-0.536313 1.256614 3.044283
-0.552619 1.294820 3.819261
-0.608536 1.425837 4.891708
-0.484711 1.135708 5.742314
-0.387430 0.907772 6.599317
-0.512010 1.199670 7.536999
-0.629892 1.475876 8.031105
-0.623089 1.459936 9.134268
-0.485729 1.475686 1.496526
-0.416815 1.266320 2.149246
-0.431993 1.312433 3.240272
-0.446856 1.357589 4.036784
-0.441361 1.340892 4.787339
-0.363349 1.103886 5.763901
-0.336820 1.023288 6.685944
-0.467348 1.419843 7.467399
-0.488445 1.483938 8.073533
-0.452932 1.376046 9.200498
-0.336316 1.441859 0.640747
-0.345993 1.483344 1.345611
-0.297028 1.273423 2.139682
-0.289240 1.240033 3.139217
-0.305726 1.310710 3.957181
-0.313846 1.345521 4.746776
-0.251700 1.079091 5.559276
-0.250314 1.073150 6.681844
-0.331329 1.420475 7.271914
-0.393318 1.686235 8.275386
-0.349969 1.500390 9.042314
-0.179652 1.261489 1.977303
-0.168846 1.185607 2.793274
-0.177806 1.248523 3.591022
-0.182675 1.282710 4.436444
-0.148952 1.045918 5.365220
-0.131423 0.922829 6.416277
-0.186257 1.307868 7.071922
-0.243310 1.708483 7.871894
-0.082648 1.347914 -0.054473
-0.070892 1.156192 0.799240
-0.072461 1.181776 1.641924
-0.071853 1.171856 2.432266
-0.073776 1.203231 3.529888
-0.072865 1.188370 4.160423
-0.060299 0.983426 5.206957
-0.051099 0.833378 5.946106
-0.071561 1.167101 6.929593
-0.095171 1.552166 7.781966
-0.093097 1.518335 8.489355
-0.073815 1.203868 9.371735
0.035534 1.532243 0.759240
0.031329 1.350942 1.438686
0.026506 1.142942 2.335225
0.025397 1.095145 3.109045
0.025888 1.116300 3.924568
0.023255 1.002764 4.947895
0.019633 0.846582 5.854229
0.024977 1.077006 6.685944
0.032199 1.388430 7.307150
0.037147 1.601802 8.144352
0.033344 1.437830 9.042750
0.030105 0.274795 0.290881
0.136167 1.242897 2.000380
0.110996 1.013143 2.750511
0.119337 1.089275 3.705342
0.150957 1.377901 4.569710
0.127943 1.167833 5.494292
0.082884 0.756542 6.454803
0.108594 0.991220 7.106552
0.164082 1.497698 8.050935
0.156615 1.429547 8.928545
0.197188 0.981334 0.208811
0.164748 0.819893 0.938133
0.228505 1.137187 1.664840
0.190662 0.948859 2.731920
0.248249 1.235448 3.580102
0.329186 1.638242 4.187074
0.236676 1.177853 5.123465
0.165461 0.823443 6.148424
0.226993 1.129665 6.977646
0.305731 1.521517 7.895196
0.305190 1.518822 8.619487
0.229532 1.142298 9.415954
0.333421 1.166403 1.739296
0.252835 0.884489 2.370312
0.530444 1.855645 4.018629
0.408590 1.429363 4.987740
0.264361 0.924812 5.949935
0.287000 1.004007 6.939885
0.360895 1.262513 7.716179
0.396023 1.385402 8.472401
0.325191 1.137613 9.492553
0.388217 1.013932 0.910405
0.431817 1.127803 1.608101
0.529288 1.382375 2.522717
0.680541 1.777412 3.176309
0.660323 1.724607 4.844306
0.429495 1.121740 5.858783
0.346681 0.905447 6.647354
0.431287 1.126420 7.419720
0.503177 1.314180 8.434087
0.410773 1.072842 9.235138
0.467490 0.972306 0.526529
0.540604 1.124374 1.333063
0.301289 0.626634 2.383497
0.167952 0.349314 6.651622
0.314088 0.653254 7.428711
0.561409 1.167644 8.389325
0.479626 0.997548 9.164031
0.552272 0.932558 0.822668
0.378792 0.639622 7.391031
0.667207 1.126635 8.454772
0.555136 0.937393 9.087286
0.632657 0.878416 0.756862
1.011891 1.404966 3.222746
0.478804 0.664799 6.502145
0.416494 0.578283 7.637041
0.634507 0.880985 8.238896
0.630763 0.875787 9.378250
0.783625 0.912493 0.437414
0.876539 1.020687 1.264362
0.572406 0.666538 2.074206
1.019259 1.186877 3.880827
0.418899 0.487787 7.397872
0.718911 0.837137 8.200995
0.743529 0.865804 9.202286
0.835725 0.828310 0.317326
0.790747 0.783732 1.019436
0.929980 0.921729 2.172400
1.185534 1.175015 2.727847
1.281249 1.269881 3.759599
0.522270 0.517636 7.346785
0.684068 0.677999 8.138000
0.766677 0.759875 8.928281
1.056624 0.880509 0.010888
0.928456 0.773704 0.809178
0.929109 0.774248 1.651835
0.656376 0.546973 2.529144
1.374848 1.145692 4.120070
1.024579 0.853805 4.973690
0.598288 0.498567 6.078593
0.390133 0.325106 6.917857
0.591524 0.492931 7.935684
0.840826 0.700679 8.764008
0.669997 0.558324 9.589440
0.624531 0.430735 0.818258
0.926647 0.639103 1.424872
0.813214 0.560868 2.244998
1.182842 0.815798 3.301457
1.421353 0.980298 3.995772
1.020125 0.703574 4.819118
0.638178 0.440147 5.706711
0.287455 0.198256 6.726661
0.409453 0.282397 7.573902
0.812303 0.560240 8.500010
0.860019 0.593150 9.340020
0.916159 0.525110 0.669535
1.045508 0.599249 1.542498
1.226284 0.702863 2.243122
1.589413 0.910996 3.225391
1.578715 0.904865 3.921131
1.071732 0.614279 4.786341
0.759855 0.435522 5.703791
0.426630 0.244529 6.668964
0.321343 0.184183 7.435940
0.806970 0.462527 8.351099
0.909944 0.521548 9.246576
0.891991 0.413007 0.780734
1.020440 0.472481 1.392004
1.293044 0.598701 2.438889
1.710858 0.792156 3.264316
1.664248 0.770575 3.811047
1.499273 0.694189 4.901119
0.775323 0.358988 8.355262
0.811586 0.375778 9.131373
0.619557 0.227719 0.886775
0.994502 0.365531 1.658010
1.138083 0.418304 2.232488
1.675227 0.615733 3.261793
1.760700 0.647148 3.980703
1.569049 0.576707 4.854827
1.233916 0.453528 7.456052
0.839956 0.308727 8.427352
0.782533 0.287621 9.203091
0.540271 0.145908 0.866736
0.994975 0.268707 1.560207
1.203819 0.325109 2.394960
1.726528 0.466274 3.304896
1.812034 0.489366 3.991455
1.658618 0.447934 5.024545
1.290922 0.348632 7.440571
0.859513 0.232124 8.405313
0.863868 0.233300 9.467746
0.548670 0.098347 0.755630
0.985820 0.176704 1.451282
1.303667 0.233677 2.434092
1.736694 0.311295 3.317762
1.713446 0.307128 3.885393
1.672489 0.299787 4.873387
1.260080 0.225864 5.880684
0.359012 0.064351 6.666798
0.330474 0.059236 7.661704
0.871833 0.156272 8.383272
0.835513 0.149762 9.269292
0.874910 0.081826 0.518124
1.096681 0.102567 1.447683
1.276488 0.119384 2.130104
1.524412 0.142571 2.900852
1.568356 0.146681 3.989175
1.664414 0.155665 4.854827
0.868932 0.081267 8.443482
0.836958 0.078277 9.120328
0.676402 0.006013 0.288045
0.792952 0.007050 1.193387
0.822044 0.007308 1.944314
0.405000 0.003601 2.926934
1.627081 0.014465 4.476364
0.444497 0.003952 7.964709
0.750096 0.006669 8.827491
0.723282 -0.057430 -0.110651
0.834436 -0.066256 0.971237
0.832122 -0.066072 1.667273
1.048670 -0.083267 2.483735
1.459014 -0.115849 3.321122
1.545266 -0.122698 4.232730
0.467581 -0.037127 7.959925
0.595087 -0.099437 0.488353
0.957668 -0.160023 1.287221
1.216743 -0.203314 3.835939
1.397532 -0.233523 4.830848
1.135800 -0.189788 7.260097
0.884927 -0.147868 8.438371
0.619496 -0.103516 9.086683
0.583111 -0.151538 0.410664
0.764201 -0.198599 1.071868
0.791636 -0.205729 1.855999
0.642713 -0.167027 2.685707
0.976162 -0.253683 3.846394
1.344390 -0.349377 4.371005
1.138205 -0.295794 5.315876
0.861477 -0.223879 6.310023
0.800178 -0.207948 7.147978
0.837299 -0.217596 8.157776
0.761287 -0.197842 8.993293
0.505785 -0.175463 0.900619
0.787780 -0.273291 1.645202
1.007228 -0.349420 2.703218
1.105537 -0.383524 3.411713
1.055435 -0.366143 4.179119
1.106959 -0.384018 5.283048
0.849447 -0.294684 6.038014
0.778861 -0.270197 6.989148
0.719716 -0.249678 7.627796
0.640669 -0.222256 8.611378
0.607459 -0.268243 1.053011
0.771074 -0.340492 1.854854
0.825366 -0.364467 2.492974
0.791068 -0.349321 3.359943
0.873319 -0.385642 4.307264
1.053644 -0.465270 5.129802
0.842101 -0.371857 6.012296
0.759391 -0.335333 6.874554
0.728893 -0.321866 7.678408
0.675224 -0.298167 8.772191
0.666851 -0.370562 1.006202
0.628086 -0.349020 1.871646
0.616589 -0.342631 2.549576
0.661896 -0.367808 3.569352
0.837582 -0.465435 4.340270
0.877967 -0.487876 5.159802
0.752846 -0.418348 6.122612
0.773637 -0.429902 6.899247
0.741957 -0.412297 7.817209
0.628033 -0.348991 8.799611
0.625435 -0.420966 2.524328
0.614818 -0.413820 3.381355
0.713425 -0.480190 4.361995
0.692776 -0.466292 5.215136
0.691315 -0.465308 5.935070
0.787807 -0.530255 6.831613
0.724531 -0.487665 7.812466
0.617609 -0.415698 8.562648
0.458434 -0.372967 2.311648
0.545089 -0.443467 3.217390
0.693867 -0.564508 4.213413
0.544980 -0.443378 4.962314
0.604116 -0.491489 6.078593
0.738088 -0.600485 6.842617
0.621017 -0.505240 7.563334
0.549489 -0.447047 8.512472
0.544979 -0.518308 1.471338
0.432917 -0.411730 2.422657
0.482436 -0.458825 3.064248
0.552808 -0.525753 3.903318
0.466302 -0.443482 4.890777
0.546075 -0.519350 5.732313
0.721737 -0.686416 6.654280
0.611403 -0.581481 7.384135
0.199561 -0.226629 0.357788
0.442361 -0.502363 1.241391
0.417151 -0.473734 2.131382
0.439991 -0.499672 3.064248
0.521322 -0.592034 3.911970
0.481829 -0.547184 4.544081
0.610491 -0.693299 5.685794
0.705903 -0.801652 6.315941
0.630954 -0.716536 7.295685
0.539331 -0.612486 8.167664
0.356900 -0.405310 9.036354
0.156154 -0.210331 0.973843
0.380136 -0.512022 1.742043
0.408131 -0.549729 2.617604
0.471517 -0.635107 3.666596
0.500666 -0.674369 4.408815
0.576797 -0.776914 5.265160
0.642282 -0.865119 6.213361
0.569417 -0.766973 6.864623
0.482490 -0.649887 7.744672
0.366118 -0.493141 8.671319
0.307739 -0.498029 2.211726
0.353538 -0.572147 3.152892
0.404408 -0.654474 3.969642
0.359839 -0.582345 5.020733
0.412448 -0.667485 5.773012
0.534157 -0.864453 6.775154
0.456458 -0.738707 7.379646
0.400964 -0.648899 8.282016
0.467078 -0.932070 1.175047
0.256189 -0.511234 1.945201
0.262181 -0.523191 2.992170
0.307977 -0.614578 3.631310
0.311655 -0.621919 4.469359
0.357709 -0.713820 5.320950
0.448758 -0.895511 6.213821
0.439649 -0.877335 7.302232
0.384748 -0.767777 7.998488
0.252860 -0.504591 8.914475
0.238970 -0.591185 2.665178
0.281611 -0.696674 3.503009
0.304552 -0.753426 4.389441
0.355728 -0.880030 5.122139
0.388242 -0.960465 6.107396
0.361511 -0.894335 6.919629
0.328103 -0.811689 7.823490
0.276382 -0.683737 8.529465
0.177358 -0.579036 2.555844
0.195159 -0.637153 3.387586
0.228204 -0.745038 4.069109
0.240041 -0.783685 5.093726
0.266036 -0.868554 5.755379
0.290643 -0.948890 6.632296
0.274080 -0.894814 7.606443
0.251132 -0.819894 8.492714
0.115170 -0.546070 2.168640
0.137052 -0.649821 3.042085
0.155915 -0.739257 3.825927
0.133337 -0.632207 4.699368
0.169562 -0.803964 5.677662
0.220432 -1.045158 6.315941
0.204163 -0.968024 7.346209
0.180834 -0.857410 8.212904
0.137729 -0.653031 9.147730
0.082891 -0.646072 2.486202
0.092823 -0.723482 3.538354
0.093775 -0.730899 4.386463
0.113307 -0.883142 5.252829
0.132046 -1.029196 6.118376
0.126614 -0.986860 6.948379
0.131239 -1.022904 7.838921
0.123132 -0.959717 8.768633
0.022583 -0.599013 2.455957
0.024898 -0.660414 3.321094
0.028335 -0.751580 4.049491
0.029854 -0.791881 4.872862
0.035811 -0.949895 5.872920
0.039003 -1.034563 6.738069
0.039115 -1.037526 7.609886
0.036691 -0.973246 8.560162
-0.026170 -0.537313 2.258904
-0.030505 -0.626313 3.212223
-0.033955 -0.697137 4.010172
-0.027374 -0.562031 4.630222
-0.038318 -0.786719 5.614853
-0.053670 -1.101924 6.377845
-0.053434 -1.097086 7.247068
-0.052055 -1.068774 8.162113
-0.040071 -0.822726 9.158944
-0.078175 -0.598299 2.077200
-0.085829 -0.656879 3.019921
-0.097082 -0.742999 3.759580
-0.078528 -0.601001 4.569092
-0.103488 -0.792032 5.512032
-0.145208 -1.111326 6.487442
-0.132745 -1.015941 7.260374
-0.133154 -1.019076 8.205005
-0.119308 -0.913106 9.021272
-0.135586 -0.619394 2.609730
-0.163184 -0.745467 3.635686
-0.145547 -0.664898 4.560724
-0.169499 -0.774318 5.276766
-0.240821 -1.100135 6.362972
-0.244367 -1.116335 6.922896
-0.250298 -1.143429 8.027851
-0.232418 -1.061751 8.846114
-0.190023 -0.602693 2.576459
-0.204336 -0.648089 3.241521
-0.211257 -0.670042 4.300590
-0.273476 -0.867379 5.205549
-0.367505 -1.165612 6.000906
-0.378591 -1.200772 6.711853
-0.360481 -1.143332 7.783612
-0.352079 -1.116684 8.644243
-0.212071 -0.515582 2.157529
-0.257827 -0.626822 3.219365
-0.266885 -0.648843 3.786340
-0.282563 -0.686958 4.878834
-0.421465 -1.024653 5.738128
-0.528282 -1.284344 6.421840
-0.462061 -1.123348 7.327735
-0.435057 -1.057698 8.272670
-0.359581 -0.874202 9.015821
-0.327096 -0.638638 1.849512
-0.327834 -0.640077 2.759882
-0.332513 -0.649213 3.538354
-0.317673 -0.620238 4.480432
-0.455835 -0.889992 5.507043
-0.622816 -1.216014 6.280306
-0.599595 -1.170675 7.039212
-0.563142 -1.099504 7.969440
-0.498945 -0.974163 8.764008
-0.433158 -0.698546 2.797253
-0.425299 -0.685872 3.564967
-0.444531 -0.716886 4.441915
-0.585309 -0.943917 5.201906
-0.748340 -1.206833 6.138179
-0.766143 -1.235544 7.104488
-0.681810 -1.099541 7.878451
-0.652523 -1.052311 8.835739
-0.550781 -0.735272 2.746311
-0.580962 -0.775562 3.406659
-0.581000 -0.775613 4.205635
-0.688866 -0.919610 5.107903
-0.858194 -1.145657 6.047409
-0.885044 -1.181500 6.943718
-0.819191 -1.093589 7.728488
-0.746574 -0.996649 8.513984
-0.711657 -0.794810 2.714190
-0.761491 -0.850467 3.370027
-0.730869 -0.816268 4.447524
-0.784862 -0.876569 5.126633
-1.014261 -1.132773 5.967331
-1.030245 -1.150624 6.898312
-0.898889 -1.003920 7.630452
-0.886295 -0.989854 8.781503
-0.841100 -0.792861 2.543265
-0.885059 -0.834299 3.363755
-0.889442 -0.838431 4.455640
-0.984087 -0.927648 5.314681
-1.135139 -1.070036 6.061178
-1.107575 -1.044053 6.768174
-1.022914 -0.964248 7.799909
-0.986777 -0.930183 8.672762
-1.064633 -0.848035 2.617760
-1.019520 -0.812100 3.202712
-1.000334 -0.796817 4.040979
-1.038880 -0.827521 5.129424
-1.164310 -0.927432 5.750278
-1.313441 -1.046223 6.797045
-1.185232 -0.944098 7.441091
-1.154508 -0.919625 8.396855
-0.935436 -0.745123 9.327993
-1.180552 -0.781713 2.286631
-1.167001 -0.772740 3.151207
-1.172777 -0.776564 4.061061
-1.210946 -0.801838 4.914789
-1.346879 -0.891848 5.754054
-1.448939 -0.959427 6.542898
-1.364648 -0.903613 7.272945
-1.278369 -0.846483 8.181116
-1.203275 -0.796759 9.064491
-1.235511 -0.671245 2.538338
-1.262152 -0.685718 3.586260
-1.330774 -0.723000 4.368247
-1.553498 -0.844005 5.215513
-1.622702 -0.881603 6.116567
-1.525196 -0.828629 6.976316
-1.496723 -0.813159 7.887570
-1.407209 -0.764527 8.506183
-1.114468 -0.605483 9.633948
-1.339142 -0.580982 2.175129
-1.287314 -0.558497 2.866426
-1.304925 -0.566138 3.708142
-1.703734 -0.739160 4.722960
-1.886633 -0.818510 5.482630
-1.675262 -0.726807 6.307298
-1.538671 -0.667548 7.075800
-1.529106 -0.663398 8.209977
-1.406929 -0.610392 9.123788
-1.595842 -0.537466 0.821200
-1.579846 -0.532078 1.817070
-1.463689 -0.492958 2.736430
-1.359419 -0.457840 3.564517
-1.840133 -0.619741 4.364799
-2.166104 -0.729525 5.125566
-1.652591 -0.556578 5.768482
-1.519298 -0.511686 6.943899
-1.613249 -0.543328 7.753144
-1.527860 -0.514570 8.673842
-1.245012 -0.419309 9.392598
-1.539223 -0.376302 2.168314
-1.629251 -0.398312 3.172780
-2.197479 -0.537229 3.823431
-2.466258 -0.602939 4.737857
-2.139995 -0.523176 5.625313
-1.717128 -0.419795 6.416179
-1.572651 -0.384475 7.175573
-1.658193 -0.405387 8.280503
-1.475148 -0.360637 8.944702
-1.384987 -0.212489 0.250262
-1.595345 -0.244762 1.039225
-1.623566 -0.249092 1.829030
-1.648407 -0.252903 2.706231
-2.251472 -0.345427 3.725229
-2.516863 -0.386144 4.372654
-2.196884 -0.337052 5.220602
-1.730104 -0.265437 6.308346
-1.551610 -0.238052 7.184471
-1.734246 -0.266073 7.888587
-1.718009 -0.263582 8.895345
-1.995976 -0.145183 0.257216
-1.960155 -0.142578 1.083699
-1.705840 -0.124079 1.663641
-1.612813 -0.117313 2.698815
-1.988781 -0.144660 3.363266
-2.366506 -0.172135 4.166608
-2.124340 -0.154520 5.091699
-2.121168 -0.154290 5.963799
-1.980513 -0.144059 6.954347
-1.758633 -0.127919 7.674050
-1.707669 -0.124212 8.426022
-1.392232 -0.101268 9.522694
-1.959080 0.029999 0.836959
-1.732020 0.026522 1.587061
-1.727498 0.026453 2.474536
-2.123869 0.032522 3.416716
-2.336630 0.035780 4.299460
-2.180668 0.033392 5.095922
-2.149612 0.032916 5.949360
-1.911848 0.029275 6.823460
-1.695757 0.025967 7.720745
-1.715883 0.026275 8.323688
-1.564569 0.023958 9.367943
-1.951160 0.195999 0.912057
-1.757109 0.176506 1.790928
-1.905338 0.191396 2.656978
-2.275192 0.228549 3.263221
-2.337276 0.234785 4.179891
-1.942801 0.195159 4.885776
-1.712904 0.172065 5.959249
-1.647062 0.165451 6.656538
-1.689026 0.169667 7.597196
-1.725653 0.173346 8.410028
-1.504906 0.151172 9.254366
-2.022307 0.375976 0.717113
-1.746879 0.324770 1.444947
-1.738663 0.323242 2.320503
-2.100284 0.390473 3.265043
-2.299495 0.427509 4.084278
-1.809670 0.336444 4.998043
-1.570999 0.292071 5.977860
-1.515254 0.281708 6.731455
-1.546193 0.287460 7.609912
-1.624847 0.302082 8.506520
-1.463060 0.272004 9.260029
-1.903462 0.531552 1.426916
-2.040125 0.569716 3.891482
-2.279893 0.636672 4.564999
-1.993286 0.556636 7.138297
-1.459620 0.407607 8.094338
-1.465171 0.409157 9.069556
-1.780088 0.670003 0.354570
-1.728514 0.650591 1.302345
-1.568467 0.590352 2.000791
-1.611673 0.606614 2.767588
-2.047334 0.770592 3.830741
-1.300632 0.489542 7.172079
-1.342589 0.505334 7.816856
-1.843958 0.868639 1.006686
-1.617559 0.761989 1.725147
-1.733654 0.816678 2.678459
-2.053429 0.967315 3.361110
-2.116206 0.996888 4.320711
-1.676375 0.789695 5.094876
-1.220894 0.575130 5.837098
-0.996885 0.469606 6.681844
-1.239919 0.584093 7.750267
-1.555171 0.732599 8.458407
-1.408632 0.663568 9.335431
-1.643679 0.956672 0.333081
-1.661307 0.966932 1.310610
-1.477353 0.859865 2.161500
-1.178689 0.686033 3.011611
-1.927996 1.122154 4.689030
-1.512370 0.880246 5.635476
-0.895886 0.521434 6.275901
-0.805228 0.468668 7.447744
-1.211579 0.705176 8.162787
-1.382220 0.804495 9.074539
-1.639738 1.146181 0.128609
-1.545193 1.080094 0.881550
-1.423425 0.994978 1.694960
-1.526257 1.066858 2.617325
-1.852332 1.294785 3.533634
-1.939590 1.355779 4.339191
-1.550422 1.083750 5.002507
-1.335301 0.933379 6.017416
-1.099712 0.768702 6.899816
-1.043823 0.729635 7.905114
-1.351108 0.944428 8.722580
-1.225957 0.856948 9.510337
-1.346385 1.133280 1.650759
-1.359452 1.144278 2.460637
-1.567852 1.319692 3.121440
-1.737484 1.462475 4.155964
-1.507273 1.268702 5.025241
-0.992011 0.834995 5.644413
-0.378996 0.319008 6.691220
-1.256750 1.057831 8.339121
-1.199584 1.009714 9.161544
-1.267978 1.271764 1.271676
-1.488155 1.492598 3.784615
-1.497772 1.502244 4.615482
-1.097073 1.100348 5.497620
-0.660758 0.662730 6.596387
-0.766562 0.768851 7.317314
-1.164276 1.167752 8.123491
-1.144530 1.147947 8.944409
-1.086233 1.279846 0.507870
-1.175893 1.385488 1.152436
-1.085866 1.279414 2.044014
-1.004325 1.183339 2.844837
-1.171987 1.380886 3.834989
-1.258583 1.482917 4.614492
-1.013774 1.194473 5.407522
-0.647719 0.763171 6.371536
-0.747363 0.880576 7.417870
-1.037353 1.222254 7.896281
-1.009682 1.189651 8.787419
-0.825133 1.162890 0.195735
-0.834315 1.175829 1.141637
-0.879137 1.238999 1.867336
-0.894623 1.260823 2.758113
-1.043312 1.470376 3.748827
-1.146254 1.615455 4.262796
-0.935280 1.318122 5.400780
-0.548913 0.773603 6.030624
-0.683493 0.963271 7.141818
-0.955460 1.346564 7.751939
-0.950324 1.339324 8.576667
-0.796297 1.122249 9.654107
-0.736232 1.261966 1.685002
-0.739596 1.267732 2.316358
-0.744284 1.275767 3.177883
-0.834126 1.429763 4.035743
-0.824128 1.412627 4.969094
-0.614226 1.052836 5.979046
-0.608373 1.042804 6.855492
-0.768802 1.317794 7.630165
-0.837816 1.436089 8.312359
-0.798972 1.369507 9.237375
-0.710745 1.492139 0.432506
-0.717263 1.505823 1.178428
-0.606523 1.273336 2.188733
-0.602772 1.265462 2.844665
-0.647324 1.358995 3.788026
-0.619062 1.299661 4.596635
-0.494560 1.038282 5.497684
-0.394015 0.827195 6.475273
-0.548949 1.152466 7.248769
-0.708171 1.486736 8.112677
-0.676205 1.419627 9.069276
-0.395871 1.054256 0.241031
-0.417348 1.111452 0.973778
-0.470186 1.252166 1.722979
-0.443394 1.180816 2.624301
-0.467879 1.246022 3.529825
-0.482519 1.285010 4.449955
-0.409714 1.091121 5.039085
-0.301009 0.801626 6.089526
-0.405051 1.078704 6.977646
-0.608916 1.621620 7.904269
-0.605126 1.611528 8.469201
-0.488884 1.301961 9.500928
-0.391659 1.371021 1.425113
-0.348833 1.221108 2.360719
-0.337252 1.180569 3.197770
-0.356322 1.247322 3.973018
-0.329649 1.153954 4.701833
-0.283938 0.993939 5.748728
-0.347564 1.216665 6.441698
-0.438799 1.536037 7.336106
-0.441543 1.545643 8.414369
-0.372352 1.303438 9.130245
-0.070835 0.369712 0.290172
-0.228728 1.193817 1.793955
-0.218702 1.141489 2.641787
-0.238610 1.245396 3.667448
-0.243124 1.268955 4.403714
-0.203186 1.060502 5.350948
-0.181434 0.946970 6.298452
-0.243229 1.269502 7.054457
-0.316198 1.650354 8.027037
-0.306878 1.601710 8.874014
-0.216712 1.131101 9.789526
-0.153746 1.492605 -0.086830
-0.139627 1.355537 0.991313
-0.124447 1.208166 1.772092
-0.122585 1.190086 2.387008
-0.133823 1.299193 3.532025
-0.131774 1.279300 4.349157
-0.105732 1.026476 4.977795
-0.090952 0.882990 6.129891
-0.125085 1.214354 6.785708
-0.165116 1.602987 7.546395
-0.166003 1.611605 8.592773
-0.136453 1.324720 9.468914
-0.021415 1.225704 0.196717
-0.023748 1.359238 0.849720
-0.021044 1.204464 1.531563
-0.020751 1.187738 2.651084
-0.020796 1.190289 3.354907
-0.020324 1.163294 4.141112
-0.018127 1.037545 5.222513
-0.014989 0.857928 5.931442
-0.019733 1.129454 6.846224
-0.025292 1.447619 7.622560
-0.026171 1.497954 8.380843
-0.022390 1.281517 9.365578
0.085395 1.272547 -0.010915
0.077618 1.156658 0.843028
0.081256 1.210875 1.750228
0.067093 0.999817 2.486814
0.086040 1.282159 3.577876
0.107899 1.607908 4.335687
0.079155 1.179561 5.170398
0.056121 0.836311 5.968175
0.075884 1.130823 6.868133
0.095714 1.426330 7.659879
0.099287 1.479563 8.429433
0.088927 1.325188 9.561905
0.137204 0.864663 0.077169
0.131183 0.826719 0.971237
0.178376 1.124128 1.742547
0.215762 1.359739 2.846443
0.279741 1.762933 3.554900
0.247409 1.559177 4.492803
0.159865 1.007469 5.280658
0.144176 0.908598 6.339204
0.188895 1.190420 6.990954
0.225019 1.418076 7.952166
0.236135 1.488130 8.776511
0.166234 1.047607 9.625884
0.267594 1.119891 0.284677
0.253834 1.062308 1.162623
0.271818 1.137571 1.883747
0.359464 1.504374 2.768954
0.427774 1.790252 3.614991
0.248934 1.041799 7.376651
0.345085 1.444195 7.942384
0.285730 0.854782 0.264415
0.266076 0.795984 1.059512
0.399985 1.196585 1.704372
0.521983 1.561550 2.762006
0.643016 1.923630 3.468246
0.564937 1.690050 4.284353
0.356849 1.067539 5.122014
0.233867 0.699629 6.141325
0.322638 0.965196 6.933147
0.433184 1.295902 7.728488
0.423951 1.268279 8.585597
0.279817 0.837091 9.633534
0.526886 1.216965 0.239831
0.493521 1.139901 1.158287
0.466795 1.078169 1.993179
0.640254 1.478815 2.971165
0.750315 1.733026 3.588934
0.397063 0.917109 7.401168
0.486275 1.123163 8.039903
0.463782 1.071212 8.977708
0.626027 1.170430 0.392447
0.649867 1.215002 1.481336
0.393012 0.734781 2.165059
0.813835 1.521559 3.984980
0.322664 0.603257 7.344620
0.564632 1.055646 8.284455
0.544197 1.017440 9.257036
0.524810 0.800197 0.726209
0.942299 1.436756 3.365123
0.803937 1.225791 5.023439
0.568628 0.867008 5.770689
0.250192 0.381477 6.606173
0.404215 0.616321 7.495093
0.593153 0.904400 8.342650
0.576578 0.879129 9.257553
0.913575 1.158545 -0.021721
0.762551 0.967025 0.699405
0.717940 0.910452 1.653893
0.905024 1.147701 2.622084
1.151980 1.460878 3.266379
1.125365 1.427126 4.378577
0.811303 1.028850 4.987683
0.510798 0.647766 6.049100
0.401320 0.508931 6.996753
0.545496 0.691768 7.719559
0.673285 0.853823 8.731111
0.509902 0.646629 9.600979
0.731671 0.788237 0.076788
0.691412 0.744865 1.131834
0.915677 0.986468 1.908229
1.096671 1.181455 2.623057
1.235966 1.331518 3.628039
1.146273 1.234891 4.316739
0.830840 0.895072 5.276521
0.485570 0.523109 6.314886
0.453245 0.488286 7.244910
0.631041 0.679826 8.087901
0.785834 0.846587 8.922976
0.909364 0.824268 0.393429
0.998958 0.905479 1.351527
1.043688 0.946023 2.156097
1.375730 1.246993 2.898722
1.433361 1.299232 3.812171
1.145812 1.038590 4.650233
0.819485 0.742800 5.358612
0.439784 0.398631 6.515626
0.403497 0.365739 7.415773
0.675723 0.612491 8.263005
0.779899 0.706919 8.922723
0.953752 0.732468 0.415545
1.008144 0.774240 1.288567
1.097389 0.842779 2.157446
1.494912 1.148071 2.939887
1.487750 1.142571 3.980703
1.028488 0.789864 4.878608
0.743737 0.571180 5.605268
0.412020 0.316426 6.527480
0.345697 0.265490 7.516173
0.735878 0.565144 8.340089
0.796202 0.611472 9.048881
0.721953 0.459922 0.672862
0.887844 0.565603 1.482411
0.972555 0.619568 2.499473
1.405560 0.895415 3.347742
1.516425 0.966042 3.955921
1.338640 0.852784 4.986140
0.901784 0.574484 5.642936
0.282214 0.179785 6.637304
0.408059 0.259955 7.772337
0.816676 0.520266 8.412039
0.762723 0.485895 9.175443
0.626118 0.325096 0.642145
0.910334 0.472668 1.428416
0.988588 0.513300 2.259967
1.465658 0.761006 3.163963
1.635439 0.849161 4.147167
1.408208 0.731177 4.777316
1.046428 0.543332 5.705646
0.422630 0.219440 6.728667
0.405033 0.210304 7.489375
0.851257 0.441994 8.368039
0.822699 0.427166 9.274562
0.924270 0.388725 0.428607
1.011823 0.425547 1.338052
1.180727 0.496584 2.108277
1.533648 0.645014 2.999861
1.608569 0.676524 3.667264
1.642091 0.690622 4.721100
0.612789 0.257724 8.048374
0.846583 0.356051 9.010260
0.748861 0.238884 0.928243
0.868848 0.277160 1.719258
0.759388 0.242242 2.410774
1.797988 0.573552 4.327320
0.479233 0.152874 7.872492
0.901430 0.287553 8.669615
0.622314 0.198516 9.641368
0.880212 0.200738 0.440687
0.914098 0.208466 0.990852
1.375634 0.313722 3.851897
1.712614 0.390573 4.724065
0.552499 0.126001 8.067803
0.924377 0.210810 9.142361
0.769536 0.111580 0.419949
0.960551 0.139277 1.276223
0.887708 0.128715 1.940715
0.441684 0.064043 2.800824
1.659621 0.240640 4.689742
0.576135 0.083538 8.145547
0.783277 0.113573 8.899520
0.724531 0.042007 0.165976
0.841548 0.048791 1.191915
0.849405 0.049247 2.020334
0.567786 0.032919 2.758952
1.678911 0.097340 4.513978
0.530301 0.030746 8.017077
0.836477 0.048497 8.877757
0.550563 -0.017658 0.188918
0.713665 -0.022889 1.051716
0.846613 -0.027153 1.943114
0.677387 -0.021725 2.885147
1.058436 -0.033946 3.575966
1.542135 -0.049460 4.398046
1.189546 -0.038151 6.903463
0.801449 -0.025704 7.837741
0.837824 -0.026871 8.762088
0.571602 -0.066279 0.044424
0.738385 -0.085618 1.205920
0.838306 -0.097204 1.876920
0.792459 -0.091888 2.810022
1.162686 -0.134817 3.698459
1.400950 -0.162444 4.335650
1.153726 -0.133778 5.395793
0.875659 -0.101535 6.254916
0.745951 -0.086495 7.149964
0.826542 -0.095840 7.992303
0.844367 -0.097907 8.932921
0.615141 -0.124979 0.432595
0.800344 -0.162608 1.148491
0.837648 -0.170187 2.097547
0.705488 -0.143335 2.770949
0.967454 -0.196560 3.615587
1.216286 -0.247115 4.398260
1.107176 -0.224947 5.533942
0.930842 -0.189121 6.368341
0.789369 -0.160378 7.026534
0.825958 -0.167812 8.173754
0.699074 -0.142032 9.009546
0.579241 -0.172371 0.566041
0.882380 -0.262579 1.277804
0.687874 -0.204698 2.337764
0.506934 -0.150854 2.906892
0.723139 -0.215192 3.814870
1.100214 -0.327402 4.685756
0.887177 -0.264007 5.517197
0.765057 -0.227666 6.369636
0.824247 -0.245280 7.472380
0.774165 -0.230377 8.376421
0.501817 -0.149331 9.191795
0.862856 -0.333373 1.409940
0.619952 -0.239525 2.285233
0.591544 -0.228549 3.300951
0.870208 -0.336214 4.098158
1.055137 -0.407663 4.965527
0.903818 -0.349199 5.825328
0.849007 -0.328022 6.747685
0.808126 -0.312228 7.368620
0.735736 -0.284259 8.530225
0.374635 -0.144744 9.219283
0.806742 -0.396455 1.377759
0.597605 -0.293679 2.307396
0.616308 -0.302871 3.330134
0.757131 -0.372075 4.207566
0.882805 -0.433835 4.994924
0.865334 -0.425249 5.792330
0.867744 -0.426433 6.783447
0.817763 -0.401871 7.474310
0.694756 -0.341422 8.337283
0.291082 -0.143046 9.330691
0.770386 -0.464625 1.399795
0.579146 -0.349287 2.484676
0.638494 -0.385080 3.124970
0.763484 -0.460463 3.935419
0.669561 -0.403817 4.784476
0.691743 -0.417195 5.758443
0.818483 -0.493633 6.717442
0.747040 -0.450545 7.401698
0.304990 -0.220648 0.290172
0.601722 -0.435322 1.183799
0.510947 -0.369649 2.120291
0.528262 -0.382176 2.875833
0.627266 -0.453801 3.757273
0.630344 -0.456029 4.751326
0.714709 -0.517063 5.568060
0.779803 -0.564156 6.287452
0.710512 -0.514027 7.286985
0.657701 -0.475820 8.272007
0.411793 -0.297915 9.008395
0.366703 -0.319515 0.946245
0.502944 -0.438225 1.840707
0.458171 -0.399213 2.589137
0.537060 -0.467950 3.629084
0.628742 -0.547835 4.353641
0.702255 -0.611888 5.180337
0.792459 -0.690485 6.206201
0.751802 -0.655059 7.106552
0.692704 -0.603566 8.043857
0.558078 -0.486264 8.899188
0.623232 -0.645201 1.322669
0.471638 -0.488262 2.084455
0.483988 -0.501048 3.139885
0.530768 -0.549477 3.914373
0.456082 -0.472159 4.788051
0.542946 -0.562084 5.750914
0.686791 -0.710999 6.452406
0.625934 -0.647997 7.555994
0.206776 -0.251598 0.145264
0.423148 -0.514871 1.141663
0.379609 -0.461894 1.966209
0.373655 -0.454649 2.679550
0.456087 -0.554949 3.695491
0.489895 -0.596086 4.696067
0.537510 -0.654022 5.303405
0.654912 -0.796872 6.242958
0.589936 -0.717812 7.152606
0.522796 -0.636119 7.948154
0.381603 -0.464320 8.964634
0.344703 -0.503926 2.633524
0.409649 -0.598873 3.494096
0.458135 -0.669756 4.378399
0.544435 -0.795918 5.042000
0.582203 -0.851132 5.906048
0.551119 -0.805690 6.838437
0.549721 -0.803645 7.804490
0.444725 -0.650151 8.645889
0.266398 -0.474608 2.370058
0.320847 -0.571614 3.254594
0.379240 -0.675646 4.270587
0.461882 -0.822879 5.078120
0.498481 -0.888082 5.818180
0.466050 -0.830304 6.695437
0.439972 -0.783845 7.544976
0.375227 -0.668497 8.546430
0.277248 -0.608309 2.752194
0.298179 -0.654234 3.416634
0.338522 -0.742749 4.422563
0.388052 -0.851423 5.213362
0.418748 -0.918773 5.931652
0.407937 -0.895054 6.882420
0.409125 -0.897660 7.870464
0.370172 -0.812192 8.658079
0.196835 -0.552287 2.646242
0.233009 -0.653787 3.418731
0.274841 -0.771161 4.444643
0.309869 -0.869443 5.114276
0.354000 -0.993270 6.228153
0.327662 -0.919370 6.985619
0.317601 -0.891138 7.924069
0.300228 -0.842394 8.784566
0.155176 -0.578572 2.834965
0.186342 -0.694774 3.706558
0.187275 -0.698252 4.488756
0.225396 -0.840383 5.479867
0.276501 -1.030929 6.147538
0.265695 -0.990639 7.124178
0.248085 -0.924980 7.853252
0.235405 -0.877703 8.850669
0.098894 -0.560040 1.878557
0.105120 -0.595296 2.912657
0.126330 -0.715411 3.784019
0.116452 -0.659467 4.685417
0.135292 -0.766162 5.357360
0.176140 -0.997484 6.122132
0.170054 -0.963021 6.996615
0.172668 -0.977821 7.903443
0.158862 -0.899638 8.872698
0.051035 -0.593762 2.790565
0.059921 -0.697147 3.485168
0.058745 -0.683464 4.380763
0.073874 -0.859481 5.424734
0.091916 -1.069388 6.348854
0.087004 -1.012242 7.069255
0.087079 -1.013104 8.024321
0.078234 -0.910201 8.872698
0.000552 -0.614905 2.700099
0.000612 -0.681539 3.564853
0.000624 -0.695638 4.469359
0.000759 -0.845114 5.292373
0.000954 -1.062348 6.114620
0.000970 -1.080720 7.148376
0.000888 -0.989733 7.755772
0.000819 -0.912302 8.630815
-0.048052 -0.574502 2.490780
-0.055930 -0.668694 3.442989
-0.063058 -0.753923 4.093720
-0.077870 -0.931014 5.202354
-0.093080 -1.112853 5.971884
-0.098107 -1.172956 6.826882
-0.094070 -1.124699 7.683616
-0.092537 -1.106367 8.599979
-0.104451 -0.603246 2.243658
-0.116996 -0.675700 2.995917
-0.128367 -0.741373 3.792755
-0.113817 -0.657340 4.663256
-0.133081 -0.768597 5.559607
-0.195425 -1.128659 6.483457
-0.204369 -1.180312 7.511777
-0.185998 -1.074211 8.260828
-0.145463 -0.840107 9.059687
-0.153927 -0.599947 2.766667
-0.177027 -0.689980 3.629084
-0.170480 -0.664463 4.380763
-0.232491 -0.906159 5.403755
-0.312329 -1.217338 6.062734
-0.313334 -1.221254 7.161433
-0.276184 -1.076457 7.857473
-0.256899 -1.001294 8.719759
-0.226390 -0.638750 2.506832
-0.240811 -0.679437 3.438767
-0.259225 -0.731390 4.281638
-0.320388 -0.903962 5.199158
-0.424260 -1.197030 5.982586
-0.449488 -1.268211 6.921609
-0.394140 -1.112049 7.685164
-0.395098 -1.114751 8.698953
-0.296534 -0.652861 2.326697
-0.324829 -0.715155 3.310913
-0.362929 -0.799037 4.048093
-0.432004 -0.951117 4.875940
-0.554533 -1.220880 5.949707
-0.583093 -1.283759 6.552416
-0.541119 -1.191347 7.558812
-0.523782 -1.153178 8.372623
-0.425748 -0.937342 9.274139
-0.430262 -0.773363 2.195453
-0.431961 -0.776416 3.025288
-0.478825 -0.860651 4.115097
-0.513750 -0.923425 4.974728
-0.614638 -1.104763 5.593320
-0.710326 -1.276754 6.399062
-0.652074 -1.172053 7.462367
-0.593857 -1.067411 8.154149
-0.547371 -0.983857 9.021494
-0.537890 -0.789355 2.103370
-0.566865 -0.831877 2.928056
-0.595981 -0.874604 3.841643
-0.577931 -0.848116 4.722212
-0.731034 -1.072795 5.655322
-0.849561 -1.246734 6.380281
-0.744320 -1.092292 7.218054
-0.715432 -1.049898 8.144180
-0.704617 -1.034027 9.234567
-0.739482 -0.906847 2.366606
-0.722718 -0.886288 3.083288
-0.715307 -0.877201 4.077957
-0.680788 -0.834868 4.727359
-0.860536 -1.055299 5.746364
-1.013535 -1.242926 6.498349
-0.903345 -1.107797 7.389651
-0.836778 -1.026164 8.280972
-0.799485 -0.980431 9.070548
-0.868046 -0.906091 2.087751
-0.829137 -0.865477 3.145081
-0.843522 -0.880493 3.947640
-0.791453 -0.826141 4.652905
-0.902546 -0.942103 5.520966
-1.132669 -1.182313 6.392943
-1.041698 -1.087354 7.252085
-0.949759 -0.991387 8.146022
-0.946047 -0.987512 9.070233
-1.053575 -0.921343 1.982016
-1.032906 -0.903268 2.781114
-1.009267 -0.882596 3.638812
-0.994939 -0.870066 4.444591
-1.132375 -0.990252 5.504471
-1.240114 -1.084470 6.136394
-1.222490 -1.069058 6.917953
-1.176372 -1.028728 7.949387
-1.123459 -0.982456 8.711387
-1.161988 -0.848517 2.656339
-1.123117 -0.820132 3.349121
-1.099379 -0.802798 4.109694
-1.206111 -0.880737 5.042023
-1.399547 -1.021990 6.034792
-1.403423 -1.024820 6.842543
-1.271650 -0.928596 7.486073
-1.267058 -0.925243 8.592520
-1.014476 -0.740800 9.475283
-1.251800 -0.755539 2.218587
-1.176965 -0.710371 3.153175
-1.169906 -0.706110 3.911158
-1.460284 -0.881371 4.719199
-1.489006 -0.898706 5.559965
-1.303642 -0.786828 6.467078
-1.369392 -0.826512 7.346933
-1.403070 -0.846839 8.441635
-1.315749 -0.794135 9.248702
1.384425 -0.015036 2.430869
1.141499 -0.012398 3.344285
2.018505 -0.021923 5.648420
1.599177 -0.017368 6.405263
1.376252 -0.014947 7.281953
1.373452 -0.014917 8.179723
1.292299 -0.014036 9.057003
1.102081 -0.011970 10.126126
1.283598 -0.109062 1.939635
1.345472 -0.114320 2.933996
1.667503 -0.141681 4.175930
2.150969 -0.182760 5.027501
1.890201 -0.160603 5.923071
1.490150 -0.126612 6.969424
1.345317 -0.114306 7.906423
1.305789 -0.110948 8.659357
1.149953 -0.097707 9.601394
0.515279 -0.043781 10.537698
1.710804 -0.284780 0.578354
1.208688 -0.201198 1.442610
1.377948 -0.229373 2.710466
1.190486 -0.198168 3.471459
1.783529 -0.296886 5.866711
1.473177 -0.245225 6.527752
1.317189 -0.219259 7.600095
1.328429 -0.221130 8.598956
1.213864 -0.202060 9.435691
0.817653 -0.136106 10.277226
1.068122 -0.266683 1.053419
1.339744 -0.334500 2.285426
1.379001 -0.344301 3.454937
1.746611 -0.436084 4.456295
1.841805 -0.459852 5.514988
1.561523 -0.389872 6.362359
1.330881 -0.332287 7.303530
1.336621 -0.333720 8.158146
1.241425 -0.309952 9.288149
0.983702 -0.245605 10.035995
1.228438 -0.414735 1.100907
1.399930 -0.472633 2.234201
1.255957 -0.424026 3.092817
1.338623 -0.451935 4.087566
1.581698 -0.534000 5.111175
1.529702 -0.516446 6.022975
1.287764 -0.434765 7.007089
1.285922 -0.434143 8.131863
1.283300 -0.433257 8.989722
1.066981 -0.360226 9.785890
0.972020 -0.413288 0.391343
1.326342 -0.563940 1.581043
1.324913 -0.563332 2.581144
1.275927 -0.542504 3.739117
1.462499 -0.621832 4.835787
1.426287 -0.606435 5.664493
1.227931 -0.522097 6.661294
1.204584 -0.512170 7.729731
1.236532 -0.525754 8.475728
1.137998 -0.483859 9.558662
0.686480 -0.291881 10.522479
1.263151 -0.662520 2.384947
1.172218 -0.614826 3.602050
1.212920 -0.636174 4.507400
1.226340 -0.643212 5.403754
1.262338 -0.662094 6.489174
1.319008 -0.691817 7.351059
1.249001 -0.655099 8.253750
1.134686 -0.595140 9.277334
0.819196 -0.429667 10.312500
1.061963 -0.670272 0.851849
1.298563 -0.819606 1.989483
1.138513 -0.718588 3.028022
1.197460 -0.755794 4.076788
1.214275 -0.766406 5.209732
1.225758 -0.773654 6.278763
1.254620 -0.791871 7.023211
1.203985 -0.759912 7.920951
1.156327 -0.729832 8.914175
0.922814 -0.582447 10.024837
0.808499 -0.596684 0.596142
1.104172 -0.814895 1.775082
1.109714 -0.818985 2.764391
1.126097 -0.831076 3.695983
1.191303 -0.879199 4.666612
1.216522 -0.897811 5.712054
1.154040 -0.851698 6.899305
1.101408 -0.812855 7.685657
1.064984 -0.785973 8.728550
0.989577 -0.730323 9.601971
0.601341 -0.443798 10.511519
1.046780 -0.914398 2.336597
0.980304 -0.856329 3.334782
1.037142 -0.905979 4.299444
0.995694 -0.869772 5.248818
1.032829 -0.902211 6.282896
1.128617 -0.985886 7.308034
1.087012 -0.949542 8.081359
0.993255 -0.867642 9.050344
0.824192 -0.719960 10.003106
1.010094 -1.028719 1.654074
0.963820 -0.981592 2.775179
0.950864 -0.968397 3.836223
1.024702 -1.043597 4.731185
1.040276 -1.059458 5.819604
1.044060 -1.063312 6.764855
0.999542 -1.017973 7.652507
0.976647 -0.994656 8.618593
0.879457 -0.895673 9.439600
0.462195 -0.470717 10.410780
0.751976 -0.912170 1.414850
0.859783 -1.042944 2.371754
0.862813 -1.046619 3.411112
0.890196 -1.079836 4.585711
0.890890 -1.080677 5.442406
0.901921 -1.094059 6.521502
0.917430 -1.112871 7.453541
0.884276 -1.072655 8.361567
0.825164 -1.000950 9.180027
0.611738 -0.742057 10.228626
0.656995 -0.927206 1.029492
0.867655 -1.224508 2.013513
0.776373 -1.095683 3.038819
0.809515 -1.142456 4.130686
0.783774 -1.106128 5.026393
0.807410 -1.139486 6.072094
0.862941 -1.217855 7.216746
0.805930 -1.137397 8.205970
0.774643 -1.093242 9.076091
0.644572 -0.909674 9.861896
0.645591 -1.085274 1.785104
0.675402 -1.135387 2.781232
0.629126 -1.057595 3.998600
0.664799 -1.117563 4.848902
0.731787 -1.230173 6.034923
0.774390 -1.301791 6.883399
0.702807 -1.181455 7.911266
0.722285 -1.214200 8.655346
0.678457 -1.140521 9.628006
0.312667 -0.525609 10.393246
0.558116 -1.131382 2.641936
0.586551 -1.189025 3.425289
0.603227 -1.222827 4.528981
0.681033 -1.380553 5.604579
0.692705 -1.404214 6.770726
0.645898 -1.309328 7.614443
0.606674 -1.229816 8.603383
0.559491 -1.134168 9.540859
0.375054 -0.760289 10.324315
0.451931 -1.134642 1.306492
0.502850 -1.262480 2.350166
0.476660 -1.196728 3.378023
0.509578 -1.279371 4.299444
0.494993 -1.242754 5.287601
0.501365 -1.258753 6.461314
0.561874 -1.410670 7.334748
0.527947 -1.325490 8.167536
0.483248 -1.213268 9.281345
0.412510 -1.035668 10.216467
0.378921 -1.224531 1.731021
0.399954 -1.292502 2.684041
0.368508 -1.190881 3.944471
0.388792 -1.256432 4.794867
0.443729 -1.433969 5.755065
0.452056 -1.460879 6.818908
0.412368 -1.332622 7.937673
0.415915 -1.344082 8.832158
0.395755 -1.278935 9.552405
0.265455 -1.184086 1.328155
0.300472 -1.340280 2.307002
0.297458 -1.326838 3.400318
0.309471 -1.380419 4.531812
0.309226 -1.379328 5.491803
0.323800 -1.444336 6.365694
0.321804 -1.435435 7.560623
0.310937 -1.386961 8.467678
0.309979 -1.382687 9.221934
0.248631 -1.109038 10.241597
0.166012 -1.164822 0.921010
0.213333 -1.496851 1.981255
0.191369 -1.342744 3.078822
0.194826 -1.366995 4.019501
0.181062 -1.270422 5.006828
0.203829 -1.430170 5.981066
0.223028 -1.564873 6.932002
0.212467 -1.490776 7.892461
0.201800 -1.415927 8.991524
0.184688 -1.295864 9.746851
0.088368 -1.359944 2.495603
0.084709 -1.303636 3.573119
0.089381 -1.375538 4.568145
0.097156 -1.495184 5.765820
0.101213 -1.557616 6.792201
0.095827 -1.474737 7.651751
0.091273 -1.404649 8.543123
0.090890 -1.398758 9.473838
0.064551 -0.993411 10.166670
-0.023401 -1.413774 2.188384
-0.021541 -1.301389 3.168455
-0.022350 -1.350270 4.033997
-0.020380 -1.231252 4.911449
-0.022169 -1.339372 5.989509
-0.026131 -1.578694 7.055475
-0.024640 -1.488649 7.978503
-0.024169 -1.460196 8.963424
-0.021911 -1.323781 9.815386
-0.118424 -1.224004 1.955698
-0.129851 -1.342113 2.778198
-0.126356 -1.305991 3.987417
-0.119407 -1.234164 4.785752
-0.130026 -1.343920 5.946322
-0.155962 -1.611984 6.873108
-0.145427 -1.503098 7.870957
-0.135538 -1.400887 8.976545
-0.128593 -1.329103 9.739779
-0.203237 -1.124111 0.586147
-0.243932 -1.349193 1.628908
-0.239119 -1.322572 2.872313
-0.237778 -1.315158 3.818233
-0.237184 -1.311875 4.730053
-0.258918 -1.432083 5.732046
-0.289859 -1.603221 6.717484
-0.277252 -1.533488 7.757679
-0.255704 -1.414308 8.804134
-0.243425 -1.346389 9.689556
-0.135781 -0.751010 10.390985
-0.325455 -1.275298 2.635980
-0.340162 -1.332927 3.688707
-0.346044 -1.355975 4.771673
-0.372518 -1.459712 5.733558
-0.408282 -1.599855 6.733779
-0.402982 -1.579085 7.783266
-0.392895 -1.539560 8.664686
-0.372718 -1.460496 9.446434
-0.242800 -0.951414 10.453269
-0.435181 -1.287373 2.350166
-0.439706 -1.300758 3.191101
-0.452198 -1.337713 4.449531
-0.506704 -1.498956 5.340571
-0.516690 -1.528497 6.453914
-0.502656 -1.486981 7.334418
-0.513261 -1.518352 8.178948
-0.515349 -1.524529 9.132336
-0.421281 -1.246254 10.045880
-0.591396 -1.371824 2.263797
-0.607164 -1.408399 3.016965
-0.583211 -1.352837 4.327185
-0.553223 -1.283277 5.257205
-0.617064 -1.431364 6.145799
-0.680707 -1.578993 7.232086
-0.653942 -1.516907 8.188365
-0.636675 -1.476854 8.988737
-0.543074 -1.259733 9.833549
-0.702167 -1.327221 2.792548
-0.725754 -1.371804 3.883005
-0.713706 -1.349032 4.876180
-0.739952 -1.398642 5.638479
-0.799699 -1.511575 6.589528
-0.787052 -1.487668 7.771754
-0.800847 -1.513744 8.543240
-0.743521 -1.405388 9.404567
-0.476867 -0.901364 10.358553
-0.854041 -1.341484 2.368525
-0.865892 -1.360100 3.514234
-0.942644 -1.480658 4.431778
-0.957544 -1.504061 5.462012
-0.958948 -1.506267 6.595857
-0.963589 -1.513557 7.359956
-0.896453 -1.408103 8.502111
-0.892714 -1.402229 9.427167
-0.771292 -1.211506 10.085149
-0.096749 -0.129254 -0.813882
-1.072162 -1.432375 1.946041
-0.955882 -1.277029 2.989388
-0.959720 -1.282156 4.154770
-0.931550 -1.244522 5.057086
-0.980840 -1.310372 6.142086
-1.116106 -1.491083 7.162608
-1.062330 -1.419241 8.089684
-1.033855 -1.381199 8.898657
-0.972139 -1.298747 9.848909
-1.098485 -1.243415 2.713612
-1.129020 -1.277978 3.636854
-1.169732 -1.324062 4.850402
-1.241838 -1.405681 5.702289
-1.297114 -1.468250 6.512947
-1.214183 -1.374378 7.657893
-1.191784 -1.349023 8.482021
-1.153585 -1.305784 9.560538
-0.942438 -1.066780 10.357939
-1.284923 -1.254966 2.462182
-1.298879 -1.268597 3.284297
-1.313867 -1.283236 4.420553
-1.266223 -1.236702 5.218531
-1.271377 -1.241736 6.413556
-1.384135 -1.351865 7.300963
-1.316703 -1.286005 8.401258
-1.321613 -1.290801 9.073561
-1.164674 -1.137520 9.981207
-1.550474 -1.267562 2.092715
-1.389865 -1.136258 3.183726
-1.454910 -1.189435 4.097427
-1.493810 -1.221237 4.918478
-1.487446 -1.216035 5.929157
-1.488845 -1.217178 7.120103
-1.423445 -1.163711 8.013933
-1.388351 -1.135021 8.800458
-1.334771 -1.091218 9.678138
-1.363324 -0.952231 0.624577
-1.644678 -1.148746 1.783298
-1.520249 -1.061837 2.920038
-1.568929 -1.095838 3.724376
-1.633079 -1.140645 4.695272
-1.647885 -1.150986 5.883710
-1.651370 -1.153421 6.716285
-1.521739 -1.062878 7.673599
-1.528144 -1.067351 8.548933
-1.479605 -1.033449 9.646874
-1.156282 -0.807620 10.454933
-1.841389 -1.093630 1.628577
-1.674415 -0.994461 2.560856
-1.696023 -1.007294 3.451105
-1.707582 -1.014159 4.624714
-1.638672 -0.973232 5.585162
-1.706178 -1.013325 6.406688
-1.687622 -1.002304 7.529235
-1.640251 -0.974170 8.314649
-1.625848 -0.965616 9.267081
-1.423714 -0.845566 10.138359
-17.760813 -8.676816 -4.751758
-1.542429 -0.753534 0.975745
-1.849707 -0.903650 2.159896
-1.781165 -0.870165 3.173358
-1.756656 -0.858192 4.281827
-1.925985 -0.940915 5.273343
-1.996764 -0.975493 6.273628
-1.819846 -0.889062 7.120411
-1.721393 -0.840964 8.272080
-1.760918 -0.860274 9.158286
-1.575320 -0.769602 9.988585
-1.798342 -0.710787 0.826248
-1.854382 -0.732937 2.041968
-1.812424 -0.716353 3.033351
-1.765413 -0.697772 4.033536
-2.017432 -0.797381 5.178163
-2.197581 -0.868585 6.017671
-1.928252 -0.762133 7.019794
-1.840660 -0.727513 7.820683
-1.829838 -0.723236 8.677748
-1.736663 -0.686409 9.732949
-1.257598 -0.497060 10.513091
-2.034565 -0.615229 1.526800
-1.949026 -0.589363 2.377742
-1.844371 -0.557717 3.681816
-2.289595 -0.692347 4.569705
-2.447423 -0.740073 5.664804
-2.084422 -0.630305 6.676095
-1.866024 -0.564264 7.593016
-1.852014 -0.560028 8.440934
-1.843796 -0.557543 9.207320
-1.602692 -0.484636 10.009845
-2.105428 -0.467704 2.182258
-2.034772 -0.452009 3.182828
-2.397316 -0.532545 4.440163
-2.686135 -0.596704 5.515268
-2.279341 -0.506338 6.445983
-1.980557 -0.439965 7.221274
-1.920710 -0.426671 8.006227
-1.923721 -0.427339 9.094521
