0.019822 -1.308555 6.586450
-0.033349 -1.160561 7.115900
0.086381 -1.483296 7.772024
0.193904 -1.772265 8.512609
0.303086 -2.067100 9.017618
0.294463 -2.039132 9.800787
0.299808 -2.051069 10.264350
0.230002 -1.858026 10.739779
0.085224 -1.460442 11.234559
-0.109058 -0.928791 11.569280
0.399814 -1.896012 4.549154
0.420258 -1.934681 5.700924
0.367142 -1.817215 6.363883
0.170540 -1.392698 6.611505
0.105354 -1.249867 7.139874
0.232502 -1.520189 7.888418
0.384303 -1.843015 8.762629
0.500999 -2.091546 9.356856
0.543776 -2.181312 9.862378
0.456249 -1.990628 10.335822
0.338534 -1.734065 10.996616
0.154926 -1.337412 11.269370
0.613246 -1.962204 4.943070
0.482975 -1.730773 5.419780
0.554046 -1.853715 5.995910
0.473448 -1.709618 6.520325
0.287241 -1.380345 6.815975
0.210496 -1.242101 7.576519
0.406358 -1.584995 8.135346
0.585935 -1.897956 9.006508
0.699349 -2.095971 9.465603
0.664606 -2.032183 10.113321
0.498303 -1.737058 10.641740
0.354079 -1.481182 11.082725
0.092998 -1.020203 11.322197
0.488726 -1.453981 3.674824
0.779387 -1.863521 4.603132
0.778800 -1.858469 5.843675
0.581937 -1.577490 6.272646
0.206068 -1.042478 6.663494
0.222771 -1.064877 7.050813
0.421394 -1.343877 7.937888
0.865479 -1.969593 9.355423
0.876816 -1.983351 10.043448
0.675142 -1.695974 10.345353
0.482933 -1.421254 10.877284
0.645909 -1.472597 3.543980
0.964715 -1.856666 4.474184
0.937420 -1.822057 4.955284
0.769729 -1.617065 5.430986
0.742622 -1.581970 6.143711
0.670528 -1.493137 6.575845
0.340991 -1.091398 7.153722
0.418948 -1.184691 7.583477
0.614686 -1.419967 8.327142
0.902441 -1.767109 9.011186
1.022058 -1.910594 9.560836
0.835950 -1.682687 10.219382
0.705923 -1.523403 10.696687
0.579322 -1.368270 11.176275
0.136720 -0.829875 11.567967
0.726536 -1.374198 3.638455
1.138540 -1.794817 4.615845
0.995543 -1.643335 6.233326
0.664615 -1.301942 6.710229
0.494890 -1.126186 7.191168
0.172837 -0.794530 7.448577
0.926077 -1.563784 9.142097
0.966417 -1.603552 9.741543
0.976378 -1.612486 10.204955
0.898212 -1.530718 10.719821
0.539517 -1.160850 11.176363
1.299342 -1.696046 4.596126
1.108738 -1.531053 4.836818
0.736442 -1.208769 5.310951
0.874199 -1.325710 6.028699
0.818148 -1.275892 6.601342
0.600516 -1.087326 6.943891
0.552226 -1.043600 7.748812
0.887919 -1.331895 8.211579
1.095247 -1.508550 9.038475
1.106067 -1.516088 9.731442
1.116328 -1.523736 10.195939
1.130319 -1.534604 10.658638
0.711033 -1.171605 11.207267
0.000829 -0.558659 11.395537
1.221048 -1.411622 5.084557
0.977171 -1.235783 5.421853
1.014451 -1.260703 6.182733
0.922827 -1.193905 6.614808
0.685690 -1.022331 7.189336
0.675308 -1.013728 7.667022
0.926394 -1.192139 8.408998
1.221248 -1.402207 9.048940
1.340839 -1.486489 9.690005
1.425955 -1.546362 10.193290
1.196059 -1.379783 10.851680
0.872196 -1.146927 11.028107
0.078983 -0.576981 11.307125
1.459754 -1.399011 5.209045
1.247848 -1.269263 5.451595
1.135744 -1.199391 6.117052
0.956362 -1.088609 6.736106
0.828342 -1.009884 7.030795
0.506738 -0.812589 7.564952
1.280653 -1.279656 9.639163
1.413268 -1.359043 10.277100
1.238873 -1.251629 10.753096
0.943746 -1.070993 11.062018
0.268766 -0.658671 11.416413
1.655319 -1.304026 5.257755
1.184653 -1.070379 5.590320
1.112345 -1.033339 6.165413
1.089802 -1.021132 6.646117
0.786780 -0.869714 7.314031
0.776700 -0.863684 7.791020
1.301176 -1.120312 9.127658
1.561268 -1.247244 9.942392
1.539922 -1.235471 10.495837
1.276805 -1.104309 10.931594
0.885639 -0.910138 11.202719
1.930419 -1.225014 4.933440
1.333890 -0.988022 6.314702
1.140519 -0.910839 6.933672
0.947014 -0.833081 7.800317
1.410676 -1.011821 9.324351
1.635875 -1.098757 10.006076
1.613658 -1.088871 10.561357
1.498301 -1.042990 10.852764
0.776759 -0.758647 11.423542
2.050831 -1.059127 5.096973
1.713776 -0.958712 5.522968
1.465432 -0.884389 6.001064
1.222279 -0.811594 6.482054
1.024632 -0.751950 7.104719
0.751669 -0.670622 7.452472
-0.125528 -0.410973 7.736081
1.655889 -0.933627 9.434159
1.802421 -0.975603 10.070682
1.529275 -0.893589 10.728500
1.323935 -0.832430 10.980171
0.582813 -0.612373 11.555384
1.937008 -0.854381 5.239820
1.718304 -0.806840 5.854732
1.595006 -0.779404 6.517794
1.312681 -0.718941 6.857906
1.337529 -0.722970 7.473616
0.974824 -0.645566 7.774134
1.722111 -0.800951 9.198474
1.826875 -0.821667 9.931243
1.673654 -0.788006 10.539172
1.333597 -0.715383 10.846709
0.830304 -0.607885 11.309673
2.151597 -0.705496 5.176268
2.065875 -0.693719 5.744760
1.851426 -0.665854 6.357297
1.516533 -0.623379 6.787297
1.143981 -0.576487 7.083487
0.816325 -0.534892 7.523262
0.224059 -0.460189 8.072991
1.851796 -0.659159 9.772400
1.995732 -0.676236 10.184680
1.752386 -0.644869 10.751685
1.241041 -0.580409 11.208363
0.272564 -0.459468 11.492611
2.105821 -0.510720 5.560158
1.985713 -0.505517 5.989380
1.732894 -0.495404 6.464650
1.438024 -0.483576 7.035846
1.200511 -0.474462 7.285348
0.556719 -0.450289 7.689684
1.774274 -0.491294 9.328361
1.924255 -0.495486 9.968292
1.768219 -0.488628 10.575998
1.421164 -0.475422 10.883472
0.945447 -0.457423 11.252231
2.344827 -0.322278 5.194585
2.069774 -0.334138 5.899620
2.040329 -0.334619 6.377538
1.702233 -0.350053 6.808502
1.232404 -0.371725 7.293033
0.767948 -0.393121 7.786270
0.443654 -0.408313 8.001477
1.902411 -0.334449 9.850183
1.916338 -0.332870 10.313827
1.620124 -0.346275 10.751072
1.197755 -0.365636 11.248492
2.319744 -0.132790 5.273053
2.198120 -0.147962 5.700367
2.119375 -0.157212 6.267018
1.689085 -0.212666 6.879478
1.406392 -0.249222 7.219459
1.037390 -0.297224 7.518699
0.804357 -0.326494 8.236434
1.980591 -0.168662 9.722019
1.913513 -0.176217 10.368943
1.659352 -0.209008 10.712637
1.278069 -0.258424 11.114890
2.121417 0.014031 5.644386
2.273673 0.047571 5.984966
2.065337 0.003836 6.595877
1.563603 -0.103764 6.934011
1.018434 -0.220530 7.375111
1.094645 -0.202572 8.129044
1.622385 -0.087222 8.858568
1.940689 -0.017073 9.585817
1.902259 -0.024702 9.917214
1.710045 -0.064777 10.618425
1.386172 -0.133604 11.150676
0.997561 -0.217105 11.331775
1.187374 -0.087966 3.503121
2.208438 0.235846 5.875354
2.180971 0.228240 6.349914
1.637215 0.059742 7.008912
1.325145 -0.037321 7.211825
1.525686 0.026762 7.913882
1.780510 0.108063 8.743810
1.869451 0.136891 9.253654
1.837261 0.127981 9.811559
1.850314 0.133010 10.275309
1.617405 0.061426 10.844683
1.324568 -0.029601 11.061131
1.194773 0.012130 3.495417
0.964929 -0.079808 4.124126
2.057560 0.367346 5.911821
1.904224 0.306225 6.432563
1.674389 0.213967 6.908465
1.449517 0.123729 7.387116
1.730300 0.238754 7.901255
1.809406 0.272424 8.643715
1.854984 0.292192 9.246078
1.861981 0.296015 9.711603
1.751157 0.252135 10.227755
1.646118 0.210604 10.744182
1.168375 0.017712 11.203096
1.174900 0.103248 3.523669
1.127242 0.080230 4.013914
2.095617 0.573628 5.756937
1.823418 0.437257 6.322745
1.564392 0.307046 6.660798
1.542302 0.297432 7.368881
1.691373 0.374032 7.931658
1.806985 0.433908 8.581980
1.888081 0.476028 9.092537
1.781633 0.423842 9.835391
1.793773 0.430998 10.299494
1.658240 0.363814 10.908042
1.150911 0.108048 11.236134
1.647350 0.505849 8.178899
1.837199 0.623686 8.871916
1.916655 0.673510 9.382181
1.740287 0.567131 10.084276
1.607405 0.487170 10.695237
1.422933 0.374804 10.951210
0.825871 0.010119 11.342206
1.203355 0.350973 3.784255
1.244459 0.383834 4.701477
1.533804 0.600812 5.286058
1.606795 0.656820 5.954354
1.545410 0.612485 6.525061
1.599416 0.653992 7.047125
1.692900 0.725236 7.703171
1.721698 0.748173 8.310365
1.722417 0.750408 9.006365
1.799117 0.808787 9.514170
1.700998 0.736952 10.029760
1.607885 0.668847 10.545653
1.402975 0.517043 10.891846
0.706282 -0.000645 11.432386
1.257218 0.526510 3.783298
1.333641 0.596144 4.608432
1.459162 0.708867 5.333232
1.564163 0.803088 5.911289
1.571595 0.811269 6.530814
1.652185 0.884155 7.192522
1.705687 0.933351 7.941077
1.766639 0.987921 8.229004
1.732732 0.960045 9.018382
1.735322 0.963556 9.486462
1.642406 0.882869 10.004498
1.524385 0.780259 10.615528
1.274339 0.560881 11.151406
0.836049 0.174180 11.261518
1.016718 0.427543 3.665459
1.257507 0.680205 4.261375
1.394567 0.825520 5.129555
1.394901 0.827628 5.751578
1.462394 0.899859 6.417068
1.630919 1.077251 7.030694
1.649042 1.097865 7.640340
1.704082 1.156689 8.154629
1.763161 1.219713 8.665726
1.674956 1.129874 9.406982
1.646508 1.101158 9.737850
1.563453 1.016047 10.252935
1.421011 0.868926 10.729315
0.972882 0.403297 11.244501
1.083785 0.637808 3.381419
1.232584 0.823152 4.165518
1.422020 1.058134 4.848379
1.419207 1.056611 5.471485
1.446252 1.092214 6.231138
1.567460 1.243405 6.938929
1.582659 1.263984 7.549711
1.603143 1.291050 8.157143
1.656571 1.358315 8.669310
1.713664 1.430076 9.178216
1.633216 1.332783 9.692751
1.447835 1.106952 10.352216
1.343155 0.979470 10.737292
1.041349 0.609613 11.103311
1.058949 0.792437 4.257426
1.276379 1.118317 4.987388
1.275296 1.118889 5.609051
1.355792 1.240597 6.182014
1.462944 1.402410 6.887873
1.476409 1.424569 7.496530
1.519844 1.490958 8.010015
1.492745 1.453420 8.795565
1.544499 1.532155 9.302045
1.521199 1.498663 9.631072
1.504516 1.475798 10.183963
1.293848 1.164705 10.802305
1.049332 0.802057 11.071734
0.931338 0.767877 3.473043
1.057510 0.995676 4.019386
1.151592 1.167390 4.888534
1.192417 1.243084 5.559789
1.286422 1.413106 6.041313
1.354906 1.538771 6.841159
1.365823 1.560739 7.451281
1.403048 1.629369 7.966284
1.421454 1.664702 8.569724
1.443877 1.707203 9.169633
1.381486 1.597706 9.683425
1.366761 1.573600 10.237786
1.220991 1.314697 10.672820
0.968328 0.864745 11.129523
0.944430 1.044183 3.702244
1.041811 1.266449 4.482115
1.094248 1.386910 5.063638
0.980577 1.135273 5.776143
1.075660 1.351615 6.396790
1.265540 1.780642 7.011010
1.201190 1.639843 7.758316
1.215076 1.673920 8.364601
1.250095 1.754959 8.875613
1.270164 1.802875 9.474907
1.256432 1.774733 10.029838
1.154696 1.549170 10.595935
1.012797 1.232240 10.902779
0.705426 0.543759 11.157971
0.861493 1.141289 3.860954
0.923388 1.323807 4.732122
0.978478 1.485932 5.453041
0.983322 1.502114 5.840410
1.014858 1.596417 6.504654
1.108059 1.867912 7.254770
1.116771 1.896482 7.862066
1.143001 1.974681 8.374466
1.156745 2.017629 8.974949
1.115486 1.903804 9.713212
1.088626 1.829353 10.134831
1.002777 1.585417 10.477105
0.861503 1.183578 10.970156
0.727623 1.024390 3.580421
0.779921 1.224510 4.220903
0.856783 1.516675 4.904458
0.868196 1.563315 5.436047
0.878004 1.605695 6.196820
0.926500 1.792138 6.905846
0.956092 1.905872 7.333963
0.950890 1.891753 8.034399
0.994855 2.060126 8.591210
1.005975 2.106192 9.191913
1.008546 2.120995 9.878797
0.953502 1.919040 10.350372
0.862692 1.582268 10.653665
0.718135 1.046688 11.204183
0.667474 1.287197 3.824857
0.692921 1.442068 4.555082
0.729212 1.658234 5.186022
0.710819 1.561577 5.993096
0.726862 1.661558 6.658062
0.791253 2.038777 7.224689
0.763861 1.889621 7.972291
0.777148 1.972005 8.486274
0.814391 2.191722 8.948191
0.822200 2.243525 9.546174
0.786069 2.043470 10.242192
0.734293 1.750349 10.677385
0.665439 1.355944 10.853988
0.558244 1.322165 3.653363
0.570586 1.475571 4.385730
0.576202 1.552908 5.062790
0.571854 1.515104 5.546746
0.582263 1.648660 6.355526
0.618487 2.067359 7.063662
0.615371 2.048046 7.765566
0.617413 2.084050 8.372307
0.624249 2.171345 8.884005
0.627666 2.222509 9.483750
0.619481 2.140662 9.906719
0.604165 1.983460 10.513228
0.568723 1.597710 10.912390
0.504379 0.885019 11.072409
0.434630 1.452907 3.705752
0.432660 1.450295 4.714329
0.431248 1.584832 5.295128
0.430102 1.638326 5.824065
0.428243 1.777937 6.628080
0.426270 2.113860 7.285578
0.425191 2.235492 7.709732
0.423665 2.361335 8.357586
0.422400 2.406028 8.957120
0.421204 2.284549 9.693791
0.420276 2.296565 10.155039
0.419673 2.050941 10.718574
0.419781 1.704871 11.023746
0.421607 0.674012 11.164871
0.335690 1.353249 3.925536
0.310770 1.669865 4.375879
0.307275 1.696048 5.143258
0.312721 1.609440 5.717827
0.293719 1.843682 6.338620
0.270661 2.122027 7.319983
0.267157 2.152458 7.927590
0.249793 2.369167 8.392500
0.245213 2.413976 8.992353
0.237030 2.508698 9.497639
0.241219 2.436882 10.140450
0.253111 2.270407 10.519738
0.291414 1.754234 10.968408
0.367518 0.742228 11.335541
0.199677 1.447410 3.804810
0.180656 1.550613 4.626301
0.148946 1.733057 5.113934
0.185102 1.511182 5.732830
0.152599 1.695678 6.445683
0.066072 2.200346 7.196051
0.052595 2.274256 7.711161
0.045394 2.309884 8.314475
0.036832 2.353625 8.914309
0.020112 2.446897 9.419428
0.015677 2.465159 10.103102
0.042656 2.300584 10.481170
0.112392 1.880993 10.966991
0.267878 0.956158 11.141694
0.090001 1.418990 3.480122
0.072441 1.482410 4.161875
0.018074 1.690466 4.794979
0.017674 1.687094 5.418344
-0.040690 1.910899 6.040593
-0.111250 2.181456 6.794820
-0.151721 2.335607 7.357919
-0.171641 2.409607 7.871644
-0.138435 2.273600 8.612285
-0.172380 2.403335 9.028668
-0.186871 2.455410 9.624159
-0.180681 2.426784 10.175321
-0.088793 2.061795 10.789650
0.028265 1.600178 11.149621
-0.049605 1.480813 3.768012
-0.130957 1.711199 4.545374
-0.130130 1.705078 5.168610
-0.144843 1.743033 5.929019
-0.223995 1.968021 6.545766
-0.334807 2.284246 7.202051
-0.389628 2.437932 7.987409
-0.402970 2.474242 8.361256
-0.361442 2.349847 9.097779
-0.394152 2.441340 9.601046
-0.372592 2.375209 10.242252
-0.319258 2.218853 10.620158
-0.206612 1.891590 10.921918
-0.194212 1.526742 3.665730
-0.279047 1.716254 4.303450
-0.311131 1.785816 4.978682
-0.240738 1.623435 5.505373
-0.315688 1.790125 6.220660
-0.557378 2.334968 7.021262
-0.568926 2.358236 7.628456
-0.583830 2.389140 8.232296
-0.619441 2.467514 8.741761
-0.570131 2.351981 9.478507
-0.574717 2.360149 9.940522
-0.549527 2.299834 10.583124
-0.410112 1.981836 10.885576
-0.159545 1.412011 11.078430
-0.288840 1.426934 3.224175
-0.372380 1.575797 3.721096
-0.423590 1.664960 4.542115
-0.463858 1.734964 5.214933
-0.471887 1.747898 5.602254
-0.581955 1.943239 6.452981
-0.721870 2.192893 7.202051
-0.759104 2.258057 7.716426
-0.735050 2.211442 8.501252
-0.821107 2.365544 8.826633
-0.846988 2.409878 9.422024
-0.812911 2.345741 10.063637
-0.796243 2.314317 10.390457
-0.571880 1.906794 10.965765
-0.207854 1.248366 11.214069
-0.511611 1.560183 2.901975
-0.543977 1.606354 3.586176
-0.629971 1.732870 4.315754
-0.596628 1.680280 5.033260
-0.625233 1.721350 5.562878
-0.804086 1.987482 6.231168
-0.984669 2.255432 7.119987
-1.026169 2.315913 7.634849
-1.021172 2.306759 8.102220
-1.020772 2.303718 8.793242
-1.072965 2.380283 9.298976
-1.128326 2.461614 9.801380
-0.990328 2.252478 10.360222
-0.784024 1.940603 10.975135
-0.418601 1.391022 11.260798
-0.634360 1.507703 2.720429
-0.634252 1.505109 3.499692
-0.829054 1.749404 3.954260
-0.873961 1.803917 4.630819
-0.776121 1.677662 5.530743
-0.896611 1.828128 6.013812
-1.155110 2.151963 6.724620
-1.253570 2.274385 7.288503
-1.189796 2.191896 7.936220
-1.159378 2.151774 8.491737
-1.216237 2.221904 8.997446
-1.281573 2.302031 9.723017
-1.315344 2.343475 10.089453
-1.057847 2.016456 10.789393
-0.810693 1.704152 10.960139
-0.872847 1.575480 2.442654
-0.886510 1.588510 2.985492
-0.829846 1.525942 3.710894
-0.949425 1.652176 4.206078
-1.001114 1.705419 4.881675
-0.870664 1.563986 5.640926
-1.124533 1.833341 6.218266
-1.406777 2.131959 7.154622
-1.333862 2.052252 7.806867
-1.328271 2.044940 8.275700
-1.387862 2.107092 8.786140
-1.393954 2.111621 9.474912
-1.490860 2.213887 9.887680
-1.383419 2.097470 10.488570
-1.119176 1.814260 10.881879
-0.667549 1.331321 11.167535
-0.939951 1.444183 2.572892
-0.914954 1.419877 3.207662
-1.041013 1.532681 3.705322
-1.091818 1.576881 4.383711
-1.149930 1.627709 5.057380
-1.085028 1.567440 5.630320
-1.287783 1.748983 6.390019
-1.599899 2.029672 7.095738
-1.520258 1.955853 7.747118
-1.547503 1.978923 8.350244
-1.580867 2.007543 8.949884
-1.619812 2.041221 9.547349
-1.694824 2.107798 10.050554
-1.540872 1.967187 10.520544
-1.225610 1.680501 11.006718
-0.736216 1.236699 11.295063
-1.302905 1.531623 2.474642
-1.206307 1.457479 3.054716
-1.141199 1.406691 3.777552
-1.197040 1.447069 4.455104
-1.301853 1.524551 5.035799
-1.332198 1.545532 5.795871
-1.520731 1.685950 6.414093
-1.711340 1.827388 7.254043
-1.771738 1.871597 7.767942
-1.765100 1.865456 8.234522
-1.834513 1.916466 8.742902
-1.841130 1.919765 9.429056
-1.921469 1.979017 9.930426
-1.828271 1.907610 10.437984
-1.383897 1.571761 10.972264
-0.991851 1.276279 11.109681
-1.189486 1.271269 2.733824
-1.209702 1.282787 3.274322
-1.335520 1.360574 4.005793
-1.397144 1.397938 4.681186
-1.424096 1.413197 5.443811
-1.428900 1.414800 6.061981
-1.140685 1.084940 4.199000
-1.705682 1.376143 5.308613
-2.109045 1.584407 5.934094
-1.606458 1.322268 6.352407
-2.043354 1.546150 7.797738
-2.076190 1.562389 8.172466
-2.075723 1.560626 8.861219
-2.196949 1.622720 9.274520
-2.094726 1.567978 10.005236
-1.957173 1.495163 10.604082
-1.731825 1.377292 10.943129
-1.113106 1.054888 11.318627
-1.666521 1.176359 2.616180
-1.556951 1.129142 3.194469
-1.533928 1.118143 3.822872
-1.501976 1.102906 4.682917
-2.277989 1.425262 6.260223
-1.847917 1.244252 6.495961
-1.910060 1.269233 7.014432
-2.182268 1.381908 7.756239
-2.174688 1.377738 8.221752
-2.297927 1.428101 8.862956
-2.307300 1.430582 9.546820
-2.279767 1.417861 10.095466
-2.053226 1.321592 10.653528
-1.855353 1.238016 10.900559
-1.212248 0.967298 11.274623
-1.702040 1.001042 2.724426
-1.589871 0.964268 3.303380
-1.567291 0.955813 3.932208
-2.643114 1.293703 5.584281
-2.387997 1.211347 6.277911
-2.242061 1.164464 6.563595
-2.176807 1.142610 7.124966
-2.288858 1.176820 7.775035
-2.366509 1.200405 8.285077
-2.408361 1.212454 8.882404
-2.418069 1.214128 9.566616
-2.389601 1.203969 10.115630
-2.193022 1.140647 10.583102
-1.862740 1.035254 10.883313
-1.285393 0.851249 11.297895
-1.780357 0.858016 2.721547
-1.749516 0.849697 3.351261
-1.674719 0.831146 4.070711
-2.730857 1.069184 5.807413
-2.568674 1.031066 6.319137
-2.326341 0.974711 6.785103
-2.048188 0.910434 7.116632
-2.207945 0.945844 7.676525
-2.330723 0.972624 8.322541
-2.332411 0.971627 9.010939
-2.344740 0.973070 9.695611
-2.317590 0.965757 10.245059
-2.284557 0.957548 10.571013
-1.833947 0.853343 11.146091
-1.138946 0.694090 11.301898
-1.823880 0.688586 2.766188
-1.738403 0.675668 3.488256
-1.460540 0.637371 3.964729
-2.792892 0.812762 5.851024
-2.628447 0.789643 6.362923
-2.517567 0.773902 6.784944
-1.788670 0.675255 7.116074
-2.300616 0.741249 8.548684
-2.522743 0.770206 9.006968
-2.444848 0.758466 9.648765
-2.547160 0.771233 10.148186
-2.265348 0.732064 10.797386
-1.923657 0.685532 11.098654
-1.033306 0.565677 11.178141
-2.006641 0.559445 2.356081
-1.883306 0.551026 2.936171
-1.822675 0.546492 3.423331
-2.877906 0.604127 5.792999
-2.759460 0.596305 6.216127
-2.413414 0.574607 6.865049
-1.861684 0.541654 7.062026
-2.419544 0.571498 8.633413
-2.510131 0.575850 9.140577
-2.648123 0.583184 9.553889
-2.496574 0.572626 10.376036
-2.279616 0.559334 10.623772
-1.725680 0.525576 11.164828
-2.007115 0.374956 2.612946
-1.885833 0.377745 3.194469
-1.772284 0.380284 3.775384
-2.616857 0.349515 5.517429
-2.545999 0.351155 5.851573
-2.507563 0.351026 6.552943
-2.261132 0.358087 7.022289
-1.437666 0.384179 7.317531
-2.546298 0.345133 8.919373
-2.598579 0.342274 9.514041
-2.618397 0.340297 10.195623
-2.492076 0.343828 10.481466
-2.105761 0.355573 10.872558
-1.499987 0.374381 11.286986
-1.929200 0.220595 2.779154
-1.951709 0.216943 3.319214
-1.723754 0.242380 3.704379
-2.597034 0.138307 5.588996
-2.526154 0.145790 5.925036
-2.536165 0.143432 6.537322
-2.243033 0.176010 7.099828
-1.601891 0.248925 7.487694
-2.613134 0.130086 8.820108
-2.662777 0.123204 9.416669
-2.679990 0.119879 10.100065
-2.343311 0.157544 10.620562
-2.089781 0.186004 10.962935
-1.563414 0.246039 11.194299
-1.978704 0.052584 2.526443
-1.750450 0.096741 3.291689
-1.610329 0.123914 3.728357
-2.916690 -0.141346 5.625068
-2.196932 0.002542 5.711821
-2.031885 0.034536 6.232850
-2.221131 -0.004753 6.939072
-1.983129 0.041937 7.412662
-2.365096 -0.037465 8.889708
-2.504766 -0.066697 9.528897
-2.643905 -0.095368 9.940066
-2.399836 -0.047634 10.499742
-2.072781 0.016779 11.023950
-1.553983 0.120156 11.254990
-1.955348 -0.103114 2.561719
-1.810602 -0.062499 2.998137
-1.865208 -0.079548 3.680780
-2.673297 -0.314809 5.424001
-2.351383 -0.222892 5.613929
-2.056010 -0.139347 6.178242
-2.069901 -0.144582 6.792677
-1.961416 -0.114817 7.450811
-2.421304 -0.250269 9.210368
-2.602091 -0.303220 9.756313
-2.497698 -0.274778 10.488215
-2.251561 -0.204894 10.827983
-1.704861 -0.048788 11.148278
-1.810348 -0.231645 2.783509
-1.700178 -0.190084 3.364820
-1.647759 -0.170753 3.852570
-2.648523 -0.563051 5.599786
-1.723689 -0.205102 6.166513
-2.068429 -0.340658 6.967592
-2.336578 -0.449751 9.329671
-2.560774 -0.538232 10.004881
-2.452590 -0.497287 10.512016
-2.092725 -0.358361 10.902316
-1.492759 -0.126441 11.409240
-1.740777 -0.358518 2.864107
-1.790100 -0.384005 3.547462
-2.463433 -0.715319 5.244410
-1.952660 -0.469051 6.278866
-1.691068 -0.342505 6.616219
-1.790057 -0.392108 7.276263
-1.494354 -0.249175 7.710134
-2.381999 -0.685160 9.588602
-2.446270 -0.718207 10.403358
-2.180131 -0.589652 10.833701
-1.751846 -0.382045 11.191934
-0.958311 0.003377 11.504320
-1.704424 -0.490688 2.678829
-1.749260 -0.518560 3.363317
-1.653832 -0.463863 3.942508
-2.506412 -0.968141 5.637624
-1.971263 -0.655188 6.146644
-1.601122 -0.438801 6.529413
-1.735677 -0.519070 7.098014
-1.336220 -0.285177 7.349393
-1.053048 -0.119966 7.789242
-2.265062 -0.835778 9.731271
-2.467457 -0.955601 10.182877
-2.142001 -0.765962 10.794752
-1.730763 -0.525396 11.152904
-1.227540 -0.230263 11.257283
-1.607911 -0.602511 2.583031
-1.534201 -0.551908 3.309209
-1.417885 -0.470351 3.746160
-2.291420 -1.094932 5.494915
-1.977889 -0.872941 5.776997
-1.545189 -0.566999 6.342269
-1.637355 -0.633489 6.773037
-1.691072 -0.673442 7.523493
-1.242775 -0.355565 7.732229
-2.015011 -0.908164 9.464171
-2.278985 -1.096825 9.958478
-2.257954 -1.083208 10.507753
-1.910851 -0.837859 10.990925
-1.479391 -0.531990 11.220824
-1.406923 -0.611698 2.894103
-1.533223 -0.719460 3.394528
-1.869934 -1.005956 4.419297
-2.194264 -1.281613 5.287704
-2.194515 -1.283401 5.903025
-1.864340 -1.006007 6.279928
-1.641352 -0.818877 6.617246
-1.656487 -0.833212 7.232216
-1.300319 -0.534178 7.715939
-1.809692 -0.967158 9.099122
-1.952189 -1.088700 9.648819
-2.068679 -1.188539 10.284643
-1.981305 -1.116188 10.796538
-1.587816 -0.785600 11.245445
-1.000727 -0.290718 11.274321
-1.411405 -0.805364 3.124244
-1.210387 -0.603051 3.604620
-2.046208 -1.455243 5.547117
-1.767644 -1.174462 6.061249
-1.596388 -1.001639 6.304348
-1.353205 -0.757118 6.967457
-0.961044 -0.361049 7.409363
-1.709372 -1.123280 8.877799
-1.838726 -1.255863 9.427680
-1.879732 -1.299066 10.022987
-1.861986 -1.282626 10.574759
-1.627836 -1.046874 11.100756
-1.191182 -0.605041 11.296049
-1.227203 -0.784060 3.223446
-1.154334 -0.698694 3.808144
-1.929892 -1.631477 5.517638
-1.706532 -1.365634 5.941566
-1.429253 -1.035177 6.323688
-1.351394 -0.944087 6.988232
-1.165174 -0.723125 7.563335
-1.818468 -1.508530 8.895412
-1.881729 -1.586422 9.627005
-1.770704 -1.454800 10.007629
-1.694951 -1.365769 10.521410
-1.455267 -1.081007 11.142787
-1.091094 -0.646466 11.473105
-1.128063 -0.838939 3.312434
-1.244423 -1.006109 3.952742
-1.633363 -1.563187 5.593429
-1.642893 -1.578005 5.977820
-1.394466 -1.227036 6.357025
-1.246425 -1.019529 7.065898
-1.055233 -0.749909 7.501842
-1.669078 -1.625293 8.966385
-1.674545 -1.635383 9.654546
-1.627893 -1.570663 10.075149
-1.560626 -1.477022 10.587326
-1.443827 -1.313016 11.061140
-1.041373 -0.743651 11.443087
-0.988401 -0.815996 3.534651
-1.169544 -1.127539 4.510059
-1.518825 -1.724917 5.524481
-1.526486 -1.739421 5.909972
-1.257354 -1.284324 6.474409
-1.064919 -0.958497 6.769284
-0.846892 -0.590474 7.396471
-1.522897 -1.745239 8.995290
-1.548795 -1.791551 9.593215
-1.507063 -1.722273 10.014772
-1.513892 -1.735657 10.476171
-1.343611 -1.448367 11.002465
-1.008226 -0.879634 11.290932
-0.946733 -0.979535 3.389840
-0.982725 -1.057860 3.835794
-1.108533 -1.327635 4.521113
-1.209436 -1.546088 5.524408
-1.103688 -1.323091 5.768282
-0.913935 -0.923789 6.388250
-0.961896 -1.027420 6.821083
-1.386544 -1.937789 9.086375
-1.426703 -2.025218 9.591446
-1.374006 -1.915883 10.102612
-1.284855 -1.729108 10.574426
-1.125516 -1.394262 11.194826
-0.837012 -0.783135 11.261837
-0.812128 -0.917346 3.440045
-0.852855 -1.029184 4.030739
-0.957117 -1.310883 4.715423
-0.985071 -1.389142 5.388632
-0.968001 -1.347628 6.102544
-0.878627 -1.112103 6.582680
-0.839228 -1.009516 7.016895
-1.021191 -1.498642 7.761681
-1.159435 -1.871449 8.543235
-1.190177 -1.956222 9.052415
-1.176231 -1.922152 9.608060
-1.104031 -1.733609 10.305287
-1.063535 -1.628547 10.819588
-0.973976 -1.391782 11.165305
-0.676785 -0.600927 11.384545
-0.716540 -0.923542 3.741391
-0.787088 -1.176353 4.287638
-0.839960 -1.369120 5.156422
-0.825243 -1.322351 5.873638
-0.757836 -1.086331 6.122396
-0.723548 -0.970164 6.790441
-0.815102 -1.297882 7.448148
-0.945432 -1.763634 8.277544
-1.054118 -2.151008 8.825564
-1.067024 -2.200821 9.421919
-1.021209 -2.043513 10.024058
-0.952769 -1.806113 10.587573
-0.907769 -1.650099 10.969516
-0.741931 -1.068045 11.388564
-0.659424 -1.078864 3.368967
-0.653875 -1.057147 4.003177
-0.690111 -1.249737 4.874640
-0.732334 -1.470230 5.502833
-0.708187 -1.352161 5.936557
-0.667824 -1.151390 6.324248
-0.670161 -1.169516 6.943778
-0.769479 -1.680744 7.689091
-0.844671 -2.069994 8.470968
-0.844049 -2.073845 9.162839
-0.836177 -2.039548 9.718222
-0.820066 -1.962109 10.139851
-0.781396 -1.773062 10.837596
-0.721632 -1.472146 11.051977
-0.535160 -0.531556 11.554945
-0.544900 -1.018069 3.569188
-0.559248 -1.171592 4.302783
-0.583591 -1.423067 5.078171
-0.600260 -1.598872 5.797255
-0.555258 -1.168808 6.183848
-0.542765 -1.055717 6.619802
-0.594118 -1.569272 7.370166
-0.618749 -1.824704 8.205454
-0.649630 -2.134583 8.711298
-0.635378 -2.010199 9.451150
-0.631120 -1.979432 10.006043
-0.631843 -1.995285 10.467285
-0.610210 -1.794058 10.941027
-0.556845 -1.284031 11.397197
-0.467685 -1.719984 5.446894
-0.454077 -1.058355 5.830347
-0.466981 -2.062111 9.199078
-0.467898 -2.160262 9.704623
-0.465537 -2.081222 10.125868
-0.440650 -0.921818 11.329564
-0.376003 -0.978818 3.968221
-0.373200 -0.998983 4.746068
-0.352241 -1.309051 5.426322
-0.350698 -1.314045 6.051492
-0.351452 -1.287160 6.534159
-0.357474 -1.171283 7.202897
-0.323242 -1.696216 7.716976
-0.299262 -2.047950 8.592491
-0.297580 -2.052990 9.286993
-0.292798 -2.109975 9.885861
-0.296844 -2.032980 10.307083
-0.302922 -1.921028 10.820308
-0.324121 -1.576581 11.126744
-0.379259 -0.695637 11.440741
-0.289695 -1.034911 4.321513
-0.245970 -1.321495 5.239920
-0.218593 -1.498982 5.959118
-0.241408 -1.335810 6.487016
-0.243607 -1.314268 6.967169
-0.199343 -1.606835 7.716544
-0.134098 -2.043666 8.407700
-0.120259 -2.131386 8.918621
-0.123214 -2.100583 9.701360
-0.120564 -2.112435 10.164594
-0.141614 -1.960275 10.770621
-0.182996 -1.671346 11.208789
-0.285983 -0.964846 11.371568
-0.196146 -1.086545 3.862625
-0.158835 -1.240563 4.595092
-0.084645 -1.555553 5.041079
-0.045684 -1.714763 5.993820
-0.142600 -1.294896 6.381665
-0.198132 -1.052042 6.866713
-0.160425 -1.209161 7.437347
-0.049710 -1.679762 8.041054
0.044334 -2.075240 9.047051
0.076345 -2.209215 9.463456
0.070206 -2.178030 10.019094
0.015107 -1.936332 10.585849
-0.042109 -1.687441 10.931957
-0.170333 -1.133524 11.261837
0.124331 -1.761091 4.658120
0.068638 -1.589674 5.184752
0.126097 -1.758674 5.901883
0.060028 -1.555366 6.519498
-0.030029 -1.281356 6.861129
-0.034543 -1.264747 7.339890
0.090330 -1.636819 8.128815
0.260992 -2.147510 8.856982
0.278456 -2.196503 9.455584
0.257022 -2.127772 10.101493
0.163962 -1.844121 10.535563
0.084355 -1.601637 10.880989
-0.064582 -1.149712 11.247883
0.316677 -1.878534 4.810136
0.175007 -1.537847 5.474565
0.250526 -1.715212 5.959060
0.168826 -1.517544 6.578781
0.039368 -1.207082 7.016467
0.016168 -1.148935 7.591082
0.205221 -1.596034 8.193422
0.365769 -1.973225 9.198317
0.436399 -2.139758 9.522874
0.394311 -2.035801 10.262555
0.294961 -1.797501 10.607057
0.181883 -1.526026 11.047801
-0.066252 -0.932559 11.570019
0.511093 -1.897009 4.905070
0.493839 -1.862382 5.384676
0.497154 -1.866061 6.002755
0.421429 -1.720719 6.525027
0.245598 -1.387093 6.818529
0.152997 -1.209438 7.438814
0.318089 -1.517845 8.319505
0.572718 -1.996165 9.044897
0.638218 -2.118251 9.459520
0.544116 -1.937437 10.156575
0.448676 -1.755026 10.631262
0.312466 -1.495693 11.069991
0.074007 -1.042963 11.532830
0.425669 -1.479442 3.862815
0.727460 -1.949145 4.696212
0.368255 -1.385113 5.069796
0.519247 -1.616590 6.454741
0.194764 -1.107227 6.751986
0.162727 -1.055799 7.093489
0.107321 -0.967424 7.529164
0.667254 -1.838031 9.312382
0.792924 -2.033228 9.767622
0.680490 -1.855385 10.240747
0.479459 -1.538218 10.862834
0.294258 -1.246981 11.173434
-0.110184 -0.612493 11.436077
0.825560 -1.790863 4.891752
0.795217 -1.749035 5.602207
0.709099 -1.633897 6.506222
0.313991 -1.117745 6.894274
0.167714 -0.925564 7.377299
0.409500 -1.238123 8.165501
0.799267 -1.742097 9.398834
0.861921 -1.822127 9.902477
0.743862 -1.666029 10.599833
0.589901 -1.464282 10.943466
0.278729 -1.057285 11.402947
0.667438 -1.391113 3.658819
1.040709 -1.801626 4.495001
0.919167 -1.665632 5.018551
0.801942 -1.534412 5.543134
0.807596 -1.538858 6.162532
0.640071 -1.352124 6.641020
0.356225 -1.036956 7.032425
0.437898 -1.126057 7.462279
0.644323 -1.351584 8.436301
0.798673 -1.520326 9.126934
1.015140 -1.758351 9.625652
1.058010 -1.804039 10.221277
0.833044 -1.553614 10.748755
0.612506 -1.308072 11.281939
0.171454 -0.819257 11.579811
1.031070 -1.539788 5.109098
0.875655 -1.395745 5.493038
1.019280 -1.526635 5.974169
0.863940 -1.382046 6.589635
0.486761 -1.034034 6.932831
0.341738 -0.898919 7.555727
0.700858 -1.227800 8.155800
0.934135 -1.440517 8.890720
1.041371 -1.537490 9.533356
1.087831 -1.578656 10.129966
0.975874 -1.474013 10.736818
0.693821 -1.213387 11.137537
0.140802 -0.703783 11.396729
1.355495 -1.607492 4.858350
1.105698 -1.411530 5.427010
1.179564 -1.467400 6.095400
1.050911 -1.365898 6.620202
0.645570 -1.049349 6.965144
0.312981 -0.789331 7.363049
-0.016816 -0.531470 7.767716
1.164467 -1.447109 9.532274
1.277280 -1.533940 9.947428
1.154067 -1.436466 10.556500
0.879840 -1.222123 10.865271
0.341453 -0.801280 11.481395
1.555737 -1.535489 4.911264
1.229006 -1.321500 5.198669
1.230067 -1.320734 5.822339
1.197826 -1.298016 6.535516
0.880861 -1.090380 6.832761
0.716604 -0.982230 7.221592
0.138568 -0.603671 7.722160
1.238298 -1.317733 9.402044
1.433985 -1.444428 9.857548
1.412732 -1.429254 10.412381
1.165794 -1.267012 10.849004
0.658011 -0.934504 11.270651
1.480208 -1.296287 5.309048
1.405776 -1.254675 5.881419
1.217421 -1.151228 6.498956
1.005392 -1.035773 6.747407
0.708467 -0.873370 7.418693
0.064902 -0.524321 7.550262
1.373961 -1.229770 9.321862
1.470127 -1.280249 10.055037
1.368737 -1.224154 10.571665
1.110400 -1.083177 11.011799
0.759624 -0.892683 11.193554
1.042117 -0.917155 6.860501
0.931138 -0.867046 8.005055
0.843330 -0.828405 8.438447
1.466616 -1.094689 9.113923
1.610267 -1.154544 9.981245
1.624436 -1.159642 10.444748
1.317697 -1.026755 10.975090
0.830949 -0.817175 11.211171
1.963585 -1.116620 5.390909
1.111184 -0.827691 6.865977
0.969728 -0.779639 7.161121
0.485105 -0.615893 7.747625
0.821501 -0.727370 8.398379
1.550670 -0.970439 9.115729
1.699084 -1.018424 9.982324
1.713929 -1.022447 10.445107
1.397615 -0.915266 10.974727
0.823602 -0.721877 11.398167
2.071897 -0.959424 5.141968
1.634580 -0.850214 5.750818
1.653755 -0.854171 6.136530
1.449701 -0.802543 6.752473
1.085063 -0.711911 7.048355
0.632149 -0.599090 7.538410
0.316161 -0.520167 7.984335
1.688095 -0.855469 9.695375
1.800721 -0.881810 10.423169
1.552546 -0.819839 10.766119
1.053036 -0.695579 11.223223
0.015650 -0.438929 11.471918
2.087036 -0.774539 5.245631
1.915801 -0.746067 5.766771
1.838128 -0.732492 6.335703
1.551934 -0.685964 6.673085
1.040621 -0.602889 7.249827
0.718499 -0.550860 7.458187
0.619008 -0.533589 8.127775
1.705444 -0.704352 9.803616
1.939697 -0.740990 10.256093
1.646492 -0.693144 10.691618
1.175106 -0.616889 11.055281
2.169706 -0.600834 5.610944
2.049780 -0.590831 6.040452
1.934177 -0.581158 6.470235
1.414626 -0.540354 7.041669
1.355580 -0.535177 7.381650
0.758416 -0.488506 7.922813
1.748634 -0.561352 9.338471
1.857315 -0.568212 10.071603
1.781626 -0.561598 10.495866
1.449156 -0.535161 11.027799
0.938126 -0.495221 11.491236
2.401288 -0.398031 5.277076
2.178223 -0.400229 5.887161
2.061417 -0.401168 6.315083
1.627931 -0.406561 6.928762
1.206727 -0.412206 7.318655
0.698959 -0.419239 7.671659
1.874584 -0.397494 9.641301
1.897290 -0.395800 10.330034
1.601117 -0.399450 10.767030
1.178675 -0.404903 11.264243
2.322278 -0.210330 5.463089
2.189698 -0.221926 6.123001
2.074940 -0.232243 6.552079
1.604370 -0.277072 7.029596
1.049764 -0.330144 7.471623
0.590202 -0.374324 7.734266
1.761132 -0.257029 9.466384
1.911939 -0.241101 10.106905
1.797148 -0.251248 10.623675
1.581871 -0.271686 10.878084
0.847248 -0.342188 11.360161
2.256199 -0.029625 5.601650
2.138329 -0.050266 6.029698
1.929397 -0.087144 6.642260
1.600044 -0.146342 7.073160
0.964675 -0.261408 7.470164
0.998462 -0.254020 8.086670
1.704190 -0.124165 8.673650
1.938813 -0.079565 9.586538
1.949800 -0.076637 10.050715
1.836187 -0.096328 10.565887
1.456213 -0.164817 10.966148
0.859991 -0.272686 11.392674
1.193012 -0.131766 3.683416
2.360384 0.186282 5.397469
2.182270 0.139812 6.149850
2.023897 0.098195 6.672043
1.613627 -0.011575 7.058999
1.251602 -0.108522 7.358933
1.886173 0.065303 8.752530
1.893137 0.068592 9.448942
1.989577 0.095611 9.957140
1.875829 0.066009 10.474580
1.590029 -0.010112 10.915129
0.877179 -0.201221 11.398956
1.054975 -0.077102 3.950550
2.197578 0.347499 5.659935
2.073911 0.303313 6.322977
1.711431 0.170833 6.844344
1.359186 0.041654 7.140192
1.513597 0.099733 7.706130
1.718837 0.177293 8.631643
1.804760 0.210023 9.143181
1.771468 0.198923 9.702776
1.868842 0.235859 10.208201
1.675612 0.165653 10.685089
1.241915 0.007075 11.275600
0.309849 -0.336255 11.334648
1.226295 0.087497 3.629885
2.072419 0.486188 6.049057
1.886451 0.400538 6.432924
1.455705 0.201270 6.913267
1.478062 0.213000 7.530401
1.752992 0.342455 8.274498
1.871003 0.398245 8.697008
1.838371 0.384774 9.485368
1.038694 0.016791 11.283158
1.292793 0.234912 4.072423
1.705207 0.472088 4.854166
2.006911 0.646144 5.668776
1.860324 0.563645 6.190095
1.523310 0.372451 6.713120
1.702103 0.475580 7.187668
1.842963 0.557773 7.980343
1.760329 0.512083 8.636131
1.802206 0.537349 9.239946
1.844241 0.562189 9.614636
1.818136 0.548545 10.172140
1.604234 0.427732 10.742368
1.269532 0.237590 11.146719
1.364109 0.405772 4.072624
1.453054 0.468722 4.893859
1.709488 0.646192 5.570102
1.714360 0.651005 6.189597
1.613537 0.583435 6.852674
1.706823 0.648976 7.511573
1.771042 0.694247 8.028999
1.765764 0.691746 8.500093
1.768476 0.695259 9.196311
1.848638 0.751442 9.704392
1.715807 0.661792 10.313213
1.546455 0.546785 10.791336
1.120979 0.256086 11.252289
1.133848 0.357039 3.704693
1.362620 0.544551 4.393686
1.490390 0.650138 5.119391
1.529238 0.683024 5.650368
1.565175 0.714125 6.410550
1.753563 0.868659 7.026013
1.773345 0.886265 7.637461
1.764899 0.881173 8.337627
1.796172 0.907523 8.715373
1.698025 0.829699 9.459039
1.712488 0.843185 10.149429
1.716019 0.846655 10.388043
1.455525 0.636460 10.918761
0.971884 0.244219 11.116996
1.105420 0.464492 3.487713
1.175691 0.535132 4.314858
1.467953 0.820883 4.810926
1.428368 0.784321 5.527509
1.397047 0.755794 6.241201
1.604247 0.958849 6.765205
1.748113 1.100763 7.467798
1.706596 1.061902 8.030882
1.734953 1.091149 8.635588
1.734989 1.092461 9.102714
1.648962 1.010777 9.844419
1.629440 0.993300 10.400298
1.539385 0.906464 10.691618
1.075079 0.456060 11.204931
1.021343 0.505611 3.597101
1.178782 0.688608 4.380365
1.389395 0.931619 4.827602
1.410501 0.958119 5.592748
1.440036 0.994276 6.352631
1.630181 1.214028 6.876012
1.645351 1.233258 7.487191
1.607104 1.191050 8.051021
1.604076 1.189656 8.748458
1.636186 1.228296 9.350201
1.581043 1.166284 9.774560
1.475526 1.047020 10.383646
1.392628 0.952768 10.676391
1.052783 0.564163 11.135217
1.061459 0.720941 3.335284
1.148610 0.844047 4.068611
1.293188 1.046800 4.844281
1.342182 1.116872 5.515263
1.367937 1.155066 6.273784
1.457098 1.280404 6.842237
1.443406 1.263799 7.545177
1.489160 1.328866 8.060372
1.616991 1.507389 8.523910
1.540635 1.404157 9.264737
1.544556 1.411138 9.728629
1.497846 1.347883 10.150463
1.353284 1.149646 10.717651
1.050766 0.732362 11.174532
1.080122 0.921777 4.078460
1.236394 1.178307 4.763096
1.278881 1.249873 5.436047
1.326473 1.329715 6.104057
1.429868 1.499541 6.582951
1.461327 1.553471 7.332888
1.428619 1.503274 8.124825
1.472392 1.576330 8.637774
1.471807 1.577126 9.105157
1.451836 1.546754 9.662623
1.366419 1.410208 10.270260
1.278781 1.269216 10.654749
1.007168 0.829507 11.112695
0.975412 0.978451 3.749697
1.043779 1.119091 4.480262
1.117038 1.269536 5.204115
1.016148 1.069460 5.824580
1.142411 1.325589 6.352631
1.225751 1.497235 7.289734
1.258708 1.565760 7.807206
1.274339 1.599846 8.413448
1.353247 1.760896 8.966962
1.375850 1.808963 9.565176
1.320791 1.700544 10.078557
1.227664 1.515431 10.552715
1.037433 1.135207 11.045255
0.643169 0.344069 11.360712
0.902377 1.070841 3.518434
0.989860 1.292632 4.302206
0.997511 1.315716 5.072584
1.015082 1.362231 5.604703
1.063804 1.487703 6.412625
1.135465 1.669730 7.120596
1.161766 1.737899 7.640162
1.190288 1.811580 8.156592
1.221013 1.890725 8.669821
1.221918 1.896616 9.362604
1.208383 1.865864 9.919238
1.144412 1.708703 10.302414
1.032666 1.432961 10.740435
0.804819 0.868255 11.162730
0.760292 0.996591 3.585915
0.819107 1.194543 4.227100
0.880281 1.400222 4.862414
0.878071 1.397165 5.488322
0.889502 1.439939 6.250901
0.984238 1.756297 6.914116
1.043436 1.954382 7.387536
1.063984 2.027040 8.130893
1.035787 1.938600 8.782500
1.010473 1.859645 9.432857
1.012146 1.868288 9.898051
1.003472 1.843473 10.453291
0.939829 1.635647 10.705511
0.750774 1.016700 11.218463
0.697279 1.162473 3.796816
0.751417 1.419420 4.342141
0.755280 1.444566 5.111769
0.735751 1.359091 5.688450
0.794271 1.636279 6.218493
0.841922 1.865855 7.065252
0.874905 2.024554 7.629104
0.899738 2.146148 8.279499
0.879451 2.057831 8.930123
0.870225 2.020107 9.487791
0.871285 2.029369 9.952154
0.837103 1.875997 10.558475
0.755054 1.498005 10.957689
0.607364 0.814529 11.345037
0.575444 1.103549 3.404864
0.592270 1.254001 4.139041
0.627326 1.553714 4.822526
0.638393 1.651958 5.261214
0.635731 1.643910 6.114766
0.669450 1.930035 6.639699
0.681491 2.039848 7.297045
0.694677 2.158999 7.949086
0.687460 2.108673 8.508525
0.697313 2.198054 9.017422
0.686553 2.119975 9.664198
0.687940 2.142536 10.349666
0.661252 1.926862 10.599071
0.593237 1.375776 11.144961
0.489766 1.322602 3.500553
0.494265 1.475167 4.232443
0.495908 1.551503 4.908856
0.496774 1.600532 5.439730
0.501216 1.743734 6.014985
0.508553 1.975078 6.862357
0.515669 2.181846 7.334599
0.515215 2.212175 8.168044
0.514135 2.207959 8.635152
0.516690 2.299244 9.143051
0.514118 2.272338 9.921246
0.512040 2.235479 10.249982
0.496240 1.860355 10.867137
0.471849 1.254317 11.285450
0.376209 1.379618 4.060223
0.365522 1.592768 4.695098
0.364513 1.587861 5.320166
0.359134 1.679659 5.989474
0.349324 1.869672 6.699924
0.337176 2.116828 7.311380
0.328754 2.282130 7.871937
0.327665 2.275950 8.566570
0.320949 2.409093 8.983810
0.319100 2.420405 9.671116
0.325017 2.260212 10.272839
0.331586 2.095113 10.652569
0.352007 1.618305 11.010625
0.276144 1.309774 3.432229
0.255724 1.459948 4.165518
0.229220 1.656177 5.033780
0.232992 1.618775 5.516259
0.214611 1.751656 6.323688
0.160537 2.168636 7.030706
0.156023 2.194854 7.639483
0.155882 2.185075 8.336500
0.121930 2.448032 8.707376
0.126037 2.406842 9.262699
0.122719 2.422380 9.948709
0.126706 2.385694 10.277161
0.184151 1.921956 10.854167
0.250154 1.395882 11.085726
0.156653 1.380502 3.146291
0.124817 1.524194 3.881003
0.087250 1.697299 4.374067
0.080292 1.722956 5.141086
0.115376 1.551946 5.667724
0.057195 1.820067 6.428157
-0.049884 2.319671 7.179208
-0.047704 2.302747 7.876935
-0.038068 2.251847 8.436286
-0.066226 2.381136 8.854066
-0.096873 2.520112 9.493022
-0.091487 2.489401 10.044444
-0.014417 2.118875 10.657948
0.083619 1.651545 11.016791
0.265681 0.787032 11.328507
0.022171 1.413063 3.495444
-0.055632 1.661468 4.040718
-0.048192 1.631645 4.902323
-0.078591 1.727212 5.339739
-0.133244 1.899503 6.054291
-0.231228 2.212500 6.716442
-0.305366 2.448611 7.325133
-0.275872 2.348756 7.975319
-0.249297 2.258363 8.624432
-0.264827 2.304692 9.222956
-0.294778 2.398366 9.726642
-0.299358 2.410150 10.186354
-0.200978 2.088004 10.708527
-0.072241 1.669225 10.974365
-0.117020 1.484981 3.753808
-0.195049 1.678813 4.391098
-0.224969 1.750843 5.066171
-0.179663 1.634016 5.500294
-0.266114 1.849210 6.123178
-0.401684 2.186390 7.153112
-0.496313 2.423551 7.532401
-0.476454 2.370376 8.092019
-0.492516 2.407772 8.693503
-0.514343 2.458565 9.515398
-0.533659 2.505415 9.885719
-0.428391 2.235868 10.538313
-0.320883 1.961823 10.972600
-0.092378 1.383227 11.166738
-0.274336 1.507246 3.481445
-0.353450 1.660847 3.977283
-0.387187 1.724330 4.654865
-0.379612 1.705709 5.512730
-0.530211 2.000282 5.950950
-0.614000 2.161173 6.889003
-0.667918 2.265471 7.315482
-0.641959 2.210958 8.104111
-0.640371 2.205808 8.571926
-0.662900 2.247564 9.171937
-0.726465 2.370907 9.586114
-0.677478 2.271294 10.320637
-0.603228 2.123479 10.700999
-0.446864 1.814343 11.005590
-0.468038 1.613944 2.836333
-0.541958 1.732616 3.574193
-0.549035 1.741330 4.347894
-0.589602 1.805434 5.024320
-0.524313 1.696522 5.459550
-0.640002 1.883376 6.315554
-0.953940 2.397025 6.888784
-0.942914 2.376273 7.587998
-0.914133 2.326873 8.148754
-0.958678 2.398134 8.660518
-0.940593 2.365478 9.441188
-0.945454 2.371720 9.904524
-0.911737 2.313897 10.547908
-0.711071 1.982711 10.942844
-0.435655 1.529319 11.175408
-0.597964 1.551906 2.673995
-0.648793 1.618112 3.503608
-0.720019 1.712783 4.091281
-0.764530 1.770927 4.766888
-0.680718 1.655044 5.433517
-0.847850 1.879990 5.964237
-1.042156 2.141356 6.627724
-1.133582 2.262755 7.419059
-1.046765 2.142549 8.160405
-1.070715 2.173796 8.535868
-1.178529 2.318218 9.086329
-1.211670 2.361208 9.680528
-1.086768 2.190245 10.148988
-0.918624 1.960015 10.803039
-0.736794 1.712678 11.015692
-0.702943 1.472950 2.726598
-0.775338 1.554071 3.319918
-0.909317 1.705563 3.959664
-0.899761 1.692756 4.586266
-0.920005 1.713658 5.350814
-1.013632 1.819141 5.926178
-1.228208 2.062839 6.590672
-1.356867 2.207380 7.519189
-1.290700 2.130362 7.942617
-1.374769 2.225364 8.362992
-1.348354 2.192798 9.143060
-1.439775 2.296237 9.556717
-1.360135 2.203537 10.066197
-1.284576 2.115509 10.575991
-1.031097 1.824120 10.969394
-0.873921 1.454523 2.808427
-0.954197 1.530422 3.399448
-1.000991 1.573754 4.078650
-1.092462 1.660487 4.661035
-1.089359 1.655799 5.282415
-1.155781 1.718118 5.948437
-1.425737 1.977213 6.520179
-1.632457 2.174777 7.266443
-1.589743 2.132015 7.824617
-1.552271 2.094318 8.381419
-1.554225 2.094329 9.070381
-1.623673 2.160011 9.574394
-1.573407 2.109732 10.215101
-1.548613 2.084903 10.542143
-1.121970 1.671254 11.170177
-1.205430 1.556269 2.544438
-1.156225 1.514721 3.031640
-1.093282 1.461322 3.753708
-1.039396 1.415351 4.473338
-1.289036 1.618756 4.918650
-1.249260 1.584366 5.630066
-1.423525 1.724992 6.479151
-1.576764 1.848765 7.181184
-1.670468 1.924466 7.604322
-1.593804 1.860011 8.252928
-1.695282 1.942096 8.670447
-1.738929 1.975781 9.489954
-1.849178 2.065071 9.900066
-1.657316 1.906465 10.457317
-1.399962 1.694292 10.978915
-0.890181 1.275906 11.262261
-1.556293 1.607824 2.480831
-1.432036 1.521093 2.915395
-1.149967 1.325204 3.484067
-0.989804 1.213482 4.014148
-1.959954 1.873753 7.720269
-1.878874 1.817367 7.916340
-1.836617 1.786897 8.473613
-1.949266 1.863063 9.114900
-1.927136 1.845959 9.888741
-1.939028 1.853071 10.346674
-1.728106 1.706801 10.683777
-1.228215 1.361066 11.092219
-1.521311 1.373122 2.411383
-1.415313 1.311434 2.991275
-1.343332 1.268802 3.713986
-1.495441 1.354337 4.207330
-1.546996 1.381662 5.113483
-1.675177 1.451994 6.304104
-1.731463 1.482883 6.824675
-1.945091 1.602690 7.660416
-2.053682 1.663598 8.081416
-2.089375 1.682579 8.680621
-2.016684 1.639721 9.324494
-2.102923 1.687713 9.826837
-2.010757 1.633566 10.557032
-1.709438 1.461248 10.856578
-1.216048 1.179472 11.176898
-1.614134 1.227917 2.446240
-1.402083 1.128602 3.211404
-1.477957 1.162586 3.657329
-1.490971 1.166918 4.427692
-1.800365 1.307649 5.247419
-2.166529 1.474745 5.965619
-1.980684 1.388334 6.343864
-1.953228 1.374176 7.045487
-2.100447 1.440770 7.606806
-2.091155 1.434994 8.300528
-2.209887 1.488778 8.718480
-2.254859 1.508206 9.314454
-2.270057 1.513733 9.997184
-2.117441 1.442629 10.374262
-1.778375 1.285141 10.987864
-1.228979 1.031208 11.403241
-1.675247 1.068783 2.703555
-1.591341 1.037135 3.429100
-1.520353 1.010138 4.149051
-2.460668 1.344379 5.836038
-2.304430 1.287192 6.349410
-1.987360 1.172426 6.770750
-2.053623 1.195152 7.287322
-2.251097 1.264639 7.981209
-2.245581 1.261690 8.445944
-2.249000 1.261487 9.133484
-2.340622 1.293351 9.635937
-2.475795 1.341053 10.044715
-2.206775 1.243077 10.691850
-1.831465 1.107917 10.860730
-1.015624 0.813782 11.386003
-1.694738 0.905139 2.813381
-1.716611 0.909856 3.354863
-1.692376 0.902134 3.985968
-2.599131 1.139567 5.773988
-2.436010 1.095155 6.290649
-2.232970 1.039944 6.899183
-2.042226 0.988462 7.280983
-2.156770 1.017588 7.934689
-2.280373 1.049133 8.582955
-2.412931 1.083071 9.225654
-2.418441 1.083596 9.689024
-2.428764 1.085405 10.150663
-2.152537 1.010647 10.803800
-1.691583 0.887377 11.162733
-0.927941 0.683658 11.512165
-1.862776 0.773135 2.654280
-1.829067 0.765965 3.286462
-1.665828 0.735994 3.957852
-2.812588 0.933593 5.751531
-2.695017 0.912126 6.175243
-2.399881 0.859242 6.733626
-1.761312 0.746467 7.113911
-1.967306 0.781663 7.586348
-2.399815 0.855709 8.504129
-2.529879 0.877695 8.921665
-2.580730 0.885431 9.517134
-2.469955 0.864543 10.249108
-2.306203 0.835064 10.627913
-1.964401 0.774503 10.930290
-1.110366 0.623636 11.459193
-1.853283 0.613408 2.382179
-1.871618 0.614038 2.923571
-1.755912 0.602199 3.503414
-2.775260 0.692056 5.733472
-2.695022 0.683532 6.295842
-2.398368 0.655005 6.854740
-1.759203 0.595613 7.006290
-2.447424 0.656239 8.533237
-2.541472 0.663494 9.264964
-2.721565 0.679511 9.587399
-2.691139 0.675617 10.136787
-2.315372 0.639675 10.746798
-1.878960 0.598807 11.011102
-0.906860 0.508400 11.280948
-1.959150 0.452945 2.474642
-1.780815 0.450448 3.148182
-1.753567 0.449031 3.779720
-2.685780 0.451675 5.571155
-2.427255 0.449050 6.040164
-2.487444 0.448426 6.561465
-2.287543 0.446363 6.941256
-1.504810 0.440347 7.374697
-2.610959 0.444950 8.752107
-2.660424 0.444110 9.348041
-2.636394 0.442436 10.121291
-2.469166 0.440593 10.498871
-2.043565 0.436835 10.983030
-1.568661 0.432992 11.344795
-1.828492 0.309990 2.734040
-1.796086 0.311063 3.366207
-1.568317 0.326578 3.751597
-2.550516 0.253071 5.452329
-2.329961 0.267631 6.061190
-2.383189 0.262356 6.811133
-2.144908 0.278902 7.053631
-1.365556 0.333721 7.490323
-2.610607 0.241730 9.040972
-2.664008 0.236748 9.635229
-2.674872 0.235070 10.094405
-2.389535 0.254178 10.744661
-2.006139 0.280793 11.138902
-1.218775 0.336365 11.483356
-1.971679 0.129326 2.532201
-1.962899 0.129949 2.927891
-1.879013 0.141967 3.650476
-2.759055 -0.002438 5.303144
-2.241814 0.079868 5.625960
-2.074606 0.105649 6.146644
-2.398486 0.052398 6.808283
-2.111249 0.097343 7.371616
-1.211144 0.241174 7.630370
-2.407083 0.046139 9.268397
-2.635191 0.008659 9.721954
-2.618563 0.009797 10.492529
-2.366491 0.049551 10.829819
-1.859210 0.130012 11.277777
-1.833641 -0.000801 2.960930
-1.858589 -0.008052 3.499444
-2.025782 -0.050359 3.993691
-2.385159 -0.143582 6.188237
-1.943742 -0.036702 7.271364
-1.495686 0.073498 7.521662
-2.402617 -0.153635 9.032941
-2.502625 -0.179815 9.761307
-2.603332 -0.205707 10.261510
-2.442339 -0.166690 10.638941
-1.978753 -0.052862 10.993109
-1.264375 0.122689 11.467613
-1.838945 -0.161563 2.939987
-1.996012 -0.216006 3.438344
