1.030301 1.685828 2.369734
1.046548 1.713989 2.749030
1.105987 1.817106 2.959432
1.041750 1.705609 3.457740
1.116725 1.835688 3.608712
1.080339 1.772503 4.253878
1.112127 1.827651 4.357717
1.051099 1.721698 5.165068
1.074876 1.762920 5.588644
1.166785 1.922343 6.235688
1.212214 2.001164 6.278103
1.265422 2.093463 6.573133
1.190969 1.964221 7.326621
1.185424 1.954570 7.695068
1.201169 1.981897 7.593196
1.165387 1.919766 8.180734
1.212205 2.000998 8.216535
1.190882 1.963959 8.746220
1.202478 1.984055 9.054560
1.194516 1.970235 9.117721
1.182582 1.949487 9.644664
1.138908 1.873677 10.038994
1.066048 1.747240 10.248431
0.999516 1.631787 10.404189
0.900711 1.460351 10.373867
0.650969 1.026982 10.877880
0.938103 1.919368 1.637198
0.948492 1.941978 1.591575
0.835683 1.696462 2.315633
0.884279 1.802177 2.527817
0.887555 1.809264 2.960699
0.904766 1.846676 3.335424
0.934866 1.912137 3.652190
0.956050 1.958196 4.021891
0.951238 1.947700 4.293510
0.918050 1.875425 4.990999
0.936135 1.914760 5.149441
0.870097 1.771040 5.548161
0.950095 1.945066 5.887192
1.057224 2.178138 6.057426
1.043633 2.148502 6.737648
1.034334 2.128266 6.802145
0.981963 2.014252 7.503299
1.042372 2.145699 7.378271
1.044883 2.151135 7.692106
0.989992 2.031628 8.499393
1.010476 2.076178 8.700444
0.979321 2.008366 8.985554
1.024634 2.106958 8.965045
1.002422 2.058571 9.603372
0.960553 1.967431 10.054320
0.964622 1.976288 10.008779
0.923074 1.885890 9.995779
0.784362 1.584027 10.634380
0.651816 1.295630 10.701142
0.823022 2.124340 1.379621
0.728024 1.861791 2.324256
0.720174 1.840050 2.814080
0.751813 1.927424 3.078810
0.757493 1.943067 3.507858
0.725961 1.855908 3.948580
0.778087 1.999893 4.095799
0.758061 1.944525 4.478322
0.795090 2.046791 4.732757
0.746729 1.913153 5.074934
0.867275 2.246086 5.810800
0.842219 2.176812 6.293556
0.898396 2.331989 6.425203
0.864679 2.238776 7.013846
0.835643 2.158494 7.602432
0.833157 2.151586 7.970332
0.837835 2.164516 7.924147
0.853062 2.206556 8.126022
0.858330 2.221074 8.436546
0.845304 2.185028 8.965259
0.844967 2.184051 9.382772
0.844246 2.182058 9.391570
0.817312 2.107612 9.730524
0.762666 1.956618 9.994262
0.720700 1.840672 10.093594
0.663585 1.682850 10.418152
0.500432 1.232081 10.806818
0.609355 2.071579 1.595033
0.606122 2.059484 2.040805
0.576953 1.950846 2.696658
0.586714 1.987112 3.072520
0.594964 2.017783 3.236559
0.580099 1.962382 3.830573
0.587615 1.990285 4.255179
0.601060 2.040179 5.160476
0.554509 1.866893 5.614817
0.593791 2.012997 6.063965
0.681818 2.340560 6.012949
0.673089 2.307974 6.692899
0.701696 2.414426 6.680634
0.691512 2.376466 7.104574
0.649486 2.220011 7.607373
0.651810 2.228611 7.920926
0.635098 2.166336 8.508435
0.650368 2.223190 8.297690
0.614181 2.088397 9.215102
0.635285 2.166912 9.303564
0.630025 2.147262 9.831962
0.677714 2.324770 9.479118
0.628934 2.143199 9.850925
0.593661 2.011922 10.005095
0.532966 1.785974 10.663699
0.467150 1.541109 10.392093
0.431511 2.103264 1.617516
0.409306 1.980216 2.063130
0.434716 2.120879 2.221320
0.445136 2.178505 2.543978
0.401841 1.938618 3.263719
0.442497 2.163738 3.249235
0.410085 1.984079 4.119226
0.433115 2.111556 4.320957
0.435833 2.126556 4.536729
0.438865 2.143297 4.751752
0.386081 1.850873 5.484490
0.440403 2.151458 6.381431
0.486517 2.406758 6.547068
0.499225 2.477100 6.644841
0.472019 2.326362 7.092241
0.466264 2.294402 7.517198
0.456052 2.237744 8.050087
0.438792 2.142097 8.389914
0.469898 2.314308 8.507274
0.466791 2.297090 8.570975
0.473072 2.331812 8.825247
0.455236 2.232967 9.218774
0.462669 2.274067 9.471215
0.430002 2.093006 10.307809
0.416299 2.017158 10.185707
0.400372 1.928873 10.639794
0.260054 2.205342 1.483427
0.234073 1.930800 2.430073
0.253541 2.136126 2.686900
0.246092 2.057358 3.072303
0.255151 2.152842 3.333863
0.259580 2.199428 3.703820
0.255886 2.160319 4.030098
0.245593 2.051387 4.783304
0.247393 2.070188 5.264656
0.258414 2.186378 5.512906
0.268663 2.294298 6.069408
0.280370 2.417731 6.311478
0.286839 2.485822 6.714952
0.274280 2.353137 7.106386
0.271299 2.321515 7.529859
0.275982 2.370995 7.373558
0.273421 2.343798 7.795822
0.270043 2.307949 8.271918
0.262087 2.223712 8.967239
0.265812 2.262916 9.220495
0.272152 2.329928 8.953888
0.273318 2.342080 9.316059
0.261101 2.212940 9.874848
0.260927 2.211096 9.883254
0.242729 2.018894 10.314227
0.231226 1.897474 10.414665
0.190941 1.472341 10.516411
0.067838 2.267501 1.603797
0.067575 2.232063 1.668618
0.066685 2.110026 2.325151
0.066685 2.108850 2.546796
0.066964 2.144085 2.923089
0.066802 2.121068 3.198233
0.066767 2.113828 3.681412
0.067535 2.214934 3.940531
0.067091 2.153715 4.322686
0.067026 2.140936 5.123265
0.065852 1.982363 5.521822
0.068468 2.330144 5.731368
0.069185 2.422604 6.339918
0.068448 2.321255 6.931308
0.069549 2.468759 6.808825
0.069823 2.504233 7.014556
0.068742 2.357732 7.462070
0.067849 2.234638 8.216066
0.069140 2.408032 7.978874
0.069137 2.405851 8.345111
0.068342 2.297680 8.739127
0.068942 2.377244 8.829318
0.068836 2.360739 9.300621
0.068980 2.378042 9.660658
0.067352 2.158171 10.197964
0.066605 2.058636 10.185490
0.064841 1.819682 10.900043
0.062614 1.522876 10.855700
-0.118945 2.313037 1.517367
-0.098949 2.041220 2.237984
-0.101197 2.072018 2.616792
-0.105830 2.135255 2.937796
-0.110735 2.202205 3.256570
-0.103601 2.105320 3.696569
-0.105524 2.131717 4.121755
-0.108295 2.169536 4.282924
-0.111137 2.208309 4.443476
-0.107262 2.155894 5.082618
-0.113784 2.244697 5.129076
-0.101997 2.084757 6.095170
-0.125366 2.402875 6.097651
-0.125852 2.409804 6.667218
-0.122965 2.370721 7.091812
-0.129707 2.462529 7.131899
-0.116632 2.284828 7.689047
-0.120984 2.344147 7.836787
-0.122016 2.358169 7.790461
-0.117503 2.297238 8.733323
-0.127665 2.435501 8.603323
-0.113018 2.236526 9.381097
-0.121941 2.357963 9.303194
-0.118877 2.316334 9.476584
-0.114975 2.263334 9.705340
-0.104067 2.114963 9.913267
-0.093936 1.977400 10.588851
-0.072224 1.681815 10.541548
-0.324228 2.247134 1.600354
-0.313291 2.181806 1.932807
-0.288907 2.036108 2.431372
-0.331553 2.291117 2.366225
-0.308526 2.153530 2.861710
-0.295834 2.077722 3.246957
-0.311863 2.173641 3.508045
-0.303404 2.123194 4.098394
-0.324776 2.251046 4.299143
-0.292665 2.059185 5.010942
-0.322566 2.238019 5.095916
-0.296366 2.081430 5.491961
-0.315912 2.198377 5.739336
-0.350023 2.402501 6.328156
-0.370802 2.526823 6.568628
-0.339308 2.338615 7.124393
-0.354475 2.429322 7.164789
-0.314190 2.188600 7.943180
-0.343259 2.362376 7.706027
-0.331815 2.293998 7.934671
-0.326262 2.260899 8.411603
-0.334255 2.308745 8.612180
-0.317397 2.208124 9.416868
-0.335256 2.314916 9.394145
-0.328451 2.274266 9.568114
-0.317772 2.210470 9.852649
-0.274997 1.954848 10.618021
-0.269336 1.920917 10.273319
-0.537854 2.330347 1.381604
-0.535565 2.321343 1.604296
-0.519311 2.257263 2.148221
-0.477082 2.090636 2.700306
-0.457535 2.013528 3.087053
-0.480961 2.106053 3.349854
-0.492348 2.151065 3.721075
-0.482601 2.112639 4.048677
-0.478771 2.097603 4.581465
-0.500320 2.182682 4.630545
-0.472170 2.071677 5.435016
-0.462545 2.033739 5.813521
-0.484601 2.120820 5.858674
-0.537493 2.329674 6.138757
-0.586340 2.522565 6.468273
-0.530007 2.300279 7.132112
-0.518098 2.253337 7.610381
-0.500917 2.185546 7.838849
-0.499992 2.181952 8.206154
-0.519172 2.257685 8.296831
-0.519858 2.260454 8.661563
-0.501511 2.188065 8.945050
-0.501206 2.186928 9.363432
-0.505645 2.204510 9.725142
-0.524113 2.277369 9.403158
-0.486900 2.130564 10.072671
-0.465357 2.045506 10.004661
-0.405389 1.808873 10.717935
-0.689575 2.152131 1.619509
-0.648827 2.034212 2.062866
-0.704989 2.196820 2.165407
-0.704185 2.194520 2.385991
-0.667690 2.088913 2.826515
-0.628830 1.976492 3.532141
-0.694986 2.168028 3.571135
-0.632782 1.988017 4.230030
-0.636634 1.999226 4.706993
-0.688464 2.149267 4.589623
-0.679657 2.123839 5.172382
-0.724475 2.253617 5.366546
-0.694867 2.167923 5.595683
-0.713437 2.221737 6.006487
-0.795553 2.459530 6.481659
-0.750739 2.329833 6.872686
-0.750676 2.329688 7.187221
-0.726471 2.259640 7.415551
-0.723126 2.250000 7.783815
-0.721525 2.245408 8.150893
-0.697437 2.175747 8.791588
-0.706198 2.201097 8.690776
-0.686572 2.144353 9.330479
-0.726327 2.259442 9.253462
-0.679442 2.123775 9.867950
-0.690868 2.156838 9.711797
-0.615637 1.939102 10.309014
-0.536586 1.710261 10.503198
-0.458006 1.482782 10.701363
-0.774153 1.868724 1.428246
-0.926397 2.211607 1.576240
-0.828025 1.990125 2.239475
-0.873550 2.092653 2.240672
-0.827021 1.987908 2.683009
-0.751070 1.816916 3.292676
-0.854662 2.050210 3.222925
-0.827251 1.988559 4.078286
-0.872489 2.090440 4.074196
-0.858105 2.058077 4.400569
-0.896206 2.144014 5.750476
-0.923980 2.206574 5.851262
-0.867554 2.079505 5.935835
-0.854546 2.050245 6.311540
-0.959606 2.286866 6.478106
-0.904937 2.163814 7.178011
-0.920496 2.198874 7.383626
-0.943708 2.251164 7.533573
-0.842960 2.024348 8.367463
-0.906375 2.167148 8.183493
-0.849431 2.038953 8.688166
-0.926868 2.213354 8.748788
-0.880021 2.107894 9.197265
-0.806462 1.942305 9.979965
-0.786707 1.897836 10.211097
-0.781337 1.885748 10.275788
-0.709866 1.724825 10.656265
-0.646871 1.582929 10.403339
-0.469100 1.182584 10.564813
-1.006152 1.940846 1.755116
-0.988993 1.909573 2.033886
-1.057429 2.034405 2.192704
-0.988440 1.908617 2.690359
-0.989162 1.909952 2.911413
-0.958083 1.853316 3.506124
-1.018322 1.963201 3.710506
-0.975494 1.885124 4.148155
-1.093643 2.100627 4.333977
-1.168279 2.236850 5.514215
-1.177014 2.252777 5.468643
-1.079605 2.075182 6.279391
-1.004164 1.937597 6.419858
-0.993174 1.917558 6.484236
-1.055118 2.030580 7.032306
-1.081813 2.079282 7.182731
-0.964739 1.865816 7.964550
-0.994057 1.919300 8.112449
-1.062223 2.043616 7.984085
-1.003557 1.936682 8.792196
-1.014882 1.957362 9.102420
-0.994095 1.919463 9.277324
-0.943144 1.826573 9.729957
-0.936196 1.813904 9.794646
-0.889684 1.729110 10.249341
-0.852732 1.661704 10.126615
-0.756740 1.486667 10.622161
-0.584511 1.172566 10.919133
-1.213674 1.892690 1.025420
-1.201576 1.874789 1.890539
-1.100833 1.725257 2.232339
-1.118148 1.750988 2.610720
-1.149790 1.797969 2.720639
-1.120649 1.754732 3.051704
-1.122654 1.757756 3.744669
-1.151771 1.801007 4.113967
-1.473849 2.279208 5.047327
-1.424307 2.205694 5.528240
-1.293304 2.011259 6.137901
-1.280045 1.991579 6.202178
-1.214394 1.894120 6.232243
-1.093573 1.714779 6.540332
-1.080798 1.695840 6.916042
-1.138552 1.781624 7.573058
-1.161901 1.816300 7.778014
-1.141463 1.785992 8.258663
-1.159357 1.812575 8.516520
-1.154572 1.805500 8.939150
-1.114412 1.745901 9.225902
-1.174964 1.835791 9.203871
-1.169719 1.828039 9.676672
-1.100327 1.725030 9.772934
-1.004455 1.582727 10.093826
-0.978041 1.543531 10.325278
-0.819525 1.308238 10.746296
-0.593080 0.972072 10.740189
-1.289307 1.685405 1.455219
-1.227671 1.608748 2.060088
-1.263135 1.652897 2.384954
-1.262513 1.652136 2.607251
-1.228700 1.610083 2.940053
-1.298882 1.697453 3.632934
-1.231901 1.614124 3.865319
-1.705299 2.203229 4.877604
-1.553240 2.014077 5.736925
-1.663125 2.150795 5.564423
-1.581432 2.049167 5.897989
-1.431149 1.862193 6.253644
-1.127763 1.484724 6.724782
-1.329737 1.736076 7.343012
-1.281223 1.675747 7.934226
-1.350038 1.761371 7.915575
-1.288129 1.684360 8.255633
-1.252846 1.640495 8.844846
-1.312146 1.714283 8.878180
-1.327699 1.733655 9.187459
-1.236940 1.620762 9.805503
-1.190256 1.562666 9.680588
-1.017986 1.348365 10.509404
-0.935489 1.245725 10.668834
-1.360632 1.500538 1.216810
-1.535253 1.683684 1.585508
-1.408633 1.550928 2.139078
-1.309549 1.447047 2.638609
-1.368167 1.508523 2.692314
-1.276438 1.412354 3.191171
-1.423916 1.567029 3.440270
-1.279120 1.415206 3.894399
-1.866321 2.031065 4.942775
-1.801197 1.962782 5.167949
-1.741793 1.900512 5.648649
-1.731224 1.889446 5.965591
-1.579962 1.730834 6.267589
-1.485341 1.631610 6.352517
-1.324901 1.463393 7.027212
-1.126234 1.255047 6.942285
-1.164400 1.295080 7.094967
-1.441969 1.586188 7.479144
-1.313162 1.451165 8.469880
-1.306888 1.444609 8.894884
-1.372161 1.513063 8.928622
-1.399028 1.541253 9.184052
-1.333595 1.472655 9.582188
-1.289104 1.426014 9.870009
-1.203650 1.336403 9.969866
-1.041675 1.166577 10.635870
-1.353895 1.280034 0.893762
-1.516412 1.425523 1.322326
-1.595360 1.496211 1.753172
-1.461052 1.376023 2.308816
-1.439167 1.356448 2.586775
-1.527285 1.435332 2.797284
-1.338712 1.266596 3.794812
-1.969732 1.831466 4.848875
-1.868060 1.740492 5.439912
-1.886164 1.756707 5.649712
-1.931521 1.797298 5.496212
-1.756170 1.640376 6.105785
-1.620511 1.518976 6.610439
-1.576641 1.479702 6.476456
-1.291601 1.224593 6.977737
-1.120395 1.071353 7.037056
-1.193406 1.136723 7.389014
-1.363546 1.289045 8.018557
-1.492915 1.404846 8.138247
-1.527638 1.435938 8.340527
-1.563534 1.468078 8.541818
-1.506848 1.417354 8.827492
-1.504523 1.415295 9.249111
-1.444191 1.361311 9.591328
-1.378362 1.302409 9.990491
-1.295278 1.228044 10.034330
-1.080161 1.035518 10.455185
-1.366015 1.084488 1.312442
-1.541198 1.215461 1.961069
-1.560962 1.230242 2.129235
-1.561871 1.230943 2.565011
-1.562423 1.231366 2.787092
-1.982552 1.545502 5.008318
-1.889230 1.475762 5.291779
-1.873072 1.463700 5.612979
-1.978934 1.542825 5.550227
-1.759125 1.378562 6.273604
-1.804682 1.412606 6.118411
-1.538902 1.213963 6.448488
-1.352438 1.074607 6.818430
-1.155869 0.927701 7.250252
-1.110742 0.893979 7.431302
-1.220070 0.975709 7.670168
-1.523008 1.202166 8.158160
-1.441087 1.140970 8.921469
-1.562815 1.231948 8.733309
-1.569801 1.237188 9.102475
-1.451800 1.149017 9.727012
-1.430187 1.132868 9.849362
-1.359985 1.080392 9.782126
-1.229352 0.982788 10.582568
-1.026758 0.831344 10.308917
-0.703649 0.589861 10.840997
-1.525262 1.009912 1.158267
-1.636562 1.079274 1.965643
-1.459348 0.968921 2.591374
-1.536564 1.017029 2.858507
-1.547840 1.024072 3.291470
-1.521346 1.007573 3.357564
-2.165272 1.408713 4.590689
-2.044309 1.333396 5.185033
-1.943315 1.270490 5.211969
-1.902223 1.244901 5.331913
-1.840749 1.206644 6.075730
-1.703183 1.120965 6.227512
-1.439198 0.956549 6.506351
-1.210789 0.814302 6.993794
-1.005003 0.686144 7.431033
-0.891572 0.615495 7.527498
-1.522179 1.008313 8.195316
-1.555602 1.029160 8.815591
-1.622477 1.070838 9.326744
-1.523113 1.008970 9.837975
-1.553266 1.027744 9.677802
-1.396464 0.930094 10.057771
-1.263211 0.847107 10.328605
-1.706922 0.932089 0.952482
-1.685722 0.921259 1.826388
-1.675107 0.915828 2.063328
-1.495317 0.823692 2.681051
-1.552309 0.852921 3.005330
-1.519360 0.836055 3.551928
-1.645502 0.900736 3.964947
-2.200943 1.185498 4.783980
-2.157924 1.163463 5.158536
-1.810754 0.985517 5.596889
-1.736282 0.947377 6.397969
-1.614752 0.885083 6.484825
-1.528146 0.840686 6.460206
-1.355368 0.752129 6.718422
-0.961066 0.550051 7.799891
-1.071788 0.606821 8.093169
-1.569982 0.862213 8.319340
-1.521328 0.837298 8.915283
-1.496481 0.824585 9.453809
-1.524874 0.839153 9.765647
-1.437038 0.794147 10.233203
-1.405680 0.778080 10.411084
-1.122615 0.632980 10.476704
-0.670607 0.401299 11.051187
-1.235628 0.549928 0.781965
-1.658357 0.719361 1.197256
-1.811730 0.780842 1.519383
-1.586036 0.690419 2.192090
-1.667020 0.722886 2.461311
-1.455741 0.638232 2.921827
-1.469448 0.643743 3.356920
-1.622950 0.705257 3.240312
-2.320172 0.984743 4.735810
-2.167297 0.923492 5.128488
-1.615615 0.702450 6.409918
-1.599149 0.695840 6.161416
-1.431316 0.628600 6.679257
-1.304856 0.577923 6.771005
-0.865832 0.401998 7.264029
-0.619713 0.303369 7.449233
-0.715910 0.341937 7.807712
-1.249623 0.555854 8.351910
-1.563530 0.681669 8.635400
-1.583619 0.689733 8.951766
-1.632552 0.709353 9.154394
-1.541396 0.672857 10.038612
-1.395451 0.614379 10.309551
-1.262058 0.560928 10.526298
-0.976936 0.446661 10.536771
-1.611817 0.560530 0.968101
-1.846615 0.634449 1.556628
-1.782494 0.614283 1.893629
-1.805584 0.621556 2.062455
-1.747633 0.603332 2.398482
-1.614923 0.561587 2.902827
-1.441666 0.507085 3.521264
-1.697136 0.587491 3.656931
-2.257631 0.763934 4.802572
-2.121418 0.721069 4.884090
-1.566433 0.546456 6.102380
-1.505756 0.527368 6.280240
-1.592860 0.554783 6.321957
-1.443469 0.507773 6.466949
-0.854440 0.322448 7.751950
-0.988203 0.364555 7.989172
-1.307837 0.465161 8.277051
-1.532508 0.535896 8.954693
-1.517058 0.531036 9.019599
-1.444442 0.508214 9.786785
-1.512679 0.529695 9.929504
-1.534160 0.536451 9.824853
-1.359939 0.481637 10.209669
-1.181141 0.425385 10.656110
-0.774503 0.297414 10.767497
-1.855719 0.450425 1.636009
-1.705013 0.418079 1.925641
-1.644584 0.405118 2.262473
-1.540834 0.382869 2.925584
-1.712458 0.419721 3.022010
-1.602992 0.396228 3.256738
-2.271651 0.539858 4.917721
-2.110597 0.505285 5.054094
-1.954654 0.471819 5.451782
-1.838703 0.446925 5.480558
-1.485491 0.371104 5.869627
-1.614740 0.398851 5.800793
-1.490056 0.372095 6.149608
-1.350938 0.342242 6.557087
-1.198671 0.309556 6.706305
-0.974859 0.261517 7.088292
-0.645761 0.190875 7.505273
-0.847310 0.234149 7.513659
-1.122518 0.293271 8.353639
-1.368464 0.346101 8.978538
-1.531248 0.381042 8.728746
-1.553664 0.385867 9.045661
-1.675004 0.411933 9.384099
-1.468714 0.367680 10.363840
-1.285949 0.328436 10.277885
-1.027867 0.273038 10.594707
-1.373032 0.228562 0.711769
-1.583137 0.255724 1.361212
-1.839346 0.288822 1.514126
-1.567863 0.253777 2.030316
-1.653152 0.264804 2.300786
-1.624303 0.261089 2.581109
-1.448194 0.238375 3.413790
-1.482140 0.242766 3.578887
-2.248996 0.341851 4.547870
-1.736458 0.275691 5.550040
-1.555243 0.252293 5.749904
-1.448315 0.238494 6.043265
-1.190876 0.205273 6.795726
-1.150852 0.200108 6.919378
-0.962693 0.175816 7.186406
-0.847403 0.160927 7.223671
-0.926889 0.171224 8.014118
-1.322406 0.222311 8.073482
-1.301366 0.219627 8.933483
-1.436780 0.237128 9.217629
-1.517831 0.247600 9.306193
-1.547711 0.251472 9.620565
-1.425941 0.235767 10.196780
-1.390710 0.231223 10.376235
-1.280735 0.217021 10.423061
-0.913038 0.169543 10.780929
-1.666867 0.124638 1.445751
-1.598887 0.121643 1.785168
-1.623073 0.122719 1.954349
-1.481510 0.116483 2.677497
-1.601123 0.121784 2.888247
-1.668537 0.124780 3.210240
-1.429009 0.114201 3.729867
-2.045911 0.141552 5.082097
-1.952678 0.137435 5.314341
-1.948882 0.137268 5.323928
-1.671428 0.124997 5.485084
-1.509687 0.117845 5.628832
-1.372535 0.111802 6.298600
-1.369108 0.111651 6.308404
-1.039773 0.097091 6.655570
-0.884574 0.090229 6.808129
-0.717122 0.082840 7.342738
-0.723362 0.083129 7.673519
-1.086885 0.099237 8.225552
-1.388924 0.112603 8.257454
-1.290230 0.108266 9.034906
-1.509895 0.117984 8.978663
-1.334813 0.110266 9.728571
-1.430277 0.114492 9.759708
-1.365754 0.111648 10.064207
-1.117030 0.005704 1.000987
-1.637266 -0.015311 1.299408
-1.536383 -0.011210 1.913218
-1.472235 -0.008612 2.037158
-1.647209 -0.015672 2.353898
-1.562762 -0.012244 2.748085
-1.430801 -0.006890 3.255885
-1.463763 -0.008216 3.422228
-1.995753 -0.029659 4.952090
-1.946065 -0.027645 5.073805
-1.941914 -0.027477 5.084050
-1.733380 -0.019039 5.337459
-1.505891 -0.009832 5.650999
-1.349215 -0.003471 6.378629
-1.325892 -0.002526 6.446240
-1.055290 0.008418 6.622408
-0.766946 0.020082 6.861123
-0.726358 0.021727 6.988676
-0.884343 0.015361 7.495497
-1.213511 0.002069 7.792510
-1.401574 -0.005516 8.228068
-1.316551 -0.002051 8.946434
-1.522642 -0.010381 8.945867
-1.372334 -0.004281 9.579618
-1.430384 -0.006620 9.780162
-1.404204 -0.005557 9.902070
-1.332261 -0.002635 10.252439
-1.068499 0.008038 10.567427
-0.621610 0.026109 10.796186
-1.151161 -0.093656 0.521657
-1.072325 -0.083723 0.868840
-1.317259 -0.114519 1.462210
-1.426207 -0.128211 1.897462
-1.479843 -0.134955 2.010526
-1.479936 -0.134950 2.452086
-1.459987 -0.132420 2.947998
-1.401286 -0.125029 3.072039
-1.598925 -0.149877 3.591683
-1.860504 -0.182736 4.997280
-1.902344 -0.188005 4.894402
-1.878185 -0.184952 5.220437
-1.638590 -0.154780 5.847526
-1.449204 -0.130952 5.787037
-1.262751 -0.107471 6.309843
-1.259584 -0.107072 6.319017
-1.084415 -0.085023 6.525707
-0.835543 -0.053703 6.645483
-0.720514 -0.039215 7.004890
-0.856362 -0.056271 7.945123
-1.219887 -0.102006 8.120058
-1.286592 -0.110379 8.639628
-1.377013 -0.121739 9.097424
-1.388608 -0.123200 9.049542
-1.389274 -0.123267 9.480718
-1.287920 -0.110495 9.946759
-1.216869 -0.101541 10.299741
-1.312459 -0.113568 10.328120
-1.072308 -0.083342 10.529559
-0.578829 -0.021228 11.052460
-1.039343 -0.167587 0.703790
-1.344541 -0.232034 0.965976
-1.382500 -0.240020 1.736599
-1.405704 -0.244914 1.907246
-1.233063 -0.208430 2.477021
-1.376044 -0.238621 2.633002
-1.386001 -0.240707 3.072262
-1.239981 -0.209864 3.154402
-1.930528 -0.355653 4.513802
-1.856430 -0.339986 4.953575
-1.785696 -0.325040 5.131865
-1.651775 -0.296742 5.479578
-1.318333 -0.226306 5.816729
-1.273715 -0.216878 5.941573
-1.262486 -0.214494 6.271817
-1.015573 -0.162341 6.389562
-0.749953 -0.106223 6.891682
-0.715565 -0.098943 7.341139
-0.959404 -0.150432 7.554431
-1.046694 -0.168837 8.340717
-1.403880 -0.244282 8.143965
-1.419168 -0.247497 8.465418
-1.341666 -0.231101 9.184335
-1.434370 -0.250678 9.218073
-1.392625 -0.241855 9.399257
-1.267378 -0.215379 9.980739
-1.154800 -0.191580 10.564923
-1.026403 -0.164457 10.727573
-0.677256 -0.090705 11.033576
-1.153316 -0.293686 0.459682
-1.190632 -0.304891 0.798000
-1.315821 -0.342511 1.182233
-1.273645 -0.329802 1.904706
-1.297408 -0.336939 2.075197
-1.271641 -0.329172 2.575326
-1.359089 -0.355451 2.844606
-1.198498 -0.307158 3.198064
-1.782352 -0.482618 4.790177
-1.714376 -0.462164 5.230741
-1.689184 -0.454588 5.297254
-1.470683 -0.388887 5.610439
-1.126088 -0.285275 6.008729
-1.142777 -0.290294 5.960223
-1.003949 -0.248542 6.372630
-0.762132 -0.175827 6.814623
-0.762167 -0.175824 7.145627
-0.766080 -0.176987 7.475535
-1.065930 -0.267116 7.829159
-1.385044 -0.363040 8.119505
-1.356705 -0.354500 8.610217
-1.337149 -0.348601 9.099652
-1.338634 -0.349030 9.530603
-1.324411 -0.344752 9.596555
-1.146159 -0.291148 9.985238
-1.110712 -0.280484 10.166731
-1.108988 -0.279966 10.175722
-0.852418 -0.288535 0.567633
-0.880724 -0.299902 1.347846
-1.230536 -0.440766 1.704626
-1.253494 -0.450005 1.873450
-1.223339 -0.437849 2.156028
-1.072786 -0.377184 2.941057
-1.102761 -0.389249 3.107057
-1.181069 -0.420763 3.642299
-1.484788 -0.543058 4.137747
-1.770313 -0.658014 4.950298
-1.580726 -0.581640 5.463723
-1.201549 -0.428913 5.986516
-0.892187 -0.304309 6.331824
-0.692871 -0.224026 6.657746
-0.654980 -0.208760 6.783200
-0.706035 -0.229315 6.939138
-0.925213 -0.317559 7.530676
-1.141137 -0.404492 8.168478
-1.204606 -0.430031 8.687029
-1.328927 -0.480086 8.972753
-1.404082 -0.510350 9.061808
-1.351478 -0.489155 9.297402
-1.140345 -0.404102 9.855342
-1.138710 -0.403443 9.863639
-1.071423 -0.376330 10.216866
-0.968343 -0.334815 10.263551
-0.474447 -0.135880 10.959853
-0.799435 -0.346201 0.414698
-1.235537 -0.566034 1.605981
-1.072494 -0.483802 2.177442
-1.147708 -0.521723 2.232510
-1.126559 -0.511038 2.732343
-1.032623 -0.463655 3.187511
-1.063284 -0.479086 3.839172
-1.594146 -0.746743 3.978488
-1.554458 -0.726683 5.110441
-1.491037 -0.694698 5.289477
-1.112807 -0.503956 6.138319
-0.941256 -0.417461 6.081714
-0.642448 -0.266771 6.757819
-0.674373 -0.282859 6.974062
-0.707819 -0.299713 7.189391
-0.984297 -0.439099 7.546200
-1.249895 -0.572997 7.953750
-1.234592 -0.565262 8.388247
-1.187445 -0.541465 8.992895
-1.235279 -0.565574 9.196151
-1.197512 -0.546524 9.375779
-1.149417 -0.522264 9.612968
-1.114206 -0.504502 9.793246
-0.930442 -0.411825 10.299911
-0.764511 -0.328142 10.754304
-0.430174 -0.159576 10.575373
-0.746551 -0.398270 0.459234
-0.835059 -0.452540 0.683415
-0.967652 -0.533833 1.232575
-1.058670 -0.589633 1.671185
-1.005044 -0.556720 2.232477
-0.884426 -0.482722 2.748388
-0.964297 -0.531694 3.017333
-1.091719 -0.609834 3.169624
-1.155544 -0.648940 3.974038
-1.521442 -0.873328 4.240537
-1.393696 -0.794955 4.852906
-1.410831 -0.805454 5.069711
-1.373219 -0.782370 5.455293
-1.155275 -0.648703 5.564415
-0.937567 -0.515180 5.676599
-0.844988 -0.458389 5.975676
-0.657615 -0.343460 6.301823
-0.523334 -0.261100 6.455681
-0.542217 -0.272639 7.378896
-0.918707 -0.503523 7.647894
-1.214965 -0.685204 7.884702
-1.159711 -0.651290 8.491981
-1.201730 -0.677050 8.698400
-1.197254 -0.674285 9.131734
-1.198860 -0.675250 9.563574
-1.123063 -0.628746 9.973361
-1.079544 -0.602067 9.733198
-0.922453 -0.505708 10.125427
-0.836132 -0.452744 10.656109
-0.742451 -0.484017 0.387906
-0.747626 -0.487811 0.786786
-0.924154 -0.617872 1.220419
-0.937546 -0.627710 1.831977
-1.005409 -0.677705 2.106320
-0.957390 -0.642303 2.449141
-1.007705 -0.679364 2.777385
-1.017893 -0.686851 3.218003
-0.951715 -0.638052 3.885682
-1.169131 -0.798257 4.016840
-1.305294 -0.898564 4.638864
-1.339136 -0.923481 5.064414
-1.060232 -0.717944 5.400173
-0.871229 -0.578667 5.454869
-0.908517 -0.606136 5.616211
-0.803582 -0.528794 5.973865
-0.642485 -0.410070 6.242508
-0.483554 -0.292943 6.514471
-0.574442 -0.359887 7.145240
-0.858607 -0.569258 7.707475
-1.138609 -0.775576 7.944392
-1.063328 -0.720068 8.667127
-1.187253 -0.811396 8.474976
-1.091150 -0.740535 9.365507
-1.189031 -0.812667 9.284954
-1.005547 -0.677433 9.843010
-0.896189 -0.596840 10.003673
-0.894770 -0.595794 10.012237
-0.732466 -0.476170 10.522936
-0.524613 -0.391152 0.393060
-0.553817 -0.416664 0.735555
-0.692302 -0.537688 1.449925
-0.864612 -0.688297 1.876981
-0.774227 -0.609260 2.337390
-0.731561 -0.571945 2.682058
-0.884176 -0.705356 2.722058
-0.832924 -0.660520 3.337036
-0.711552 -0.554401 3.695518
-0.838902 -0.665709 4.058105
-1.019570 -0.823609 4.779317
-1.173134 -0.957851 4.808847
-1.031420 -0.833957 5.007838
-0.840780 -0.667283 5.382254
-0.772927 -0.607954 5.622257
-0.583787 -0.442574 6.329215
-0.596521 -0.453709 6.279689
-0.549512 -0.412604 6.464028
-0.507807 -0.376104 7.295671
-0.788894 -0.621800 7.796017
-1.016473 -0.820744 7.830739
-1.039742 -0.841053 8.464754
-1.110744 -0.903120 8.499207
-0.968673 -0.778885 9.250578
-1.020328 -0.824033 9.396550
-0.877995 -0.699588 9.785259
-0.840170 -0.666510 10.024634
-0.869425 -0.692067 10.341272
-0.794225 -0.626330 10.331085
-0.450499 -0.400241 0.486112
-0.573917 -0.530048 1.202832
-0.683479 -0.645261 2.203756
-0.648314 -0.608232 2.765066
-0.657702 -0.618085 3.207704
-0.735725 -0.700172 3.200907
-0.696935 -0.659327 3.813285
-0.785820 -0.752831 4.017995
-0.775106 -0.741512 4.834945
-0.773645 -0.739959 5.111836
-0.740280 -0.704849 5.236606
-0.668074 -0.628850 5.802279
-0.608500 -0.566159 6.044133
-0.523069 -0.476258 6.403676
-0.440975 -0.389868 6.764854
-0.438886 -0.387669 6.774265
-0.677268 -0.638437 7.341948
-0.900724 -0.873495 8.011206
-0.921406 -0.895239 8.276285
-0.954337 -0.929873 8.483054
-0.952661 -0.928109 8.492205
-0.908294 -0.881394 9.155218
-0.906779 -0.879800 9.164392
-0.823848 -0.792519 9.690357
-0.813862 -0.782009 9.757140
-0.663740 -0.624035 10.324592
-0.662507 -0.622738 10.333890
-0.356394 -0.356986 0.252661
-0.754636 -0.845624 1.822081
-0.733360 -0.819496 2.107895
-0.639325 -0.704075 2.406861
-0.552296 -0.597239 2.925078
-0.579079 -0.630084 3.310104
-0.593024 -0.647171 3.750669
-0.674110 -0.746669 3.956597
-0.649088 -0.715924 4.565300
-0.793351 -0.892970 4.536077
-0.775241 -0.870724 4.871073
-0.662895 -0.732804 5.609367
-0.660565 -0.729944 5.619317
-0.485873 -0.515547 5.793473
-0.402173 -0.412785 6.481397
-0.485004 -0.514442 6.404819
-0.518234 -0.555193 6.885295
-0.716253 -0.798166 7.564231
-0.896221 -1.019023 7.658660
-0.813221 -0.917111 8.495651
-0.844579 -0.955581 8.701566
-0.824743 -0.931231 8.824882
-0.805273 -0.907329 8.948345
-0.821645 -0.927401 9.267375
-0.762722 -0.855065 9.678218
-0.664969 -0.735053 10.437308
-0.630172 -0.692364 10.195389
-0.366874 -0.453504 0.520995
-0.449953 -0.576727 1.296809
-0.610641 -0.815130 1.826983
-0.625006 -0.836434 1.996434
-0.657727 -0.884964 2.325379
-0.611109 -0.815761 2.723990
-0.618499 -0.826697 3.164551
-0.549952 -0.724947 3.677599
-0.538406 -0.707776 4.229944
-0.639447 -0.857701 4.315944
-0.609315 -0.812943 4.977550
-0.572182 -0.757811 5.427243
-0.610580 -0.814782 5.528687
-0.473320 -0.611080 5.909381
-0.350304 -0.428519 6.236470
-0.379347 -0.471604 6.394640
-0.355535 -0.436239 6.845688
-0.567001 -0.750015 6.975710
-0.743344 -1.011638 7.650034
-0.811959 -1.113432 7.943055
-0.768355 -1.048683 8.606104
-0.764806 -1.043388 9.039376
-0.686195 -0.926730 9.196371
-0.708254 -0.959473 9.032229
-0.652503 -0.876683 9.925946
-0.610464 -0.814313 9.798147
-0.582509 -0.772815 10.038020
-0.549497 -0.723809 10.336385
-0.284007 -0.404362 0.271084
-0.318404 -0.465928 0.555444
-0.434524 -0.673772 1.377670
-0.517042 -0.821476 1.920574
-0.473075 -0.742722 2.323726
-0.544291 -0.870220 2.480051
-0.517739 -0.822651 2.823003
-0.550633 -0.881522 3.149654
-0.515494 -0.818574 3.548469
-0.455946 -0.711892 4.334888
-0.542650 -0.867105 4.691243
-0.574462 -0.924056 4.796638
-0.507946 -0.804909 5.421355
-0.527510 -0.839947 5.315692
-0.381047 -0.577690 5.546632
-0.323184 -0.474038 6.177195
-0.346715 -0.516131 6.662316
-0.335767 -0.496522 6.731349
-0.466032 -0.729721 7.212993
-0.622572 -1.009949 7.886273
-0.699070 -1.146903 8.065674
-0.737113 -1.215009 8.157754
-0.708809 -1.164285 8.761690
-0.592289 -0.955613 9.319356
-0.591372 -0.953971 9.327455
-0.564929 -0.906607 9.566175
-0.521802 -0.829356 9.978971
-0.476467 -0.748147 10.451191
-0.486461 -0.766050 10.343189
-0.166739 -0.244612 0.424503
-0.443742 -0.855094 1.715811
-0.478255 -0.931147 1.991244
-0.406256 -0.772384 2.567869
-0.429793 -0.824256 2.680019
-0.408280 -0.776801 3.023825
-0.415421 -0.792501 3.466251
-0.467512 -0.907306 3.674230
-0.408620 -0.777411 4.516922
-0.483304 -0.942030 4.603232
-0.463624 -0.898587 5.265293
-0.443740 -0.854745 5.391473
-0.346696 -0.640822 5.447924
-0.283335 -0.501115 5.868815
-0.325808 -0.594709 6.180221
-0.290658 -0.517175 6.750395
-0.384196 -0.723335 7.027668
-0.518266 -1.018842 7.330801
-0.552382 -1.093970 8.115128
-0.577942 -1.150299 8.266671
-0.603851 -1.207397 8.417460
-0.565668 -1.123195 8.770927
-0.501606 -0.981922 9.413428
-0.535523 -1.056677 9.503472
-0.468060 -0.907942 9.780531
-0.428012 -0.819617 10.254308
-0.427171 -0.817763 10.264735
-0.229344 -0.492712 0.801830
-0.373046 -0.896287 1.271762
-0.409108 -0.997504 1.929687
-0.407874 -0.994011 2.158132
-0.322963 -0.755427 2.907782
-0.342598 -0.810563 3.018603
-0.309041 -0.716254 3.478054
-0.339759 -0.802472 4.016445
-0.399947 -0.971518 4.105460
-0.411501 -1.003923 4.539442
-0.395023 -0.957562 5.201160
-0.401218 -0.974968 5.153551
-0.256581 -0.568645 5.733906
-0.227272 -0.486292 5.979354
-0.275699 -0.622292 6.172901
-0.292785 -0.670263 6.332639
-0.309856 -0.718158 6.814623
-0.370558 -0.888569 7.582718
-0.470395 -1.168942 7.992405
-0.496297 -1.241685 8.086870
-0.476130 -1.184970 8.694856
-0.470348 -1.168722 8.762199
-0.431748 -1.060248 9.231657
-0.445833 -1.099779 9.494270
-0.412350 -1.005735 9.482342
-0.354842 -0.844112 10.300555
-0.346876 -0.821720 10.424864
-0.309736 -0.717397 10.472841
-0.155969 -0.285464 10.763568
-0.075180 -0.085718 0.562531
-0.278802 -0.856296 2.059235
-0.278055 -0.853434 2.289227
-0.249238 -0.744277 2.751446
-0.263932 -0.799886 2.863656
-0.237615 -0.700192 3.325014
-0.243234 -0.721397 3.767902
-0.282373 -0.869534 3.917048
-0.296552 -0.923148 4.296600
-0.282433 -0.869600 4.963016
-0.305081 -0.955328 5.010763
-0.223738 -0.647318 5.566070
-0.211962 -0.602723 5.692198
-0.203261 -0.569727 6.086762
-0.240436 -0.710421 6.278092
-0.195264 -0.539391 6.489434
-0.343148 -1.099026 7.649422
-0.358024 -1.155260 8.172962
-0.383103 -1.250134 8.577505
-0.349402 -1.122482 9.102257
-0.363286 -1.175009 9.306354
-0.366199 -1.186041 9.257744
-0.352152 -1.132831 9.496065
-0.292119 -0.905482 10.118832
-0.275695 -0.843339 9.933579
-0.248932 -0.741945 10.466461
-0.223307 -1.023014 1.554917
-0.202733 -0.900370 2.014787
-0.197616 -0.869825 2.300573
-0.192993 -0.842227 2.585813
-0.179820 -0.763674 2.987022
-0.180794 -0.769424 3.212825
-0.174358 -0.730892 4.043367
-0.184028 -0.788400 4.421335
-0.206177 -0.920268 4.622354
-0.198506 -0.874425 5.284993
-0.194290 -0.849301 5.351961
-0.174603 -0.732036 5.383790
-0.152640 -0.601146 5.743993
-0.166142 -0.681476 6.112764
-0.133007 -0.483983 6.709055
-0.142646 -0.541277 7.190326
-0.215553 -0.975448 7.461258
-0.245958 -1.156435 7.900637
-0.253895 -1.203574 8.479294
-0.262100 -1.252392 8.685240
-0.256891 -1.221342 8.808536
-0.247114 -1.163054 9.046814
-0.234707 -1.088972 9.825760
-0.226506 -1.040186 9.582633
-0.207996 -0.929819 10.112040
-0.178469 -0.753861 10.509079
-0.147433 -0.569032 10.422918
-0.066871 -0.191643 0.389920
-0.122307 -0.858710 1.903327
-0.129237 -0.942161 1.959281
-0.112465 -0.739820 2.596169
-0.112623 -0.741616 2.825091
-0.106277 -0.664991 3.228828
-0.120938 -0.841548 3.322377
-0.124884 -0.888906 3.705500
-0.129263 -0.941476 4.085987
-0.132095 -0.975379 4.521638
-0.135496 -1.016142 4.954288
-0.122171 -0.855436 5.370814
-0.105120 -0.649916 5.638607
-0.097812 -0.561772 5.884203
-0.096516 -0.545847 6.548019
-0.099336 -0.579714 6.766231
-0.114801 -0.765968 6.838326
-0.137070 -1.033993 7.316269
-0.146591 -1.148374 7.987096
-0.159648 -1.305574 8.165226
-0.158513 -1.291692 8.600964
-0.155866 -1.259750 8.724831
-0.157783 -1.282694 9.044740
-0.153067 -1.225767 9.283279
-0.135228 -1.010649 9.789113
-0.123951 -0.874724 9.951966
-0.116215 -0.781317 10.427271
-0.099802 -0.583629 10.399966
-0.050625 -0.318432 0.583506
-0.050252 -1.086986 1.476914
-0.050355 -0.930934 1.996203
-0.050401 -0.870201 2.341892
-0.050461 -0.787065 2.743472
-0.050467 -0.791013 2.969707
-0.050587 -0.612750 3.604810
-0.050448 -0.883520 3.734322
-0.050449 -0.912879 4.170734
-0.050491 -0.878692 4.778374
-0.050397 -1.060916 4.861321
-0.050520 -0.883347 5.600915
-0.050612 -0.722285 5.750069
-0.050667 -0.635578 5.992997
-0.050673 -0.645703 6.269033
-0.050739 -0.563046 6.837647
-0.050801 -0.467994 7.140971
-0.050696 -0.708925 7.733821
-0.050481 -1.137972 8.053174
-0.050382 -1.328165 8.115660
-0.050477 -1.211315 8.951484
-0.050448 -1.252263 8.787939
-0.050458 -1.262492 9.164168
-0.050469 -1.246821 9.229977
-0.050621 -1.005439 9.850107
-0.050613 -1.015892 9.800857
-0.050759 -0.788023 10.428638
-0.050879 -0.568041 10.517978
-0.011283 -0.457927 0.335854
-0.009900 -0.473957 0.512842
0.020574 -0.825993 1.546295
0.043088 -1.085809 1.695024
0.029973 -0.934736 2.213272
0.024971 -0.877178 2.557877
0.020347 -0.823985 2.902094
0.030885 -0.945662 3.113185
0.059595 -1.277205 3.832062
0.054853 -1.222549 3.956761
0.021261 -0.835310 4.621680
0.052908 -1.200488 4.782191
0.047253 -1.135566 5.497613
0.027746 -0.910662 5.819965
0.005754 -0.656992 5.937801
0.007237 -0.674079 5.889508
0.004173 -0.639058 6.609377
-0.002646 -0.560359 6.529635
-0.009373 -0.483005 7.100635
0.025508 -0.885599 7.490503
0.052511 -1.197284 7.844539
0.053848 -1.213026 8.539359
0.058126 -1.262471 8.746534
0.056544 -1.244440 9.238933
0.047347 -1.138550 9.706993
0.050484 -1.174664 9.542981
0.036439 -1.012751 9.818477
0.017724 -0.797093 10.388093
0.011036 -0.719879 10.261168
-0.025611 -0.297389 10.924049
0.037160 -0.518575 0.429697
0.130139 -1.062503 1.510490
0.138830 -1.113398 1.844124
0.123361 -1.023043 2.246105
0.074988 -0.740321 2.837869
0.126033 -1.038872 3.134310
0.190677 -1.417002 3.738316
0.214979 -1.559202 4.153887
0.150514 -1.182344 4.542359
0.130221 -1.063688 4.571893
0.133414 -1.082473 5.060461
0.161174 -1.244887 5.466175
0.115978 -0.980711 5.902375
0.064237 -0.678159 5.869605
0.052102 -0.607318 6.381795
0.031900 -0.489277 6.745215
0.041049 -0.542806 6.903836
0.083618 -0.791849 7.442048
0.127898 -1.050891 7.970226
0.162744 -1.254731 8.347861
0.160862 -1.243828 8.784358
0.181695 -1.365629 8.704861
0.153016 -1.198090 9.401619
0.135513 -1.095854 9.871903
0.127061 -1.046377 9.630216
0.102543 -0.903176 10.335251
0.085658 -0.804441 10.326614
0.034325 -0.504408 10.887540
0.166453 -0.841136 0.236310
0.233690 -1.099682 1.622986
0.187903 -0.923853 2.198093
0.223827 -1.061865 2.136725
0.180806 -0.896662 2.711074
0.360293 -1.586476 4.033055
0.345372 -1.529209 4.421413
0.279848 -1.277474 4.523870
0.302114 -1.363028 4.571699
0.324780 -1.450247 5.421997
0.238799 -1.119949 5.761147
0.124984 -0.682717 6.134024
0.129277 -0.699205 6.085112
0.107380 -0.615161 6.654064
0.078179 -0.503025 7.016567
0.113916 -0.640416 7.583330
0.205662 -0.992943 7.763029
0.237360 -1.114832 8.429826
0.266667 -1.227486 8.776747
0.248134 -1.156326 9.073073
0.265125 -1.221630 9.220573
0.251131 -1.167900 9.459489
0.222743 -1.058839 9.504421
0.188211 -0.926264 10.150084
0.154412 -0.796427 10.314777
0.238984 -0.831827 0.222223
0.160848 -0.609911 0.641607
0.222888 -0.786209 1.135423
0.277307 -0.940889 1.900440
0.295363 -0.992195 2.014037
0.294329 -0.989284 2.242719
0.325716 -1.078506 2.731280
0.437063 -1.394925 3.667207
0.564997 -1.758367 3.786060
0.495649 -1.561450 4.511239
0.426660 -1.365438 4.233691
0.369365 -1.202723 4.643723
0.432217 -1.381373 5.523246
0.461959 -1.465869 5.569018
0.353177 -1.156848 5.587378
0.223051 -0.787216 5.783200
0.147369 -0.572299 6.437318
0.171307 -0.640312 6.537242
0.144776 -0.564972 6.781612
0.210419 -0.751532 7.495131
0.288055 -0.972107 7.763481
0.350541 -1.149665 8.200323
0.361108 -1.179717 8.465403
0.339466 -1.118314 9.130999
0.366469 -1.195034 9.221021
0.335185 -1.106211 9.632373
0.297862 -1.000191 9.678044
0.268958 -0.918130 10.092569
0.199335 -0.720352 10.120996
0.118368 -0.490369 10.327178
0.168664 -0.499192 0.417042
0.357410 -0.919290 1.671470
0.367467 -0.941682 1.841892
0.342106 -0.885285 2.185411
0.369430 -0.946134 2.731444
0.667581 -1.609698 4.267333
0.616704 -1.496518 4.557798
0.508840 -1.256546 4.934658
0.499251 -1.235240 5.265683
0.509086 -1.257146 5.481640
0.369552 -0.946700 5.822822
0.231789 -0.640197 6.172215
0.205883 -0.582569 6.357029
0.141306 -0.438925 6.836954
0.124842 -0.402302 6.964123
0.222022 -0.618594 7.560204
0.390323 -0.993118 7.940463
0.449935 -1.125817 8.546309
0.476454 -1.184839 8.694856
0.497419 -1.231509 8.899771
0.445916 -1.116959 9.424046
0.408661 -1.034101 9.835438
0.348070 -0.899301 10.054994
0.283621 -0.755921 10.335038
0.175723 -0.515869 10.659074
0.103075 -0.354206 10.514591
0.391322 -0.807905 0.777709
0.510748 -1.022624 1.373399
0.520504 -1.040191 1.764544
0.489514 -0.984513 2.108346
0.375787 -0.780125 2.581951
0.850252 -1.633102 4.042804
0.809625 -1.560110 4.485589
0.616826 -1.213543 4.396220
0.613287 -1.207204 4.673305
0.695192 -1.354503 5.607116
0.457763 -0.927782 6.371728
0.279651 -0.607634 6.518932
0.297004 -0.638818 6.412360
0.202610 -0.469190 7.010121
0.267452 -0.585765 7.256035
0.418168 -0.856708 7.614637
0.539685 -1.075184 8.196285
0.570215 -1.130074 8.345847
0.579275 -1.146385 8.666232
0.537277 -1.070956 9.443785
0.499239 -1.002609 9.797408
0.504370 -1.011828 9.748369
0.409399 -0.841153 10.199014
0.307607 -0.658181 10.227368
0.226861 -0.513067 10.569437
0.305496 -0.546140 0.444377
0.662432 -1.077859 1.569720
0.609117 -0.998477 1.970275
0.559152 -0.924085 2.370878
0.624857 -1.021964 2.584368
1.003306 -1.585744 3.963636
1.010515 -1.596498 4.180963
0.823252 -1.317614 4.713617
0.754478 -1.215218 5.289257
0.708218 -1.146350 5.789958
0.550828 -0.911958 6.282167
0.357562 -0.624103 6.368493
0.291956 -0.526389 6.404504
0.183849 -0.365409 7.003396
0.235426 -0.442234 7.042585
0.397225 -0.683255 7.461865
0.580925 -0.956890 7.758256
0.580143 -0.955778 8.512146
0.686620 -1.114376 8.572144
0.698437 -1.131998 8.891959
0.628268 -1.027520 9.416644
0.612573 -1.004152 9.540735
0.590200 -0.970842 9.722507
0.449772 -0.761731 10.463903
0.345354 -0.606199 10.377935
0.094924 -0.233210 10.610318
0.571845 -0.783852 0.240142
0.667556 -0.901660 1.627486
0.644868 -0.873772 1.914365
0.569732 -0.781386 2.374264
0.605217 -0.825037 2.486599
1.136836 -1.478993 3.745378
1.185416 -1.538765 4.061166
1.151425 -1.496964 4.182929
0.922312 -1.215215 5.048005
0.939367 -1.236221 5.527843
0.950598 -1.250032 5.481384
0.735613 -0.985626 5.820275
0.497937 -0.693320 6.283685
0.410868 -0.586233 6.378543
0.383837 -0.552994 6.506118
0.274208 -0.418185 7.045579
0.292613 -0.440860 7.643982
0.554426 -0.762884 7.649512
0.631967 -0.858299 8.319747
0.713740 -0.958895 8.611575
0.692004 -0.932195 9.163343
0.709752 -0.954044 9.483722
0.676106 -0.912675 9.724081
0.728541 -0.977174 9.812970
0.660838 -0.893934 10.339022
0.446205 -0.629952 10.523896
0.219453 -0.351072 10.832758
0.670943 -0.767720 0.355304
0.903506 -1.008559 1.615346
0.816279 -0.918268 1.855423
0.833106 -0.935699 2.027012
0.794098 -0.895345 2.586612
1.085700 -1.197348 4.563317
0.937562 -1.044012 5.085148
1.006748 -1.115671 5.659425
1.113588 -1.226274 5.536202
0.848628 -0.951990 5.987858
0.630411 -0.726088 6.276802
0.520917 -0.612739 6.428817
0.412005 -0.499992 6.582576
0.369808 -0.456316 6.768756
0.315672 -0.400283 7.014265
0.390473 -0.477763 7.698820
0.622071 -0.717571 8.367513
0.765187 -0.865738 8.371388
0.805304 -0.907302 8.948345
0.871060 -0.975381 8.982171
0.758119 -0.858493 9.680466
0.773845 -0.874795 10.056188
0.764320 -0.864937 10.123581
0.572025 -0.665878 10.500228
0.350839 -0.436890 10.573114
0.858279 -0.818788 1.505246
0.875252 -0.833664 1.893977
0.829009 -0.793206 2.235623
0.874796 -0.833299 2.563285
0.876282 -0.834612 2.788146
1.569984 -1.441866 4.127813
1.580688 -1.451247 4.343010
1.349329 -1.248753 4.551012
1.084904 -1.017309 4.612807
1.069690 -1.004037 5.471715
1.310534 -1.214844 5.475434
0.976550 -0.922546 6.094024
0.786471 -0.756178 6.208477
0.739045 -0.714676 6.390691
0.506226 -0.510910 6.685151
0.389599 -0.408836 6.839485
0.359335 -0.382353 6.966395
0.393278 -0.412090 7.504682
0.701705 -0.682071 7.886453
0.772312 -0.743893 8.295852
0.858695 -0.819521 8.643887
0.959092 -0.907412 8.931250
0.948230 -0.897929 9.420899
0.944214 -0.894440 9.908990
0.961153 -0.909261 9.803564
0.767123 -0.739443 10.058674
0.643553 -0.537506 0.472876
1.207283 -0.953119 1.482402
1.010047 -0.807745 1.948050
1.055688 -0.841406 2.277473
1.127009 -0.893995 2.547801
1.590358 -1.235638 4.146391
1.749234 -1.352771 4.443044
1.461094 -1.140379 4.773550
1.346061 -1.055584 4.857536
1.202127 -0.949516 5.582305
1.164650 -0.921895 5.705782
1.094048 -0.869861 5.943372
0.916830 -0.739236 6.263263
0.619983 -0.520433 6.730351
0.495260 -0.428483 6.561280
0.356334 -0.326097 7.100866
0.430960 -0.381111 7.139560
0.493703 -0.427401 7.937853
0.853585 -0.692708 8.196725
0.879312 -0.711685 8.462206
0.961817 -0.772525 8.865871
1.085027 -0.863383 9.516348
1.012994 -0.810303 9.925080
1.011479 -0.809186 9.934019
0.893154 -0.721971 10.152346
0.688329 -0.570993 10.412156
0.352848 -0.323690 10.464936
0.885901 -0.605648 0.463366
1.095336 -0.734742 0.841994
1.125650 -0.753460 1.614454
1.069654 -0.718965 1.956768
1.117924 -0.748729 2.286395
1.217343 -0.810012 2.500033
1.055634 -0.710377 3.122852
1.853423 -1.202122 4.448006
1.749483 -1.138075 4.733214
1.786443 -1.160849 4.630779
1.606815 -1.050166 5.139878
1.313581 -0.869459 5.468780
1.151834 -0.769770 5.405646
1.128107 -0.755177 6.054548
1.103230 -0.739863 6.439096
0.889614 -0.608215 6.555674
0.709136 -0.496985 6.558888
0.496854 -0.366174 7.004403
0.366540 -0.285868 7.160339
0.422746 -0.320530 7.639152
0.787219 -0.545172 7.960677
0.911527 -0.621812 8.568189
1.074354 -0.722166 8.627335
1.140062 -0.762686 9.141762
1.258174 -0.835492 9.424057
1.140341 -0.762878 9.581178
1.075260 -0.722784 9.932678
0.837521 -0.576280 10.304429
0.556878 -0.403324 10.431666
1.074472 -0.587618 0.399135
1.109035 -0.604713 0.736870
1.193493 -0.646478 1.396613
1.319521 -0.708764 1.557746
1.233560 -0.666302 1.955302
1.313337 -0.705746 2.442325
1.239133 -0.669094 2.837484
1.935024 -1.013053 4.505628
1.992397 -1.041409 4.609865
1.692612 -0.893300 5.425105
1.425691 -0.761431 6.221493
1.458881 -0.777828 6.118250
1.211170 -0.655439 6.605643
0.935988 -0.519452 6.577086
0.540739 -0.324136 6.635728
0.469798 -0.289090 6.880848
0.446551 -0.277635 7.655485
0.729350 -0.417400 8.008996
1.002061 -0.552183 8.413639
1.067362 -0.584475 8.933100
1.165408 -0.632943 9.333357
1.374333 -0.736182 9.217214
1.278646 -0.688917 9.679703
1.051779 -0.576838 10.410956
1.013070 -0.557697 10.112796
1.119564 -0.507270 1.004387
1.324623 -0.590161 1.435048
1.315675 -0.586563 1.881012
1.338139 -0.595649 2.051812
1.286267 -0.574709 2.608073
1.287319 -0.575144 2.833924
2.068850 -0.891069 4.599528
2.234974 -0.958211 4.689143
2.081201 -0.896081 5.084293
1.909401 -0.826657 5.275278
1.714326 -0.747853 6.106078
1.492362 -0.658163 6.481085
1.296521 -0.579015 6.480085
0.888144 -0.413987 6.852117
0.586313 -0.292005 6.884570
0.432997 -0.230066 7.421555
0.641070 -0.314155 7.369235
0.794576 -0.376231 8.244981
1.122189 -0.508643 8.471676
1.271777 -0.569106 8.644501
1.179110 -0.531690 9.475424
1.346385 -0.599297 9.584213
1.275757 -0.570768 9.933234
1.161409 -0.524559 10.034634
1.005342 -0.461500 10.367383
0.651536 -0.318528 10.785376
1.151300 -0.397718 1.024557
1.481929 -0.496710 1.227094
1.327536 -0.450509 1.739047
1.351320 -0.457645 2.126032
1.461943 -0.490772 2.340383
1.520268 -0.508246 2.666298
1.565621 -0.521848 3.258722
2.354512 -0.758082 4.592154
2.261245 -0.730179 5.078968
2.192890 -0.709722 5.253644
2.132188 -0.691566 5.685887
1.969094 -0.642757 6.138533
1.914887 -0.626523 6.002800
1.648029 -0.546650 6.482616
1.520795 -0.508550 6.257266
1.185881 -0.408299 6.657714
0.836756 -0.303783 6.804952
0.615141 -0.237439 6.870833
0.514248 -0.207261 7.556608
0.753012 -0.278766 8.144611
1.124649 -0.390047 8.630871
1.400330 -0.472585 8.716310
1.435490 -0.483121 8.978220
1.434719 -0.482908 9.408985
1.358935 -0.460234 9.760152
1.139319 -0.394510 10.379107
1.137416 -0.393941 10.389424
1.186963 -0.301501 0.399135
1.185070 -0.301128 1.016039
1.342140 -0.334179 1.560519
1.598061 -0.387993 1.495783
1.302872 -0.325950 2.291303
1.361731 -0.338341 2.619646
1.559326 -0.379894 2.662322
1.631260 -0.395042 3.199227
2.433393 -0.563774 4.536256
2.495418 -0.576821 4.641291
2.335058 -0.543125 5.291565
2.202918 -0.515351 5.632051
2.198826 -0.514491 5.642815
2.112003 -0.496243 5.874444
1.783786 -0.427236 6.205829
1.609648 -0.390625 6.408311
1.363967 -0.338966 6.522360
1.007957 -0.264120 6.985327
0.689077 -0.197065 7.020423
0.504110 -0.158180 7.294018
0.758991 -0.211799 7.826620
1.138909 -0.291725 8.687883
1.378685 -0.342157 8.942498
1.539018 -0.375880 9.113277
1.528027 -0.373588 9.598228
1.551176 -0.378451 9.494344
1.309486 -0.327654 10.164534
1.146047 -0.293298 10.498467
1.093390 -0.194072 0.397598
1.521735 -0.250070 1.265159
1.629636 -0.264176 1.483877
1.621458 -0.263125 1.925671
1.391399 -0.233094 2.604067
1.509892 -0.248583 2.814935
1.540399 -0.252576 2.981086
2.479100 -0.375279 4.514509
2.472809 -0.374467 4.781421
2.446825 -0.371085 5.102160
2.204260 -0.339417 5.715192
2.076696 -0.322764 6.056167
2.093729 -0.324988 6.009824
1.760339 -0.281455 6.654842
1.625462 -0.263837 6.744562
1.322886 -0.224316 7.032058
1.205388 -0.208954 6.750443
0.753884 -0.149981 7.189391
0.646109 -0.135914 7.549902
0.829635 -0.159910 7.992626
1.211787 -0.209858 8.480190
1.592730 -0.259633 8.591986
1.588020 -0.259051 9.440891
1.572966 -0.257086 9.506716
1.545420 -0.253492 9.629191
1.421595 -0.237318 9.730366
1.262233 -0.216508 10.004218
1.677964 -0.115105 1.426590
1.817989 -0.120473 1.587875
1.722244 -0.116822 1.981665
1.547458 -0.110152 2.545204
1.556201 -0.110504 2.982856
1.731609 -0.117224 3.079333
2.411317 -0.143291 4.227544
2.537777 -0.148150 4.685551
2.464793 -0.145373 5.116036
2.241693 -0.136853 5.674685
2.153737 -0.133495 5.905346
2.067884 -0.130217 6.136798
1.925285 -0.124773 6.536327
1.792342 -0.119674 6.311857
1.482418 -0.107820 6.594861
1.137254 -0.094609 6.680802
1.026978 -0.090413 7.355767
1.371678 -0.103619 7.596696
1.572771 -0.111333 7.975490
1.748318 -0.118072 8.461097
1.656878 -0.114585 8.807591
1.737114 -0.117660 8.897266
1.585395 -0.111876 9.526383
1.570591 -0.111312 9.591594
1.360948 -0.103305 10.090731
1.284945 -0.100391 9.964866
1.847707 0.029959 1.750953
1.841493 0.029679 1.976499
1.719464 0.024330 2.211875
1.466879 0.013249 2.945999
1.546274 0.016703 3.481849
1.580331 0.018186 3.647585
2.517564 0.059163 4.489573
2.464848 0.056842 4.865063
2.264815 0.048060 5.624518
2.208355 0.045572 6.054588
2.132165 0.042242 5.972817
2.007347 0.036767 6.314429
1.910248 0.032519 6.289223
1.468175 0.013150 6.965814
1.634986 0.020456 6.779189
1.554204 0.016886 7.696719
1.743102 0.025148 7.762519
1.706785 0.023540 8.249059
