-0.256361 -1.299851 4.591111
1.743267 0.199448 4.591111
1.745835 0.520986 4.591111
-0.199403 -1.362638 4.591111
1.868842 0.392163 4.591111
1.872982 0.395411 4.591111
1.743267 0.523978 4.591111
0.248177 -1.488213 4.591111
1.721594 0.583773 4.591111
0.299155 -1.485410 4.591111
0.361943 -1.463832 4.591111
0.487517 -1.429403 4.591111
0.501502 -1.425426 4.591111
0.550305 -1.410914 4.591111
0.604692 -1.362638 4.591111
0.613092 -1.322368 4.591111
0.675880 -1.325470 4.591111
0.705039 -1.299851 4.591111
1.739575 0.207048 4.591111
-0.411253 -1.174276 4.591111
-0.454294 -1.114119 4.591111
-0.455791 -1.111488 4.591111
0.424730 -1.446319 4.591111
-0.517082 -1.019264 4.591111
-0.539761 -0.985914 4.591111
-0.571780 -0.923126 4.591111
-0.481358 -1.048701 4.591111
-1.019382 -0.492000 4.591111
-1.031136 -0.483614 4.591111
-1.011597 -0.483614 4.591111
0.801455 -1.299851 4.540874
-0.265932 -1.299851 4.562646
0.989817 -1.237063 4.532559
1.554904 0.772135 4.551435
1.680480 0.709348 4.586519
-0.893807 -0.671976 4.536898
1.743267 0.709348 4.528336
-0.768232 -0.609189 4.541488
1.554904 0.897711 4.568742
1.554904 -0.483614 4.575676
-0.642657 -0.797551 4.588890
1.680480 0.834923 4.579421
1.617692 -0.483614 4.543155
-0.579870 -0.860338 4.554442
0.864242 1.274435 4.576246
-0.705444 -0.609189 4.533937
1.680480 -0.420826 4.562320
0.989817 1.274435 4.581624
-0.831019 -0.483614 4.534251
1.743267 -0.358039 4.583647
1.868842 0.395411 4.531177
1.743267 0.520986 4.566141
1.743267 0.269836 4.552696
0.173580 -1.488213 4.584964
1.743267 0.583773 4.530399
1.743267 0.332623 4.562835
0.236368 -1.488213 4.590382
0.110793 -1.425426 4.554814
1.806054 -0.232464 4.561262
1.806054 -0.169676 4.556777
1.868842 -0.106889 4.546020
0.487517 -1.425426 4.570449
1.806054 -0.044101 4.574739
1.806054 0.018686 4.543989
0.675880 -1.299851 4.574253
1.806054 0.081473 4.573417
1.743267 0.207048 4.586874
1.868842 0.207048 4.530837
1.146863 -1.111488 4.591111
-1.144957 -0.026925 4.591111
-0.768232 1.144573 4.591111
1.240967 -1.028975 4.591111
-3.154155 2.126584 4.591111
-1.152510 0.018686 4.591111
-0.744890 1.148860 4.591111
-3.202229 2.153460 4.591111
-1.133638 -0.106889 4.591111
0.451828 1.148860 4.591111
-1.198758 0.144261 4.591111
1.305204 -0.985914 4.591111
0.428439 1.274435 4.591111
-0.642657 1.176251 4.591111
-1.117185 -0.358039 4.591111
0.487517 1.335906 4.591111
-3.230580 2.279035 4.591111
1.366542 -0.928623 4.591111
-0.517082 1.225447 4.591111
-1.215018 0.395411 4.591111
0.575377 1.148860 4.591111
-3.198168 2.404609 4.591111
-0.893807 -0.466866 4.591111
1.398917 -0.860338 4.591111
0.613092 1.187945 4.591111
-0.391507 1.263284 4.591111
-1.270532 0.572098 4.591111
-1.121804 -0.232464 4.591111
0.557571 1.400010 4.591111
1.469260 -0.734764 4.591111
-1.303285 0.646560 4.591111
-0.300246 1.274435 4.591111
1.492117 -0.629672 4.591111
-0.265932 1.282752 4.591111
1.240967 1.111716 4.591111
-1.292806 0.772135 4.591111
1.183974 1.148860 4.591111
-1.270532 0.871686 4.591111
1.115392 1.211058 4.591111
1.014416 1.274435 4.591111
-3.156123 2.530185 4.591111
-1.246554 0.520986 4.591111
1.492117 0.978551 4.591111
-3.154155 2.535993 4.591111
-3.088059 2.655760 4.591111
1.421039 1.023286 4.591111
1.366542 1.106820 4.591111
-2.903006 2.633013 4.591111
-1.258808 0.897711 4.591111
-2.905704 2.655760 4.591111
0.031243 1.400010 4.591111
-1.159865 1.023286 4.591111
-2.777431 2.601412 4.591111
0.110793 1.436867 4.591111
-1.144957 1.034958 4.591111
-3.028581 2.701991 4.591111
0.180668 1.525585 4.591111
-1.019382 1.104116 4.591111
0.236368 1.597381 4.591111
-0.893807 1.129548 4.591111
0.361943 1.636744 4.591111
-0.140357 1.329767 4.591111
0.487517 1.574701 4.591111
-0.014782 1.385628 4.591111
0.541608 1.525585 4.591111
0.487517 1.127533 4.591111
-0.768232 1.148860 4.569980
0.487517 1.400010 4.477305
0.613092 1.148860 4.519384
-3.279730 2.404609 4.553510
1.115392 1.148860 4.480308
-3.405305 2.027885 4.510770
-3.279730 2.530185 4.518697
-3.154155 2.655760 4.549111
-3.279730 2.027885 4.551594
-2.903006 2.655760 4.581136
0.236368 1.525585 4.523037
-3.405305 2.153460 4.506362
-2.777431 2.655760 4.577403
-3.279730 2.153460 4.575723
-3.028581 2.781335 4.526446
-3.405305 2.279035 4.486035
-3.279730 2.279035 4.574948
-2.903006 2.781335 4.540278
-2.777431 2.781335 4.522834
-3.154155 2.027885 4.563744
-2.651856 2.781335 4.466949
-2.526281 2.655760 4.472528
-1.270532 0.520986 4.541214
-1.270532 0.897711 4.545722
-0.893807 1.148860 4.536952
0.110793 -1.511762 4.653898
0.173580 -1.510894 4.653898
-0.265932 -1.340131 4.653898
0.236368 -1.504196 4.653898
-0.299922 -1.299851 4.653898
1.743267 0.126876 4.653898
-0.328720 -1.269011 4.653898
-0.225448 -1.362638 4.653898
1.733149 0.144261 4.653898
-0.371541 -1.237063 4.653898
-0.265932 -1.245594 4.653898
1.707015 0.207048 4.653898
-0.260239 -1.237063 4.653898
-0.274838 -1.237063 4.653898
1.726652 0.269836 4.653898
-0.265932 -1.231376 4.653898
-0.454294 -1.132300 4.653898
-0.462858 -1.111488 4.653898
-0.391507 -1.160183 4.653898
0.299155 -1.503064 4.653898
1.743267 -0.281535 4.653898
-0.379606 -1.174276 4.653898
0.320292 -1.488213 4.653898
1.768701 -0.232464 4.653898
0.361943 -1.456644 4.653898
-0.517082 -0.999261 4.653898
1.784457 0.018686 4.653898
-0.528959 -0.985914 4.653898
1.767254 0.081473 4.653898
0.424730 -1.453565 4.653898
-0.570885 -0.923126 4.653898
0.487517 -1.427693 4.653898
-0.579870 -0.889820 4.653898
-0.588406 -0.860338 4.653898
0.550305 -1.472688 4.653898
0.680229 1.274435 4.653898
-0.454294 -1.065078 4.653898
0.559123 -1.425426 4.653898
0.738667 1.282151 4.653898
-0.451891 -1.048701 4.653898
0.613092 -1.394107 4.653898
-0.454294 -1.042881 4.653898
1.740294 0.395411 4.653898
0.675880 -1.366861 4.653898
-0.642657 -0.786797 4.653898
1.743267 0.432329 4.653898
-0.671840 -0.734764 4.653898
0.681568 -1.362638 4.653898
1.743267 0.541715 4.653898
-0.638602 -0.797551 4.653898
1.723833 0.583773 4.653898
0.738667 -1.304628 4.653898
-0.705444 -0.715076 4.653898
-0.737007 -0.671976 4.653898
1.712583 0.646560 4.653898
0.746618 -1.299851 4.653898
-0.754629 -0.609189 4.653898
1.697475 0.709348 4.653898
0.801455 -1.274644 4.653898
1.684396 0.772135 4.653898
0.864242 -1.282036 4.653898
-0.768232 -0.573264 4.653898
1.617692 0.895054 4.653898
-0.783641 -0.546401 4.653898
0.927030 -1.298251 4.653898
1.615004 0.897711 4.653898
-0.831019 -0.500511 4.653898
0.989817 -1.257423 4.653898
-0.850453 -0.483614 4.653898
1.680480 0.783842 4.653898
1.661563 0.834923 4.653898
1.024009 -1.237063 4.653898
-0.014782 -1.501667 4.653898
-0.059111 -1.488213 4.653898
1.052605 -1.207261 4.653898
0.801455 1.285840 4.653898
-0.203145 -1.381453 4.653898
1.115392 -1.186321 4.653898
0.864242 1.308874 4.653898
-0.140357 -1.414894 4.653898
-0.077569 -1.476071 4.653898
1.506603 -0.609189 4.653898
-0.126103 -1.425426 4.653898
1.749694 0.458198 4.653898
1.509913 -0.546401 4.653898
0.048005 -1.492397 4.653898
1.753685 0.520986 4.653898
1.524291 -0.483614 4.653898
1.509626 -0.420826 4.653898
1.554904 -0.406498 4.653898
1.617692 -0.409495 4.653898
1.680480 -0.374334 4.653898
1.700547 -0.358039 4.653898
1.730545 -0.295251 4.653898
1.743267 0.144261 4.620762
-0.265932 -1.299851 4.612918
0.110793 -1.488213 4.599133
-0.265932 -1.237063 4.642965
1.743267 -0.295251 4.632262
-0.014782 -1.488213 4.648910
0.048005 -1.488213 4.650067
-0.391507 -1.174276 4.604524
-0.014782 -1.425426 4.602000
0.048005 -1.425426 4.598367
1.806054 0.018686 4.609055
-0.579870 -0.860338 4.639182
-0.203145 -1.362638 4.598768
-0.454294 -1.048701 4.616831
0.738667 1.274435 4.630892
0.299155 -1.488213 4.618431
-0.642657 -0.797551 4.596302
1.743267 0.395411 4.616034
0.550305 -1.425426 4.648060
1.680480 0.772135 4.643114
0.613092 -1.362638 4.601752
-1.019382 -0.483614 4.615792
0.675880 -1.362638 4.642423
1.617692 0.834923 4.600333
-0.768232 -0.546401 4.591879
-0.831019 -0.483614 4.599340
1.680480 0.834923 4.609222
0.738667 -1.299851 4.646658
-0.077569 -1.425426 4.600696
0.864242 1.274435 4.593075
1.868842 0.395411 4.593149
0.989817 -1.237063 4.610919
1.115392 -1.174276 4.644709
1.554904 -0.420826 4.600183
1.617692 -0.420826 4.629154
-0.344835 -1.488213 4.716685
-0.328720 -1.486462 4.716685
1.743267 0.183521 4.716685
0.110793 -1.528025 4.716685
1.734983 0.207048 4.716685
-0.298376 -1.488213 4.716685
0.173580 -1.531917 4.716685
1.735473 0.269836 4.716685
-0.265932 -1.379323 4.716685
0.236368 -1.532138 4.716685
-0.280743 -1.362638 4.716685
1.743267 -0.259113 4.716685
-0.328720 -1.305990 4.716685
0.299155 -1.517087 4.716685
1.761146 -0.232464 4.716685
-0.335018 -1.299851 4.716685
0.361943 -1.496961 4.716685
-0.391507 -1.246789 4.716685
1.785520 0.018686 4.716685
1.763834 0.081473 4.716685
0.381879 -1.488213 4.716685
-0.454294 -1.179519 4.716685
1.760552 0.144261 4.716685
-0.457326 -1.174276 4.716685
0.424730 -1.470978 4.716685
-0.400765 -1.237063 4.716685
0.487517 -1.459386 4.716685
-0.489394 -1.111488 4.716685
0.613092 1.275691 4.716685
0.550305 -1.455057 4.716685
0.675880 1.308997 4.716685
0.613092 -1.431980 4.716685
-0.893807 -0.684160 4.716685
0.738667 1.323528 4.716685
-0.928895 -0.671976 4.716685
0.624876 -1.425426 4.716685
-0.956594 -0.615481 4.716685
0.675880 -1.366713 4.716685
1.743267 0.594108 4.716685
-0.966919 -0.609189 4.716685
1.733099 0.646560 4.716685
0.682514 -1.362638 4.716685
-0.893807 -0.616890 4.716685
-0.903682 -0.609189 4.716685
1.718577 0.709348 4.716685
0.738667 -1.331914 4.716685
-0.881893 -0.671976 4.716685
1.701315 0.772135 4.716685
1.701339 0.834923 4.716685
0.801455 -1.316932 4.716685
-0.517082 -1.027809 4.716685
-0.574409 -0.985914 4.716685
1.698568 0.897711 4.716685
0.864242 -1.306043 4.716685
-0.579870 -0.977486 4.716685
0.927030 -1.325247 4.716685
-0.590843 -0.923126 4.716685
0.801455 1.298984 4.716685
0.861359 1.337223 4.716685
-0.596001 -0.860338 4.716685
0.985878 -1.299851 4.716685
0.864242 1.339055 4.716685
-0.496026 -1.048701 4.716685
0.989817 -1.296331 4.716685
1.163429 1.274435 4.716685
-0.642657 -0.803164 4.716685
1.052605 -1.274742 4.716685
1.125119 1.337223 4.716685
-0.646658 -0.797551 4.716685
1.115392 1.347929 4.716685
1.115392 -1.237153 4.716685
-0.692736 -0.734764 4.716685
1.766292 0.395411 4.716685
-0.705444 -0.720405 4.716685
1.771713 0.458198 4.716685
-0.724587 -0.671976 4.716685
1.547054 -0.609189 4.716685
1.762510 0.520986 4.716685
-0.747231 -0.609189 4.716685
1.552349 -0.546401 4.716685
1.745364 0.583773 4.716685
1.547741 -0.483614 4.716685
-0.956594 -0.562454 4.716685
1.554904 -0.472170 4.716685
-0.768232 -0.576309 4.716685
1.612393 -0.420826 4.716685
-0.810150 -0.546401 4.716685
1.617692 -0.414787 4.716685
-0.831019 -0.523974 4.716685
1.680480 -0.364712 4.716685
-0.857357 -0.483614 4.716685
1.684127 -0.358039 4.716685
-0.140357 -1.519315 4.716685
1.708107 -0.295251 4.716685
-0.160683 -1.488213 4.716685
-0.014782 -1.553483 4.716685
-0.046908 -1.551001 4.716685
-0.077569 -1.545406 4.716685
-0.203145 -1.449900 4.716685
-0.239587 -1.425426 4.716685
0.030556 -1.551001 4.716685
0.048005 -1.546923 4.716685
-1.019382 -0.451240 4.716685
1.178180 1.222733 4.716685
-1.075202 -0.420826 4.716685
1.240967 1.246923 4.716685
-1.144957 -0.364190 4.716685
-1.082169 -0.412901 4.716685
1.303754 1.207324 4.716685
1.299909 1.211648 4.716685
-0.957572 -0.420826 4.716685
1.366542 1.171507 4.716685
-0.893807 -0.446640 4.716685
-0.951791 -0.420826 4.716685
-0.956594 -0.420509 4.716685
-0.328720 -1.488213 4.714804
-0.265932 -1.362638 4.705909
1.743267 0.144261 4.710892
-0.265932 -1.237063 4.683085
-0.328720 -1.299851 4.711047
-0.391507 -1.237063 4.709370
-0.454294 -1.174276 4.713126
0.361943 -1.488213 4.680866
-0.391507 -1.174276 4.688265
0.613092 1.274435 4.713040
-0.893807 -0.671976 4.710590
0.675880 1.274435 4.655734
-0.956594 -0.609189 4.712316
0.613092 -1.425426 4.702934
1.743267 0.395411 4.673799
-0.579870 -0.923126 4.685531
0.801455 -1.299851 4.687821
1.743267 0.583773 4.712325
-0.454294 -1.048701 4.669650
0.864242 -1.299851 4.695230
-0.642657 -0.797551 4.695105
0.927030 -1.299851 4.656876
1.617692 0.897711 4.656419
1.680480 0.834923 4.701280
1.052605 -1.237063 4.684124
1.680480 0.897711 4.706545
-0.140357 -1.488213 4.697279
1.115392 -1.237063 4.716460
-0.014782 -1.551001 4.708335
0.864242 1.337223 4.712726
-0.077569 -1.488213 4.658938
-0.203145 -1.425426 4.699586
1.115392 1.274435 4.663448
1.554904 -0.420826 4.687293
-0.140357 -1.425426 4.681312
1.115392 1.337223 4.711493
0.579865 1.400010 4.716685
1.806652 -0.106889 4.716685
1.115486 -1.237063 4.716685
-1.021564 -0.106889 4.716685
-1.107422 0.018686 4.716685
1.240967 -1.136467 4.716685
-1.270532 -0.266476 4.716685
-0.768232 1.127537 4.716685
1.743267 0.305245 4.716685
-1.144957 0.045157 4.716685
0.970265 1.400010 4.716685
-0.698777 1.148860 4.716685
-1.182176 0.144261 4.716685
-1.270532 -0.106935 4.716685
1.276852 -1.111488 4.716685
1.069807 1.400010 4.716685
-0.642657 1.178294 4.716685
-1.191668 0.269836 4.716685
-1.270532 0.717992 4.716685
-1.153147 -0.358039 4.716685
-1.281983 0.772135 4.716685
-1.174075 0.395411 4.716685
1.617692 0.992051 4.716685
1.366542 -1.000601 4.716685
-0.517082 1.254119 4.716685
1.594713 1.023286 4.716685
-1.270532 0.834149 4.716685
1.381064 -0.985914 4.716685
1.504080 1.148860 4.716685
-0.444917 1.274435 4.716685
-1.197534 0.520986 4.716685
-1.144957 -0.210819 4.716685
1.492117 1.160329 4.716685
1.444950 -0.860338 4.716685
-0.391507 1.282486 4.716685
-1.233124 0.646560 4.716685
1.492117 -0.776865 4.716685
-0.265932 1.306518 4.716685
-0.199586 1.400010 4.716685
1.505949 -0.734764 4.716685
-0.140357 1.507467 4.716685
-1.226053 0.897711 4.716685
-0.130918 1.525585 4.716685
-0.140357 1.587528 4.716685
-1.144957 1.008582 4.716685
-1.129650 1.023286 4.716685
-1.019382 1.089492 4.716685
-0.151831 1.651160 4.716685
-0.014782 1.605657 4.716685
-0.893807 1.107408 4.716685
-0.128496 1.651160 4.716685
0.065574 1.651160 4.716685
-0.140357 1.679947 4.716685
0.110793 1.686953 4.716685
0.236368 1.689559 4.716685
0.487517 1.583434 4.716685
0.365691 1.651160 4.716685
0.530938 1.525585 4.716685
0.361943 1.652407 4.716685
0.989817 1.406068 4.716685
0.487517 1.148860 4.612638
1.240967 -1.111488 4.668589
0.487517 1.274435 4.661271
-1.144957 0.018686 4.623559
-0.391507 1.274435 4.680723
-1.270532 -0.232464 4.683219
1.366542 -0.985914 4.664552
-3.154155 2.153460 4.595981
-1.144957 -0.358039 4.700732
1.240967 1.148860 4.658914
1.492117 -0.734764 4.663209
-3.154155 2.404609 4.605561
-1.144957 -0.232464 4.639042
0.989817 1.400010 4.709436
-3.154155 2.530185 4.592027
-3.028581 2.530185 4.635197
-3.154155 2.279035 4.608123
1.492117 1.023286 4.636178
-3.028581 2.655760 4.609057
1.366542 1.148860 4.681401
1.492117 1.148860 4.699128
-2.903006 2.530185 4.636627
-1.270532 0.646560 4.643964
-0.140357 1.400010 4.666269
-0.014782 1.400010 4.608358
-0.014782 1.525585 4.679193
-0.140357 1.651160 4.713636
-1.144957 1.023286 4.640138
0.110793 1.525585 4.660516
0.110793 1.651160 4.694890
0.236368 1.651160 4.647837
0.361943 1.651160 4.696044
1.554895 -0.609189 4.779473
-0.391507 -1.429713 4.779473
0.236368 -1.614147 4.779473
1.554904 -0.609167 4.779473
-0.328720 -1.465342 4.779473
0.237992 -1.613788 4.779473
1.584819 -0.546401 4.779473
-0.265932 -1.480242 4.779473
1.593008 -0.483614 4.779473
-0.203145 -1.518709 4.779473
1.617692 -0.423901 4.779473
-0.527401 -1.237063 4.779473
-0.248717 -1.488213 4.779473
-0.536630 -1.174276 4.779473
1.621406 -0.420826 4.779473
-0.140357 -1.545014 4.779473
1.680480 -0.390106 4.779473
-0.541202 -1.111488 4.779473
-0.077569 -1.572330 4.779473
1.698115 -0.358039 4.779473
-0.129158 -1.551001 4.779473
-0.956594 -0.760060 4.779473
-0.014782 -1.583957 4.779473
-0.985993 -0.734764 4.779473
1.690991 -0.295251 4.779473
-0.910146 -0.734764 4.779473
1.742533 -0.232464 4.779473
0.048005 -1.583106 4.779473
-0.992368 -0.671976 4.779473
0.074746 -1.551001 4.779473
1.743267 0.143310 4.779473
-0.893807 -0.688585 4.779473
1.743106 0.144261 4.779473
0.110793 -1.536134 4.779473
-0.968529 -0.609189 4.779473
0.173580 -1.568995 4.779473
-0.867350 -0.671976 4.779473
1.743267 0.181174 4.779473
0.122367 -1.551001 4.779473
-0.831019 -0.650059 4.779473
0.200313 -1.613788 4.779473
-0.768232 -0.658951 4.779473
1.806054 0.064808 4.779473
0.236368 -1.612454 4.779473
1.787902 0.081473 4.779473
0.221660 -1.551001 4.779473
-0.517082 -1.054245 4.779473
1.823794 0.018686 4.779473
-0.579870 -1.018640 4.779473
0.236368 -1.529932 4.779473
-0.590996 -0.985914 4.779473
1.763013 0.207048 4.779473
-0.517082 -1.028248 4.779473
1.775272 0.269836 4.779473
0.299155 -1.532443 4.779473
-0.593685 -0.923126 4.779473
0.361943 -1.493431 4.779473
-0.602328 -0.860338 4.779473
0.424730 -1.498073 4.779473
0.675880 1.355470 4.779473
-0.502594 -1.048701 4.779473
0.621487 1.400010 4.779473
0.487517 -1.493238 4.779473
-0.642657 -0.842273 4.779473
0.738667 1.352580 4.779473
-0.669887 -0.797551 4.779473
0.517644 -1.488213 4.779473
-0.705444 -0.756077 4.779473
0.550305 -1.480460 4.779473
0.801455 1.363536 4.779473
-0.723558 -0.734764 4.779473
0.613092 -1.458996 4.779473
0.862999 1.400010 4.779473
0.660730 -1.425426 4.779473
1.240967 1.343686 4.779473
0.675880 -1.399883 4.779473
-1.019382 -0.426245 4.779473
1.195622 1.400010 4.779473
-1.037110 -0.420826 4.779473
0.713786 -1.362638 4.779473
1.303754 1.329393 4.779473
-1.144957 -0.389481 4.779473
1.263948 1.337223 4.779473
-1.082169 -0.408606 4.779473
0.738667 -1.350632 4.779473
1.366542 1.308764 4.779473
-0.956594 -0.556516 4.779473
-0.940142 -0.546401 4.779473
0.613092 1.414162 4.779473
0.864242 -1.373206 4.779473
-0.907787 -0.483614 4.779473
0.907450 -1.362638 4.779473
-0.831019 -0.546515 4.779473
0.864242 1.401055 4.779473
0.801455 -1.326920 4.779473
-0.846552 -0.546401 4.779473
0.843274 -1.362638 4.779473
-0.826055 -0.546401 4.779473
1.115392 1.455006 4.779473
-0.831019 -0.495330 4.779473
1.178180 1.417236 4.779473
0.927030 -1.331944 4.779473
0.989817 -1.318840 4.779473
-0.956594 -0.422201 4.779473
1.028869 -1.299851 4.779473
1.795070 0.395411 4.779473
1.052605 -1.278008 4.779473
1.785175 0.458198 4.779473
1.115392 -1.248095 4.779473
1.786134 0.520986 4.779473
1.772504 0.583773 4.779473
1.754159 0.646560 4.779473
-0.328720 -1.488213 4.722643
0.236368 -1.613788 4.779103
-0.391507 -1.425426 4.777329
-0.328720 -1.425426 4.752541
1.554904 -0.546401 4.720564
-0.203145 -1.488213 4.749117
-0.265932 -1.425426 4.729846
-0.391507 -1.362638 4.763685
-0.077569 -1.551001 4.733346
1.554904 -0.483614 4.725379
-0.328720 -1.362638 4.742177
-0.517082 -1.237063 4.773629
0.048005 -1.551001 4.722620
1.617692 -0.420826 4.766004
-0.517082 -1.174276 4.763846
0.173580 -1.551001 4.748714
-0.517082 -1.111488 4.750255
-0.391507 -1.299851 4.742289
1.743267 -0.232464 4.777630
-0.454294 -1.237063 4.744621
0.424730 -1.488213 4.762858
0.487517 -1.488213 4.771031
1.743267 0.144261 4.778937
-0.956594 -0.734764 4.723772
-0.956594 -0.671976 4.769569
1.743267 0.207048 4.735317
-0.893807 -0.609189 4.756491
1.743267 0.269836 4.733672
-0.831019 -0.609189 4.758266
0.864242 -1.362638 4.764153
-0.768232 -0.609189 4.750783
0.989817 -1.299851 4.722277
-0.579870 -0.985914 4.730366
1.806054 0.018686 4.744276
-0.705444 -0.734764 4.739359
0.613092 1.337223 4.742332
0.675880 1.337223 4.757537
0.738667 1.337223 4.737606
0.613092 1.400010 4.769739
-0.893807 -0.546401 4.773890
-0.893807 -0.483614 4.773935
1.743267 0.646560 4.750072
0.801455 1.337223 4.750929
-0.956594 -0.420826 4.777835
0.864242 1.400010 4.778898
1.178180 1.274435 4.722593
1.240967 1.274435 4.725108
1.178180 1.337223 4.742144
1.240967 1.337223 4.774850
1.115392 1.400010 4.741582
1.178180 1.400010 4.768395
1.303754 1.211648 4.718874
1.366542 1.211648 4.730654
1.303754 1.274435 4.731592
1.366542 1.274435 4.745679
0.487517 -1.688086 4.842260
1.584555 -0.609189 4.842260
-0.604614 -1.237063 4.842260
0.480188 -1.676576 4.842260
1.610157 -0.546401 4.842260
0.487517 -1.665040 4.842260
-0.598361 -1.174276 4.842260
1.617692 -0.533193 4.842260
0.497996 -1.676576 4.842260
-0.605074 -1.111488 4.842260
1.630222 -0.483614 4.842260
1.637999 -0.420826 4.842260
-0.203145 -1.557615 4.842260
1.647574 -0.358039 4.842260
-0.219335 -1.551001 4.842260
-1.019382 -0.678845 4.842260
-0.148933 -1.551001 4.842260
1.680480 -0.301975 4.842260
-1.033509 -0.671976 4.842260
-0.265932 -1.526805 4.842260
1.685250 -0.295251 4.842260
-1.019382 -0.656417 4.842260
1.723828 -0.232464 4.842260
-0.140357 -1.550165 4.842260
-0.077569 -1.594052 4.842260
-0.983084 -0.671976 4.842260
-0.137960 -1.551001 4.842260
1.806054 0.074954 4.842260
-0.014782 -1.588820 4.842260
1.803673 0.081473 4.842260
-0.893807 -0.680918 4.842260
1.818959 0.018686 4.842260
0.048005 -1.603915 4.842260
-0.919553 -0.671976 4.842260
1.786180 0.144261 4.842260
0.074813 -1.613788 4.842260
-0.956594 -0.669203 4.842260
1.803147 0.207048 4.842260
0.192139 -1.613788 4.842260
-1.001594 -0.609189 4.842260
0.236368 -1.579510 4.842260
1.806054 0.213716 4.842260
1.824026 0.269836 4.842260
0.299155 -1.574616 4.842260
-0.831019 -0.697085 4.842260
0.361943 -1.572663 4.842260
0.424730 -1.577879 4.842260
-0.768232 -0.708519 4.842260
0.487517 -1.555726 4.842260
1.303754 1.369843 4.842260
1.281267 1.400010 4.842260
0.550305 -1.558012 4.842260
1.366542 1.348498 4.842260
0.563613 -1.551001 4.842260
-0.642657 -1.081622 4.842260
0.613092 -1.510878 4.842260
-0.663167 -1.048701 4.842260
0.638281 -1.488213 4.842260
0.675880 1.451940 4.842260
-0.642657 -0.987646 4.842260
0.613092 -1.447996 4.842260
0.633846 1.462798 4.842260
0.604959 -1.425426 4.842260
-0.635646 -0.985914 4.842260
0.738667 1.430824 4.842260
0.613092 -1.418640 4.842260
0.613092 1.469197 4.842260
0.675880 -1.404149 4.842260
-0.642657 -0.906759 4.842260
0.738667 -1.383299 4.842260
0.796734 1.462798 4.842260
-0.662414 -0.860338 4.842260
0.801455 1.467905 4.842260
-0.638252 -0.923126 4.842260
0.777572 -1.362638 4.842260
0.864242 1.513551 4.842260
0.768293 -1.299851 4.842260
1.240967 1.439950 4.842260
0.864242 -1.333234 4.842260
0.821403 -1.299851 4.842260
-0.697762 -0.797551 4.842260
1.211022 1.462798 4.842260
0.801455 -1.295558 4.842260
-0.705444 -0.787457 4.842260
1.115392 1.507794 4.842260
0.927030 -1.333565 4.842260
-0.746674 -0.734764 4.842260
1.178180 1.480397 4.842260
0.989817 -1.333861 4.842260
1.050410 -1.299851 4.842260
1.052605 -1.298440 4.842260
-1.019382 -0.567961 4.842260
1.817314 0.395411 4.842260
1.115392 -1.258895 4.842260
-1.034774 -0.546401 4.842260
1.808135 0.458198 4.842260
-1.055719 -0.483614 4.842260
1.806054 0.491839 4.842260
1.804607 0.520986 4.842260
-1.082169 -0.434791 4.842260
-1.114962 -0.420826 4.842260
1.798067 0.583773 4.842260
1.788834 0.646560 4.842260
-1.144957 -0.414057 4.842260
-0.956594 -0.490556 4.842260
-0.968058 -0.483614 4.842260
-0.947518 -0.483614 4.842260
-0.956594 -0.432037 4.842260
-1.207744 -0.368358 4.842260
-1.241632 -0.358039 4.842260
-1.144957 0.041176 4.842260
-1.161162 0.081473 4.842260
-1.191603 0.395411 4.842260
-1.176189 0.144261 4.842260
-1.184097 0.458198 4.842260
-1.188723 0.520986 4.842260
-1.190114 0.207048 4.842260
-1.207744 0.245093 4.842260
-1.207744 0.569919 4.842260
-1.216789 0.269836 4.842260
-1.211319 0.583773 4.842260
-1.224193 0.332623 4.842260
-1.207744 0.635602 4.842260
-1.207744 0.362803 4.842260
-1.207193 0.646560 4.842260
-1.207744 0.651719 4.842260
-1.218392 0.709348 4.842260
-1.222949 0.772135 4.842260
-0.391507 -1.488213 4.828488
0.236368 -1.613788 4.780484
-0.328720 -1.488213 4.809357
1.554904 -0.609189 4.779494
0.487517 -1.676576 4.825336
-0.265932 -1.488213 4.791059
1.617692 -0.483614 4.818164
-0.579870 -1.237063 4.817521
-0.203145 -1.551001 4.827759
-0.579870 -1.174276 4.826688
-0.579870 -1.111488 4.821846
1.680480 -0.358039 4.803297
0.110793 -1.613788 4.828335
-1.019382 -0.671976 4.783298
0.110793 -1.551001 4.796405
-0.956594 -0.734764 4.804162
0.173580 -1.613788 4.836223
1.743267 0.144261 4.780086
0.236368 -1.551001 4.820938
-0.956594 -0.671976 4.789525
-0.831019 -0.671976 4.807049
0.299155 -1.551001 4.809001
-0.768232 -0.671976 4.792693
0.361943 -1.551001 4.819337
1.806054 0.269836 4.817605
0.424730 -1.551001 4.823465
-0.642657 -1.048701 4.824960
0.487517 -1.551001 4.834846
-0.579870 -1.048701 4.800313
0.550305 -1.551001 4.835142
-0.517082 -1.048701 4.793974
0.675880 1.400010 4.814594
0.550305 -1.488213 4.795256
-0.642657 -0.860338 4.802740
0.613092 -1.488213 4.824200
0.738667 1.400010 4.827723
0.613092 -1.425426 4.779480
0.801455 1.400010 4.807539
0.738667 -1.362638 4.812290
-1.019382 -0.546401 4.801359
-1.019382 -0.483614 4.804515
1.240967 1.400010 4.813100
-1.082169 -0.420826 4.824104
0.864242 -1.362638 4.787773
0.801455 -1.299851 4.840178
1.303754 1.337223 4.791051
-0.956594 -0.546401 4.786306
1.366542 1.337223 4.823061
-0.831019 -0.546401 4.783694
0.613092 1.462798 4.833666
0.801455 1.462798 4.839205
0.864242 1.462798 4.816176
1.115392 1.462798 4.786220
1.178180 1.462798 4.820778
1.806054 0.395411 4.820236
1.806054 0.458198 4.838210
-1.270532 -0.340209 4.842260
-1.144957 -0.240386 4.842260
-0.517082 -1.449082 4.842260
1.743267 -0.205320 4.842260
-1.156853 -0.232464 4.842260
1.131520 -1.237063 4.842260
-0.328375 1.400010 4.842260
-1.019382 -0.335202 4.842260
-0.638242 -1.362638 4.842260
1.808635 -0.106889 4.842260
-1.198675 -0.106889 4.842260
-0.309376 1.525585 4.842260
1.238391 -1.111488 4.842260
-1.019382 -0.134410 4.842260
1.617692 1.020448 4.842260
-0.306229 1.651160 4.842260
-1.032661 -0.106889 4.842260
1.612985 1.023286 4.842260
1.240967 -1.110698 4.842260
-0.265932 1.690067 4.842260
1.737266 0.897711 4.842260
-0.999608 -0.232464 4.842260
1.548553 1.148860 4.842260
-0.391507 -1.502053 4.842260
1.347979 -0.985914 4.842260
-1.196306 0.897711 4.842260
-1.270532 -0.070024 4.842260
1.492117 1.252237 4.842260
1.366542 -0.945702 4.842260
-0.468215 -1.488213 4.842260
1.480169 1.274435 4.842260
-1.134658 0.018686 4.842260
-1.144957 0.997704 4.842260
1.743267 0.872481 4.842260
1.417974 -0.860338 4.842260
-1.130227 1.023286 4.842260
1.492117 -0.744265 4.842260
-1.019382 1.104476 4.842260
-0.140357 1.765970 4.842260
0.110793 -1.628764 4.842260
1.767487 0.772135 4.842260
-0.893807 1.123411 4.842260
-0.014782 1.735527 4.842260
1.496895 -0.734764 4.842260
-1.365475 -0.232464 4.842260
-0.768232 1.140045 4.842260
0.110793 1.718207 4.842260
-1.357104 -0.106889 4.842260
-0.729428 1.148860 4.842260
0.236368 1.745517 4.842260
-0.642657 1.186666 4.842260
-0.563482 1.274435 4.842260
0.487517 1.583460 4.842260
-0.517082 1.321131 4.842260
0.404386 1.651160 4.842260
-0.391507 1.371425 4.842260
0.548267 1.525585 4.842260
0.361943 1.685331 4.842260
0.896101 1.525585 4.842260
0.989817 1.529974 4.842260
1.039620 1.525585 4.842260
-0.517082 -1.362638 4.818559
-1.144957 -0.232464 4.782948
-0.265932 1.400010 4.825426
-1.019382 -0.232464 4.735717
1.240967 -1.111488 4.841947
-0.265932 1.525585 4.832401
-1.270532 -0.106889 4.720372
-1.270532 0.772135 4.735100
-0.265932 1.651160 4.809805
1.366542 -0.985914 4.790872
1.743267 0.772135 4.817059
-0.140357 1.525585 4.725656
-0.014782 1.651160 4.738344
-0.517082 1.274435 4.750030
0.989817 1.525585 4.837215
0.361943 -1.684044 4.905048
-0.665701 -1.237063 4.905048
0.424730 -1.692023 4.905048
-0.668385 -1.174276 4.905048
0.433951 -1.676576 4.905048
0.487517 -1.657308 4.905048
-0.674244 -1.111488 4.905048
0.550305 -1.699284 4.905048
0.529394 -1.676576 4.905048
-0.893807 -0.684436 4.905048
0.563874 -1.676576 4.905048
-0.926046 -0.671976 4.905048
0.550305 -1.666733 4.905048
0.518457 -1.613788 4.905048
-0.956594 -0.658338 4.905048
-1.001378 -0.609189 4.905048
-0.265932 -1.556384 4.905048
-0.705444 -1.073309 4.905048
-0.203145 -1.604183 4.905048
-0.712527 -1.048701 4.905048
-0.181719 -1.613788 4.905048
-0.705444 -1.003349 4.905048
0.236368 -1.609706 4.905048
-0.689144 -0.985914 4.905048
0.299155 -1.591064 4.905048
0.315370 -1.613788 4.905048
-0.685720 -0.923126 4.905048
-0.696713 -0.860338 4.905048
0.550305 -1.554337 4.905048
0.559195 -1.551001 4.905048
-0.705444 -0.834379 4.905048
0.613092 -1.514236 4.905048
-0.722485 -0.797551 4.905048
0.658246 -1.488213 4.905048
-0.768232 -0.747292 4.905048
0.675880 -1.466193 4.905048
0.715015 -1.425426 4.905048
0.738667 -1.415319 4.905048
-1.019382 -0.565247 4.905048
-1.025702 -0.546401 4.905048
0.801455 -1.386497 4.905048
-1.082169 -0.487146 4.905048
-1.087640 -0.483614 4.905048
0.864242 -1.364812 4.905048
-1.144957 -0.449201 4.905048
-1.177582 -0.420826 4.905048
-1.270532 0.457512 4.905048
-1.270532 -0.359802 4.905048
-1.280789 0.458198 4.905048
-1.207744 -0.397555 4.905048
-1.270532 0.466379 4.905048
-1.145485 0.018686 4.905048
-1.176386 0.081473 4.905048
-1.193304 0.144261 4.905048
-1.244185 0.458198 4.905048
-1.207744 0.199240 4.905048
-1.210363 0.207048 4.905048
-1.202142 0.395411 4.905048
-1.193489 0.458198 4.905048
-1.235126 0.269836 4.905048
-1.200078 0.520986 4.905048
-1.228708 0.332623 4.905048
-1.207744 0.382745 4.905048
-1.207744 0.534748 4.905048
-1.217263 0.583773 4.905048
-1.207744 0.643687 4.905048
-0.140357 -1.627268 4.905048
-1.205969 0.646560 4.905048
-0.077569 -1.644472 4.905048
-1.206314 0.709348 4.905048
-0.014782 -1.632078 4.905048
-1.207744 0.713096 4.905048
-1.228859 0.772135 4.905048
0.355617 -1.676576 4.905048
1.366542 1.394920 4.905048
1.358881 1.400010 4.905048
0.361943 -1.676576 4.890066
-0.642657 -1.237063 4.883403
0.424730 -1.676576 4.872653
-0.642657 -1.174276 4.883738
0.487517 -1.676576 4.863428
-0.642657 -1.111488 4.875135
0.361943 -1.613788 4.871277
0.424730 -1.613788 4.856814
-1.019382 -0.671976 4.852737
0.487517 -1.613788 4.872962
0.550305 -1.676576 4.889817
-0.705444 -1.048701 4.899168
-0.642657 -0.985914 4.851824
-0.265932 -1.551001 4.895074
-0.642657 -0.923126 4.848158
-0.140357 -1.613788 4.886540
-0.140357 -1.551001 4.843518
-0.705444 -0.797551 4.862247
-0.768232 -0.734764 4.883521
-0.077569 -1.613788 4.867799
-0.014782 -1.613788 4.887322
-1.082169 -0.483614 4.898801
-1.144957 -0.420826 4.859488
-1.270532 -0.358039 4.898549
0.613092 -1.425426 4.862311
-0.956594 -0.483614 4.845978
0.675880 -1.425426 4.879253
-1.144957 0.018686 4.903838
-1.207744 0.207048 4.899056
0.801455 -1.362638 4.861241
0.864242 -1.362638 4.903661
0.801455 -1.299851 4.853297
-1.270532 0.458198 4.888411
-1.207744 0.709348 4.878841
1.303754 1.400010 4.861093
0.361943 -1.677493 4.967835
-0.748261 -1.237063 4.967835
0.424730 -1.688212 4.967835
0.487517 -1.695642 4.967835
-0.768232 -1.195218 4.967835
0.506239 -1.676576 4.967835
0.550305 -1.618505 4.967835
-0.893807 -0.686546 4.967835
0.554695 -1.613788 4.967835
-0.921668 -0.671976 4.967835
-0.956594 -0.651635 4.967835
-0.228974 -1.613788 4.967835
-0.987297 -0.609189 4.967835
-0.265932 -1.569338 4.967835
-0.768232 -1.017382 4.967835
0.596291 -1.551001 4.967835
0.613092 -1.537980 4.967835
-0.751373 -0.985914 4.967835
0.662488 -1.488213 4.967835
-0.738308 -0.923126 4.967835
0.675880 -1.473605 4.967835
-0.728874 -0.860338 4.967835
0.738667 -1.451273 4.967835
-0.768232 -0.802411 4.967835
0.801455 -1.432984 4.967835
0.864242 -1.457981 4.967835
-1.144957 -0.549643 4.967835
-1.148278 -0.546401 4.967835
-1.145583 -0.483614 4.967835
-1.268834 0.395411 4.967835
-1.240705 0.458198 4.967835
-1.138972 -0.546401 4.967835
-1.227051 0.520986 4.967835
-1.082169 -0.518671 4.967835
-1.217811 0.583773 4.967835
-1.019382 -0.544976 4.967835
-1.207744 0.600142 4.967835
-1.207744 -0.441177 4.967835
-1.196573 0.646560 4.967835
-1.229200 -0.420826 4.967835
-1.207744 0.692679 4.967835
-1.270532 -0.381533 4.967835
-1.229654 0.709348 4.967835
-1.234242 0.772135 4.967835
-1.016562 -0.546401 4.967835
-0.956594 -0.445944 4.967835
-0.964023 -0.420826 4.967835
-0.946961 -0.420826 4.967835
-0.956594 -0.393287 4.967835
-1.207744 0.047252 4.967835
-1.224592 0.081473 4.967835
-1.200709 0.018686 4.967835
-1.243176 0.144261 4.967835
-1.244527 0.207048 4.967835
-1.250120 0.269836 4.967835
-1.262048 0.332623 4.967835
-0.203145 -1.622823 4.967835
-0.140357 -1.613958 4.967835
-0.014782 -1.681472 4.967835
-0.025115 -1.676576 4.967835
-0.077569 -1.646103 4.967835
0.355395 -1.676576 4.967835
0.236368 -1.666295 4.967835
0.299155 -1.666938 4.967835
-1.270532 -0.069975 4.967835
-0.391507 -1.507584 4.967835
-1.217738 -0.044101 4.967835
-0.430500 -1.488213 4.967835
-1.207744 -0.035897 4.967835
1.554904 1.287265 4.967835
-0.286161 -1.551001 4.967835
1.536020 1.337223 4.967835
-0.328720 -1.530489 4.967835
1.558062 1.274435 4.967835
1.494419 1.400010 4.967835
-0.517082 -1.433553 4.967835
-0.454294 -1.466860 4.967835
1.366542 1.458735 4.967835
1.429329 1.417536 4.967835
-1.338581 -0.232464 4.967835
1.492117 1.403942 4.967835
-1.359342 -0.169676 4.967835
-1.333319 -0.119276 4.967835
-1.013137 1.148860 4.967835
-1.317452 -0.106889 4.967835
-0.956594 1.183689 4.967835
-0.893807 1.199510 4.967835
-0.831019 1.195596 4.967835
-0.768232 1.178770 4.967835
0.487517 -1.676576 4.938417
-0.705444 -1.237063 4.937323
-0.768232 -1.174276 4.962130
0.550305 -1.676576 4.905775
-0.705444 -1.174276 4.932010
0.550305 -1.613788 4.959744
-0.768232 -1.111488 4.946356
-0.705444 -1.111488 4.928208
-0.203145 -1.613788 4.915544
0.236368 -1.613788 4.911712
-0.768232 -1.048701 4.957579
0.299155 -1.613788 4.915688
-0.705444 -0.985914 4.924138
-0.705444 -0.923126 4.932456
0.738667 -1.425426 4.923145
-0.705444 -0.860338 4.925175
0.801455 -1.425426 4.951021
-0.768232 -0.797551 4.961869
0.864242 -1.425426 4.954976
-1.144957 -0.546401 4.962771
-1.270532 0.458198 4.911849
-1.144957 -0.483614 4.967039
-1.019382 -0.546401 4.948174
-1.207744 0.395411 4.931191
-1.207744 0.458198 4.922838
-1.207744 -0.420826 4.937020
-1.207744 0.520986 4.923907
-1.207744 0.709348 4.927220
-0.956594 -0.420826 4.964374
-1.207744 0.081473 4.946949
1.366542 1.400010 4.910306
-1.207744 0.144261 4.930977
-0.014782 -1.676576 4.959683
-0.817140 -1.111488 4.967835
0.989817 -1.376541 4.967835
-0.528476 1.400010 4.967835
1.743267 1.081024 4.967835
1.743267 -0.297387 4.967835
1.847035 0.646560 4.967835
-0.599869 -1.362638 4.967835
1.029102 -1.362638 4.967835
1.785071 -0.232464 4.967835
1.674682 1.148860 4.967835
0.110793 -1.719871 4.967835
1.855124 0.772135 4.967835
1.825587 -0.106889 4.967835
1.617692 1.212065 4.967835
1.099829 -1.237063 4.967835
-0.642657 -1.337514 4.967835
1.816506 0.897711 4.967835
1.115392 -1.214985 4.967835
1.816064 0.018686 4.967835
1.202419 -1.111488 4.967835
-0.014782 1.512174 4.967835
-0.831181 -0.734764 4.967835
1.835952 0.144261 4.967835
1.777005 1.023286 4.967835
-0.129121 1.525585 4.967835
-0.014782 1.595350 4.967835
1.847776 0.269836 4.967835
1.240967 -1.070646 4.967835
-0.517082 1.419831 4.967835
-1.290638 -0.358039 4.967835
0.019069 1.525585 4.967835
1.837114 0.395411 4.967835
-0.437036 1.525585 4.967835
1.330038 -0.985914 4.967835
-0.265932 1.716666 4.967835
-0.391507 1.603933 4.967835
1.366542 -0.938664 4.967835
-0.140357 1.715056 4.967835
-0.357882 1.651160 4.967835
-0.014782 1.666854 4.967835
1.411176 -0.860338 4.967835
-1.207644 0.897711 4.967835
0.110793 1.696799 4.967835
1.492117 -0.748797 4.967835
0.236368 1.757805 4.967835
1.505695 -0.734764 4.967835
-1.183262 1.023286 4.967835
1.602585 -0.609189 4.967835
0.487517 1.642489 4.967835
-1.144957 1.069793 4.967835
0.475710 1.651160 4.967835
1.617692 -0.591787 4.967835
-1.019382 1.145982 4.967835
1.665850 -0.483614 4.967835
0.613092 1.603467 4.967835
1.708158 -0.358039 4.967835
0.738667 1.584004 4.967835
0.361943 1.728624 4.967835
-0.642657 1.209013 4.967835
-0.551548 1.274435 4.967835
0.864242 1.617117 4.967835
0.989817 1.634196 4.967835
1.115392 1.647610 4.967835
1.240967 1.560154 4.967835
1.265811 1.525585 4.967835
1.825616 0.520986 4.967835
-1.144957 -0.232464 4.888337
-0.517082 1.400010 4.947970
0.989817 -1.362638 4.921086
-1.019382 -0.232464 4.874770
1.743267 0.897711 4.850437
-0.391507 1.400010 4.860330
1.743267 -0.232464 4.905327
1.617692 1.023286 4.846029
-0.391507 1.525585 4.875553
-1.144957 -0.106889 4.914752
1.115392 -1.237063 4.960120
1.743267 1.023286 4.909745
1.617692 1.148860 4.924905
1.492117 1.274435 4.865427
1.492117 1.400010 4.963418
-1.144957 1.023286 4.890884
-0.893807 1.148860 4.902051
-0.014782 1.525585 4.931267
-0.768232 1.148860 4.886576
0.613092 1.525585 4.893734
0.738667 1.525585 4.898372
0.864242 1.525585 4.848629
1.115392 1.525585 4.860067
1.240967 1.525585 4.943295
-1.270532 -0.063992 5.030623
-0.454294 -1.494938 5.030623
-0.705444 1.317494 5.030623
-1.245654 -0.044101 5.030623
-0.470705 -1.488213 5.030623
-0.730562 1.337223 5.030623
-1.207744 -0.018993 5.030623
-0.391507 -1.520157 5.030623
-0.699986 1.337223 5.030623
-1.193350 0.018686 5.030623
-0.705444 1.358441 5.030623
-0.265932 -1.568728 5.030623
-1.270532 0.071750 5.030623
-1.207744 0.052123 5.030623
-0.301238 -1.551001 5.030623
-1.270532 0.229749 5.030623
-0.333344 -1.488213 5.030623
-1.254292 0.269836 5.030623
1.597090 1.274435 5.030623
-0.312767 -1.488213 5.030623
-1.270532 0.311409 5.030623
1.575430 1.337223 5.030623
-0.517082 -1.459617 5.030623
1.554904 1.369089 5.030623
0.236368 -1.691736 5.030623
-0.328720 -1.480844 5.030623
1.527011 1.400010 5.030623
0.299155 -1.691398 5.030623
0.361943 -1.687428 5.030623
0.423765 -1.676576 5.030623
1.492117 1.444886 5.030623
-1.333630 -0.232464 5.030623
1.466911 1.462798 5.030623
0.424730 -1.675518 5.030623
-1.347895 -0.169676 5.030623
0.487517 -1.667330 5.030623
1.366542 1.516995 5.030623
-1.333319 -0.121104 5.030623
0.550305 -1.634851 5.030623
1.429329 1.488724 5.030623
-1.317711 -0.106889 5.030623
0.578716 -1.613788 5.030623
-0.203145 -1.592187 5.030623
-1.277038 0.081473 5.030623
-0.156668 -1.613788 5.030623
-1.303788 0.144261 5.030623
0.613092 -1.596400 5.030623
-1.333319 0.163301 5.030623
0.613092 -1.505590 5.030623
-1.352108 0.207048 5.030623
0.561381 -1.488213 5.030623
-1.333319 0.253816 5.030623
0.666061 -1.551001 5.030623
0.675880 -1.547915 5.030623
0.629974 -1.488213 5.030623
-1.284220 0.332623 5.030623
0.737686 -1.488213 5.030623
-1.308026 0.395411 5.030623
0.613092 -1.463373 5.030623
0.738667 -1.483893 5.030623
-1.144957 -0.515336 5.030623
-1.196292 -0.483614 5.030623
0.801455 -1.492747 5.030623
-1.082169 -0.532330 5.030623
0.749856 -1.488213 5.030623
0.864242 -1.506852 5.030623
-1.019382 -0.546278 5.030623
-1.207744 -0.439217 5.030623
-1.217807 -0.420826 5.030623
-1.276902 0.458198 5.030623
-1.270532 0.520239 5.030623
-1.270532 -0.396008 5.030623
-1.270532 0.643523 5.030623
-1.274154 0.646560 5.030623
-1.004039 -0.609189 5.030623
-1.280986 0.709348 5.030623
-1.019045 -0.546401 5.030623
-1.270532 0.742336 5.030623
-1.270457 0.520986 5.030623
-1.251937 0.583773 5.030623
-1.262695 0.772135 5.030623
-1.019382 1.191426 5.030623
-1.004440 1.211648 5.030623
-0.956594 1.228226 5.030623
-0.893807 1.250173 5.030623
-0.831019 1.237041 5.030623
-0.768232 1.232609 5.030623
-0.454294 -1.488213 5.012962
-0.705444 1.337223 5.028491
-1.270532 0.081473 5.012836
-0.328720 -1.488213 5.013205
-1.270532 0.144261 4.984303
-1.270532 0.207048 4.996045
1.554904 1.337223 4.980984
-1.270532 0.332623 4.992274
-1.270532 0.395411 4.968294
-1.333319 0.207048 5.011129
1.366542 1.462798 4.970851
0.236368 -1.676576 4.997756
1.429329 1.462798 5.007818
-1.144957 -0.546401 4.971260
0.299155 -1.676576 4.985594
0.424730 -1.676576 5.026980
0.487517 -1.676576 5.021402
-0.956594 -0.420826 4.978594
-0.203145 -1.613788 4.994826
0.613092 -1.551001 4.986790
0.613092 -1.488213 4.974762
0.675880 -1.488213 4.987026
0.801455 -1.488213 5.028071
0.864242 -1.488213 4.991547
-1.270532 0.458198 5.024527
-1.270532 0.646560 5.021235
-1.270532 0.709348 5.011384
-1.207744 0.646560 4.987080
-1.019382 1.148860 4.983451
-0.956594 1.211648 4.998514
-0.893807 1.211648 4.979923
-0.831019 1.211648 4.994388
-0.768232 1.211648 5.007704
-1.270532 -0.032093 5.093410
-0.862437 1.274435 5.093410
-1.265068 0.018686 5.093410
-0.831019 1.288790 5.093410
-0.517082 -1.544516 5.093410
-1.270532 0.029737 5.093410
-0.775193 1.337223 5.093410
-0.553987 -1.488213 5.093410
-0.768232 1.353287 5.093410
-0.454294 -1.533661 5.093410
0.236368 -1.705655 5.093410
-0.715193 1.400010 5.093410
-0.391507 -1.531751 5.093410
0.299155 -1.703840 5.093410
-0.705444 1.404241 5.093410
0.361943 -1.702755 5.093410
-0.328720 -1.554776 5.093410
-0.642657 1.458858 5.093410
-0.335992 -1.551001 5.093410
0.424730 -1.685823 5.093410
-0.265932 -1.582704 5.093410
0.463660 -1.676576 5.093410
1.617692 1.279422 5.093410
1.581793 1.337223 5.093410
0.487517 -1.671130 5.093410
1.559850 1.400010 5.093410
-0.917409 -0.985914 5.093410
0.546307 -1.613788 5.093410
-0.904563 -0.923126 5.093410
1.492117 1.470797 5.093410
1.433095 1.525585 5.093410
0.613092 -1.626576 5.093410
-0.934347 -0.860338 5.093410
1.366542 1.581844 5.093410
0.558277 -1.613788 5.093410
1.429329 1.529838 5.093410
-1.019382 -0.631418 5.093410
1.554904 1.407208 5.093410
-1.037876 -0.609189 5.093410
-0.203145 -1.603413 5.093410
1.500596 1.462798 5.093410
-0.180666 -1.613788 5.093410
-0.901617 -0.797551 5.093410
-0.898094 -0.734764 5.093410
0.550305 -1.610541 5.093410
-1.458894 -0.192163 5.093410
0.701638 -1.613788 5.093410
-1.465559 -0.169676 5.093410
0.738667 -1.599997 5.093410
-1.451497 -0.169676 5.093410
-1.458894 -0.152648 5.093410
0.801455 -1.563883 5.093410
-1.333319 -0.228215 5.093410
0.832777 -1.551001 5.093410
-1.336502 -0.169676 5.093410
0.864242 -1.538257 5.093410
-1.332555 -0.232464 5.093410
-1.333319 -0.119905 5.093410
-1.300060 0.395411 5.093410
-1.328207 -0.106889 5.093410
-1.286119 0.458198 5.093410
-1.281673 -0.044101 5.093410
-1.270532 0.501348 5.093410
-1.311161 0.081473 5.093410
-1.270532 0.571464 5.093410
-1.276379 0.583773 5.093410
-1.333319 0.100524 5.093410
-1.373508 0.144261 5.093410
-1.285949 0.646560 5.093410
-1.349555 0.207048 5.093410
-1.288225 0.709348 5.093410
-1.349059 0.269836 5.093410
-1.291028 0.772135 5.093410
-1.340750 0.332623 5.093410
-1.266436 0.520986 5.093410
-1.333319 0.345387 5.093410
-1.207744 -0.500602 5.093410
-1.019382 1.216014 5.093410
-1.230251 -0.483614 5.093410
-0.956594 1.238922 5.093410
-1.144957 -0.544624 5.093410
-0.893807 1.258851 5.093410
-1.062999 -0.546401 5.093410
-1.082169 -0.543448 5.093410
-1.270532 -0.427257 5.093410
-0.768232 -1.363831 5.093410
-0.705444 -1.382663 5.093410
-0.642657 -1.422853 5.093410
1.273047 1.651160 5.093410
1.240967 1.668430 5.093410
-0.579870 -1.470722 5.093410
-0.640189 -1.425426 5.093410
1.886086 0.897711 5.093410
-0.705444 1.196979 5.093410
1.868842 0.942772 5.093410
-0.729664 1.211648 5.093410
-0.668670 1.211648 5.093410
-0.705444 1.215128 5.093410
1.354914 1.588372 5.093410
1.303754 1.626983 5.093410
-0.517082 -1.488213 5.069189
-1.270532 -0.044101 5.079862
-0.831019 1.274435 5.067643
-0.768232 1.274435 5.064527
-1.207744 0.018686 5.047107
-0.328720 -1.551001 5.083734
-0.768232 1.337223 5.078288
-0.328720 -1.488213 5.075621
-1.270532 0.269836 5.045522
-0.705444 1.274435 5.054024
-0.893807 -0.985914 5.042992
-0.642657 1.274435 5.067700
-0.893807 -0.923126 5.069360
-0.642657 1.337223 5.065559
-0.893807 -0.860338 5.086250
-0.705444 1.400010 5.085133
-1.019382 -0.609189 5.069512
0.424730 -1.676576 5.044039
-0.642657 1.400010 5.063459
-0.893807 -0.797551 5.087176
-0.893807 -0.734764 5.088870
0.550305 -1.613788 5.090030
-1.458894 -0.169676 5.035056
0.613092 -1.613788 5.076462
1.617692 1.274435 5.082966
-1.333319 -0.232464 5.071610
1.554904 1.400010 5.079179
-1.333319 0.144261 5.072217
0.613092 -1.488213 5.058305
1.492117 1.462798 5.070450
-1.333319 0.269836 5.061810
1.366542 1.525585 5.038538
0.675880 -1.613788 5.088493
-1.333319 0.332623 5.081286
1.429329 1.525585 5.086576
0.675880 -1.551001 5.035329
-1.207744 -0.483614 5.052496
0.738667 -1.551001 5.053792
-1.019382 -0.546401 5.031504
0.738667 -1.488213 5.032880
-1.270532 -0.420826 5.085034
0.801455 -1.551001 5.084031
-1.270532 0.583773 5.075387
-1.270532 0.772135 5.048247
-1.019382 1.211648 5.069147
-0.140357 -1.656926 5.093410
1.862121 0.144261 5.093410
-1.296463 -0.358039 5.093410
1.929497 0.646560 5.093410
1.179120 -1.111488 5.093410
1.868842 0.154396 5.093410
-0.769663 -1.362638 5.093410
1.956953 0.772135 5.093410
-0.014782 -1.736438 5.093410
-0.519743 1.525585 5.093410
1.891692 0.269836 5.093410
1.240967 -1.061817 5.093410
-0.820743 -1.237063 5.093410
-0.014782 1.560624 5.093410
0.110793 -1.725547 5.093410
1.868842 0.370835 5.093410
-0.517082 1.526854 5.093410
1.845864 1.023286 5.093410
-0.878875 -1.111488 5.093410
0.110793 1.575339 5.093410
1.860187 0.395411 5.093410
1.340502 -0.985914 5.093410
1.821732 1.148860 5.093410
0.213536 1.651160 5.093410
-0.393742 1.651160 5.093410
1.366542 -0.962162 5.093410
1.743267 1.233506 5.093410
-0.893807 -1.076655 5.093410
1.462582 -0.860338 5.093410
-0.265932 1.714156 5.093410
0.954165 -1.488213 5.093410
-0.391507 1.655896 5.093410
-0.224733 1.776735 5.093410
1.492117 -0.823953 5.093410
-1.306519 0.897711 5.093410
0.989817 -1.455846 5.093410
-0.079997 1.651160 5.093410
1.617692 -0.748323 5.093410
-0.104048 1.776735 5.093410
1.112634 -1.362638 5.093410
1.630701 -0.734764 5.093410
-0.140357 1.786123 5.093410
-1.270532 1.005478 5.093410
1.659695 -0.609189 5.093410
1.115392 -1.359223 5.093410
0.236368 1.687529 5.093410
1.630791 1.274435 5.093410
1.743267 -0.520739 5.093410
1.159851 -1.237063 5.093410
0.316260 1.776735 5.093410
-1.262060 1.023286 5.093410
0.361943 1.800195 5.093410
-1.144957 1.136412 5.093410
1.787310 -0.483614 5.093410
0.487517 1.813183 5.093410
1.836025 -0.358039 5.093410
-1.114115 1.148860 5.093410
0.613092 1.751140 5.093410
1.868842 -0.269248 5.093410
0.587666 1.776735 5.093410
1.879273 -0.232464 5.093410
0.738667 1.713501 5.093410
1.877303 -0.106889 5.093410
1.868842 -0.091534 5.093410
0.864242 1.702661 5.093410
1.823681 0.018686 5.093410
0.989817 1.766879 5.093410
1.115392 1.710470 5.093410
1.850404 0.520986 5.093410
1.868842 0.561450 5.093410
1.868842 0.269836 5.042233
-0.768232 -1.362638 5.090702
-0.517082 1.525585 5.091531
-0.768232 -0.985914 4.976754
-0.768232 -1.237063 4.987579
-0.768232 -0.860338 5.009727
-0.014782 1.525585 4.971761
-0.391507 1.651160 5.072008
1.617692 -0.734764 5.080939
1.868842 0.646560 5.013153
-0.642657 -1.362638 5.044623
-0.014782 1.651160 4.976473
1.868842 0.772135 4.991923
-1.270532 0.897711 5.047366
1.617692 -0.609189 5.016252
0.110793 1.651160 4.996451
1.115392 -1.237063 5.030004
1.868842 0.897711 5.072507
-0.140357 1.776735 5.076362
1.743267 -0.483614 5.070661
1.743267 1.148860 5.020074
1.743267 -0.358039 5.007520
0.487517 1.651160 4.978489
0.613092 1.651160 5.030328
0.738667 1.651160 5.050925
1.868842 -0.232464 5.081449
1.868842 -0.106889 5.086411
0.361943 1.776735 5.062342
0.487517 1.776735 5.026947
0.864242 1.651160 5.051062
0.989817 1.651160 4.990197
1.115392 1.651160 4.974626
1.240967 1.651160 5.053972
1.429329 1.566440 5.156198
1.405214 1.588372 5.156198
-0.517082 -1.581406 5.156198
1.464539 1.525585 5.156198
-1.207744 0.139615 5.156198
-0.575056 -1.551001 5.156198
1.366542 1.620681 5.156198
-1.211370 0.144261 5.156198
-1.175858 0.144261 5.156198
-0.573937 -1.488213 5.156198
1.554904 1.424670 5.156198
-1.207744 0.187150 5.156198
1.525208 1.462798 5.156198
-0.642657 -1.481028 5.156198
-0.704188 -1.425426 5.156198
1.568787 1.400010 5.156198
1.492117 1.487835 5.156198
-1.317097 0.395411 5.156198
-0.768232 -1.368353 5.156198
-1.298653 0.458198 5.156198
-0.705444 -1.424246 5.156198
-1.281570 0.520986 5.156198
1.240967 1.704294 5.156198
-0.579870 -1.484182 5.156198
1.303754 1.668007 5.156198
-0.454294 -1.569678 5.156198
-1.019382 1.241903 5.156198
1.326861 1.651160 5.156198
-0.956594 1.264771 5.156198
-0.391507 -1.567693 5.156198
-0.946717 1.274435 5.156198
-0.328720 -1.588176 5.156198
-0.831019 1.244029 5.156198
-0.845053 1.274435 5.156198
-0.270419 -1.613788 5.156198
1.931629 0.901435 5.156198
-0.817138 1.274435 5.156198
1.919051 0.960498 5.156198
-0.893807 1.308123 5.156198
-0.956594 -0.963759 5.156198
-0.977399 -0.923126 5.156198
-0.831019 1.301587 5.156198
1.934330 0.897711 5.156198
-0.867610 1.337223 5.156198
-0.945992 -0.985914 5.156198
-0.831019 1.364171 5.156198
1.931629 1.010693 5.156198
-0.980245 -0.860338 5.156198
-0.793061 1.400010 5.156198
1.947015 1.023286 5.156198
-1.019382 -0.756075 5.156198
-0.768232 1.431563 5.156198
-1.059839 -0.734764 5.156198
1.931629 1.045236 5.156198
1.896846 1.086073 5.156198
-0.705444 1.445780 5.156198
-1.207744 -0.672696 5.156198
-0.691551 1.462798 5.156198
-1.208769 -0.671976 5.156198
1.868842 1.141423 5.156198
