0.990200 -1.557710 2.966572
0.036275 -1.771595 2.966572
0.735820 1.765102 2.966572
2.198504 0.356104 2.966572
-1.426323 -0.658928 2.966572
0.996046 -1.549258 2.966572
0.753562 1.757681 2.966572
-0.026749 -1.740042 2.966572
2.197775 0.358592 2.966572
1.025629 -1.485662 2.966572
0.926605 1.691236 2.966572
-1.172029 -1.041569 2.966572
-0.090915 -1.728960 2.966572
1.053795 -1.481442 2.966572
-1.173941 -1.040498 2.966572
0.990200 1.664619 2.966572
2.242108 0.231402 2.966572
-0.027319 -1.739864 2.966572
-1.170202 -1.040498 2.966572
1.117390 -1.527336 2.966572
1.053795 1.657277 2.966572
2.219673 0.294997 2.966572
1.076391 -1.485662 2.966572
-1.172029 -1.037930 2.966572
0.099870 -1.755289 2.966572
1.097857 1.630491 2.966572
1.180985 -1.511739 2.966572
-1.108434 -0.991302 2.966572
-1.124336 -0.976903 2.966572
0.104239 -1.740042 2.966572
-1.172029 -0.913748 2.966572
1.435365 -1.391190 2.966572
-0.472484 1.719402 2.966572
2.188576 0.422186 2.966572
-1.176408 -0.913308 2.966572
2.180809 0.485782 2.966572
1.493049 -1.358473 2.966572
2.052810 0.867351 2.966572
-0.981244 -1.097290 2.966572
2.026025 0.930946 2.966572
-0.408889 1.741290 2.966572
-1.029149 -1.040498 2.966572
2.007720 0.962992 2.966572
0.163465 -1.680324 2.966572
1.987282 0.994541 2.966572
1.498960 -1.352121 2.966572
-1.044839 -1.026423 2.966572
-0.345294 1.753677 2.966572
1.944124 1.040556 2.966572
0.227060 -1.810680 2.966572
1.551285 -1.294878 2.966572
0.218232 -1.803637 2.966572
-1.299219 -0.862313 2.966572
-0.335534 1.757681 2.966572
1.561376 -1.231283 2.966572
0.290655 -1.840016 2.966572
-1.312429 -0.849713 2.966572
-0.281700 1.795449 2.966572
0.354250 -1.858038 2.966572
1.562554 -1.227277 2.966572
-1.273960 -0.849713 2.966572
-0.233072 1.821276 2.966572
0.417845 -1.864304 2.966572
-0.218104 1.872173 2.966572
1.626150 -1.206570 2.966572
0.191911 -1.740042 2.966572
-1.299219 -0.825109 2.966572
-0.216002 1.884871 2.966572
-1.235624 -0.825844 2.966572
1.642972 -1.167688 2.966572
0.481440 -1.836281 2.966572
-0.090915 1.853476 2.966572
-1.286992 -0.786118 2.966572
0.545035 -1.806835 2.966572
-0.130835 1.884871 2.966572
0.608630 -1.822248 2.966572
1.667891 -1.104093 2.966572
0.290655 1.792473 2.966572
0.619899 -1.803637 2.966572
-1.215389 -0.849713 2.966572
0.245895 1.821276 2.966572
0.608630 -1.764318 2.966572
1.686105 -1.040498 2.966572
0.599831 -1.740042 2.966572
-1.299219 -0.744700 2.966572
0.163465 1.863338 2.966572
0.608630 -1.731202 2.966572
1.689744 -1.036471 2.966572
0.227060 1.837883 2.966572
0.668813 -1.676447 2.966572
-1.490004 -0.599631 2.966572
-1.492378 -0.595333 2.966572
0.354250 1.812148 2.966572
0.735820 -1.703148 2.966572
-1.506587 -0.531738 2.966572
0.417845 1.784884 2.966572
0.674132 -1.676447 2.966572
1.733003 -0.976903 2.966572
-1.426409 -0.658862 2.966572
0.481440 1.777236 2.966572
0.799415 -1.680424 2.966572
0.545035 1.805652 2.966572
-1.503462 -0.468143 2.966572
0.814632 -1.676447 2.966572
1.753339 -0.926427 2.966572
0.608630 1.806132 2.966572
-1.509162 -0.404548 2.966572
1.783776 -0.913308 2.966572
-1.426409 -0.455625 2.966572
0.672225 -1.674660 2.966572
-0.154510 1.895422 2.966572
-1.439603 -0.404548 2.966572
1.816935 -0.889703 2.966572
-1.420808 -0.404548 2.966572
1.842668 -0.849713 2.966572
0.863010 -1.670800 2.966572
-1.490004 -0.340995 2.966572
1.117390 1.615395 2.966572
1.877237 -0.786118 2.966572
0.919616 -1.612852 2.966572
1.180985 1.581860 2.966572
-1.426409 -0.394950 2.966572
-1.489978 -0.340953 2.966572
1.944124 -0.681317 2.966572
1.958523 -0.658928 2.966572
-1.482735 -0.277358 2.966572
0.799415 1.736189 2.966572
-1.490004 -0.258577 2.966572
1.989237 -0.595333 2.966572
0.863010 1.692822 2.966572
2.007720 -0.580197 2.966572
-1.527171 -0.213763 2.966572
2.042085 -0.531738 2.966572
0.860019 1.694086 2.966572
-1.553599 -0.189571 2.966572
2.008113 -0.468143 2.966572
-1.583701 -0.150168 2.966572
2.044092 -0.404548 2.966572
2.052022 -0.340953 2.966572
2.007720 -0.311615 2.966572
1.993890 -0.277358 2.966572
2.071314 -0.284425 2.966572
2.053922 -0.277358 2.966572
2.086001 -0.277358 2.966572
2.007720 -0.231694 2.966572
2.088089 -0.213763 2.966572
2.119164 -0.150168 2.966572
1.880529 -0.781489 2.966572
1.916453 -0.722523 2.966572
2.110392 -0.086573 2.966572
2.134909 -0.043905 2.966572
2.149848 -0.022978 2.966572
2.198504 0.036389 2.966572
-1.362814 -0.786118 2.912265
0.672225 1.821276 2.942824
-0.090915 -1.803637 2.916083
0.926605 -1.676447 2.904906
0.799415 1.757681 2.908367
2.198504 -0.340953 2.924160
0.926605 -1.612852 2.962742
-0.027319 -1.803637 2.913424
-1.426409 -0.658928 2.966532
0.863010 1.757681 2.908265
0.990200 -1.612852 2.936163
0.036275 -1.803637 2.911418
0.863010 1.821276 2.904394
1.053795 -1.612852 2.909782
0.099870 -1.803637 2.912211
2.198504 0.358592 2.966056
0.926605 1.694086 2.943316
-1.172029 -1.040498 2.962431
0.163465 -1.803637 2.934531
1.053795 -1.549258 2.929370
1.053795 1.694086 2.927329
-1.108434 -1.040498 2.917470
-0.090915 -1.740042 2.948321
2.262099 0.231402 2.936759
-1.299219 -0.913308 2.911486
1.117390 -1.549258 2.945248
1.117390 1.630491 2.961310
-1.235624 -0.913308 2.955575
1.117390 1.694086 2.914905
0.163465 -1.740042 2.955734
1.180985 -1.549258 2.932969
1.180985 1.630491 2.914909
1.180985 1.694086 2.917583
0.290655 -1.867232 2.940895
-0.981244 -1.167688 2.916254
-0.472484 1.757681 2.929576
1.117390 1.757681 2.907639
1.053795 -1.485662 2.952926
-0.981244 -1.104093 2.960208
0.354250 -1.867232 2.957814
-0.408889 1.757681 2.936258
-1.044839 -1.040498 2.953371
1.180985 1.757681 2.920296
0.417845 -1.867232 2.962447
-0.345294 1.757681 2.959832
-1.299219 -0.849713 2.937679
2.198504 0.422186 2.958346
1.498960 -1.358473 2.956537
0.481440 -1.867232 2.929259
-0.536079 1.757681 2.914557
-1.235624 -0.849713 2.951881
2.198504 0.485782 2.945339
0.545035 -1.867232 2.913014
1.562554 -1.231283 2.964141
-1.490004 -0.595333 2.949757
-0.281700 1.821276 2.949316
2.262099 0.422186 2.904078
1.626150 -1.231283 2.924041
0.672225 -1.676447 2.963225
-0.218104 1.884871 2.965120
-1.426409 -0.404548 2.961006
2.071314 0.867351 2.950776
0.735820 -1.740042 2.927822
2.071314 0.930946 2.909609
1.689744 -1.104093 2.932363
-0.090915 1.884871 2.947363
0.799415 -1.740042 2.906168
2.007720 0.994541 2.953377
-1.617194 -0.150168 2.939722
1.689744 -1.040498 2.961693
0.863010 -1.676447 2.958119
-1.553599 -0.340953 2.926940
2.134909 0.930946 2.918466
0.163465 1.884871 2.951776
-1.553599 -0.277358 2.921053
0.227060 1.884871 2.942352
1.944124 1.058136 2.955150
-1.490004 -0.277358 2.959113
1.753339 -0.976903 2.926573
2.007720 1.058136 2.914397
0.417845 1.821276 2.906602
-1.553599 -0.213763 2.951472
1.944124 1.121731 2.924168
1.816935 -0.913308 2.918966
0.545035 1.821276 2.937452
0.608630 1.821276 2.938483
1.880529 -0.786118 2.951919
1.944124 -0.722523 2.927084
-0.154510 1.948466 2.910091
2.007720 -0.658928 2.921487
-0.090915 1.948466 2.934648
-0.090915 2.012061 2.912617
2.007720 -0.595333 2.955239
2.071314 -0.595333 2.905635
2.071314 -0.531738 2.940013
2.071314 -0.468143 2.951256
0.863010 1.694086 2.965194
2.071314 -0.404548 2.940114
2.071314 -0.340953 2.934862
2.007720 -0.277358 2.940859
2.134909 -0.277358 2.923811
2.134909 -0.213763 2.925877
2.134909 -0.150168 2.923938
-0.599674 1.666471 2.966572
-0.599674 -1.423401 2.966572
-0.256757 -1.676447 2.966572
2.325694 -0.013283 2.966572
-0.600552 -1.422068 2.966572
-3.816788 1.884871 2.966572
0.036275 1.860870 2.966572
-3.667705 2.393631 2.966572
-1.871574 2.817733 2.966572
-3.652233 2.406418 2.966572
-3.807008 2.012061 2.966572
-0.218104 -1.697273 2.966572
-1.915488 2.902390 2.966572
2.351039 0.104212 2.966572
-0.854054 -1.196502 2.966572
-1.624149 2.393631 2.966572
-0.345294 -1.633973 2.966572
-0.472484 -1.575522 2.966572
2.114129 0.612971 2.966572
-0.509008 -1.549258 2.966572
-3.556438 2.520821 2.966572
-0.929238 -1.167688 2.966572
1.308175 1.540283 2.966572
1.308175 -1.427787 2.966572
2.325694 0.138502 2.966572
1.320950 -1.422068 2.966572
-1.727497 2.520821 2.966572
-3.525043 2.550072 2.966572
-0.699894 -1.294878 2.966572
1.435365 1.563639 2.966572
-3.814271 2.139251 2.966572
2.095181 0.740161 2.966572
-3.422690 2.648010 2.966572
-0.726864 -1.278773 2.966572
2.071314 0.829078 2.966572
-1.744384 2.542690 2.966572
-3.779423 2.252637 2.966572
1.689744 1.447526 2.966572
-3.525043 1.238807 2.966572
-1.796322 2.648010 2.966572
-3.397853 2.718375 2.966572
1.626039 1.503301 2.966572
-3.555493 1.248921 2.966572
-3.772830 2.266440 2.966572
1.868719 1.121731 2.966572
-3.397853 1.225782 2.966572
-1.854828 2.775200 2.966572
1.562554 1.533392 2.966572
1.826285 1.248921 2.966572
-3.630689 1.376111 2.966572
1.816935 1.275116 2.966572
-3.385802 2.775200 2.966572
1.773450 1.376111 2.966572
-3.305166 2.902390 2.966572
-2.380333 0.856683 2.966572
-2.125954 3.117492 2.966572
-1.617194 -0.056394 2.966572
-2.253144 0.799911 2.966572
-2.401856 0.867351 2.966572
-1.679896 -0.022978 2.966572
-3.270663 2.931485 2.966572
-3.143473 3.028934 2.966572
-3.140140 3.029580 2.966572
-2.125954 0.746980 2.966572
-1.998764 3.000681 2.966572
-3.016283 3.058362 2.966572
-2.889093 3.069722 2.966572
-1.744384 0.040805 2.966572
-1.998764 0.717320 2.966572
-2.026015 3.029580 2.966572
-3.016283 1.121179 2.966572
-1.751739 0.104212 2.966572
-2.761903 3.128370 2.966572
-2.098120 0.740161 2.966572
-2.634713 3.040079 2.966572
-3.017586 1.121731 2.966572
-1.871574 0.660440 2.966572
-1.744384 0.202837 2.966572
-2.889093 1.055925 2.966572
-1.726680 0.231402 2.966572
-2.507523 3.087285 2.966572
-1.717457 0.358592 2.966572
-3.270663 1.201787 2.966572
-1.709670 0.485782 2.966572
-3.143473 1.167461 2.966572
-1.744384 0.566794 2.966572
-1.798845 0.612971 2.966572
-1.235624 1.339147 2.966572
-1.329521 1.376111 2.966572
-1.122436 1.376111 2.966572
-3.652233 1.427882 2.966572
-3.697649 1.503301 2.966572
-3.776202 1.630491 2.966572
-3.779423 1.640162 2.966572
-3.797775 1.757681 2.966572
-1.517628 2.139251 2.966572
-1.566067 2.266440 2.966572
-1.617194 2.381637 2.966572
-1.108434 1.385905 2.966572
-0.981244 1.443705 2.966572
-0.919697 1.503301 2.966572
-0.854054 1.558736 2.966572
-0.741434 1.630491 2.966572
-0.726864 1.637933 2.966572
-0.345294 -1.676447 2.879582
-0.599674 -1.549258 2.901402
-0.218104 -1.803637 2.880768
2.198504 -0.022978 2.930480
-0.726864 -1.422068 2.851357
2.325694 -0.022978 2.950300
1.308175 -1.549258 2.852952
-0.854054 -1.294878 2.883316
-2.634713 0.740161 2.841672
-2.761903 0.867351 2.880425
-0.726864 -1.294878 2.946768
-2.634713 0.867351 2.915687
-1.871574 2.902390 2.864173
-3.652233 2.393631 2.885361
-2.507523 0.740161 2.868185
0.036275 1.884871 2.960209
1.180985 1.884871 2.963696
-2.380333 0.740161 2.907389
-1.617194 2.393631 2.962151
-1.235624 1.884871 2.868775
1.308175 1.884871 2.846561
-2.125954 0.612971 2.863073
-2.507523 0.867351 2.943346
-1.362814 2.012061 2.914832
-1.617194 2.520821 2.868282
-1.871574 0.358592 2.887627
-1.871574 0.485782 2.887206
-1.744384 2.648010 2.908815
2.198504 0.612971 2.844084
-1.998764 0.612971 2.885806
-1.362814 2.139251 2.860445
1.308175 1.630491 2.909090
-3.143473 1.121731 2.855442
-1.871574 0.612971 2.938276
-1.490004 2.393631 2.892732
1.435365 1.630491 2.902878
-1.744384 -0.022978 2.940143
-0.854054 1.884871 2.853862
1.689744 1.503301 2.932462
-2.889093 0.994541 2.920211
-2.253144 0.740161 2.931231
1.562554 1.630491 2.870450
1.944124 1.248921 2.889387
-2.125954 0.740161 2.961500
-1.998764 3.029580 2.884573
1.689744 1.630491 2.886396
1.816935 1.376111 2.939395
-1.744384 0.231402 2.956626
1.944124 1.376111 2.848068
1.308175 1.757681 2.845736
-1.744384 0.358592 2.953488
-1.744384 0.485782 2.938156
1.816935 1.503301 2.893555
1.816935 1.630491 2.845793
-3.779423 1.630491 2.959219
-1.235624 1.376111 2.913410
-3.270663 2.902390 2.888980
-1.490004 2.139251 2.949118
-3.143473 3.029580 2.965838
-1.490004 2.266440 2.912578
-2.889093 3.156770 2.868433
-2.761903 3.156770 2.929962
-2.634713 3.156770 2.865086
-0.981244 1.503301 2.905699
-0.854054 1.630491 2.930068
-1.235624 1.757681 2.875869
-1.108434 1.757681 2.866120
-0.981244 1.757681 2.878316
-0.854054 1.757681 2.886025
-0.726864 1.757681 2.902367
-1.490004 -0.666366 3.030167
0.290655 -1.740442 3.030167
2.083531 0.231402 3.030167
1.562554 -1.258127 3.030167
-1.509296 -0.658928 3.030167
2.087214 0.294997 3.030167
0.354250 -1.770376 3.030167
1.580044 -1.231283 3.030167
-1.436876 -0.658928 3.030167
2.118894 0.358592 3.030167
0.397458 -1.740042 3.030167
1.614455 -1.167688 3.030167
0.417845 -1.723386 3.030167
-1.172029 -0.978489 3.030167
-1.172987 -0.976903 3.030167
-0.472484 1.663446 3.030167
1.626150 -1.144223 3.030167
-1.171333 -0.976903 3.030167
0.545035 -1.763937 3.030167
-0.441634 1.694086 3.030167
-1.172029 -0.976294 3.030167
0.496917 -1.740042 3.030167
1.641638 -1.104093 3.030167
-0.408889 1.711695 3.030167
0.481440 -1.691473 3.030167
-0.981244 -1.006911 3.030167
-0.345294 1.713522 3.030167
1.658434 -1.040498 3.030167
0.545035 -1.697679 3.030167
1.677543 -0.976903 3.030167
0.509462 -1.676447 3.030167
-0.281700 1.735056 3.030167
1.689744 -0.962791 3.030167
-0.218104 1.755118 3.030167
0.575374 -1.740042 3.030167
-0.208056 1.757681 3.030167
-0.154510 1.769325 3.030167
1.753339 -0.921244 3.030167
-0.090915 1.786074 3.030167
-0.090915 -1.630375 3.030167
1.760607 -0.913308 3.030167
-0.027319 -1.647642 3.030167
0.163465 1.772798 3.030167
-1.025972 -0.976903 3.030167
0.036275 -1.657540 3.030167
0.227060 1.774154 3.030167
1.816935 -0.862459 3.030167
0.290655 1.776639 3.030167
0.036275 -1.555846 3.030167
-1.044839 -0.967632 3.030167
1.832347 -0.849713 3.030167
-0.025483 -1.549258 3.030167
-1.105956 -0.913308 3.030167
0.330750 1.821276 3.030167
0.417845 1.767771 3.030167
1.874629 -0.786118 3.030167
-0.947659 -1.040498 3.030167
0.368988 1.821276 3.030167
0.099870 -1.643257 3.030167
0.354250 1.825874 3.030167
1.880529 -0.775697 3.030167
0.163465 -1.652241 3.030167
0.481440 1.762066 3.030167
0.043079 -1.549258 3.030167
1.902657 -0.722523 3.030167
0.545035 1.761099 3.030167
0.036275 -1.544676 3.030167
1.925937 -0.658928 3.030167
0.582142 1.757681 3.030167
0.545035 -1.666572 3.030167
0.926605 1.615966 3.030167
0.608630 -1.675542 3.030167
0.895398 1.630491 3.030167
1.944124 -0.586232 3.030167
0.672225 -1.651223 3.030167
0.990200 1.535336 3.030167
1.971694 -0.531738 3.030167
0.973509 1.566896 3.030167
0.719440 -1.612852 3.030167
1.052428 1.503301 3.030167
1.992868 -0.468143 3.030167
0.799415 -1.663904 3.030167
0.990200 1.630069 3.030167
1.996430 -0.404548 3.030167
0.749308 -1.612852 3.030167
0.973348 1.630491 3.030167
0.735820 -1.611088 3.030167
1.000713 1.630491 3.030167
1.968193 -0.340953 3.030167
0.863010 -1.613584 3.030167
0.799415 1.687807 3.030167
2.007720 -0.296712 3.030167
0.790132 1.694086 3.030167
0.864917 -1.612852 3.030167
0.672225 1.733281 3.030167
2.015346 -0.277358 3.030167
0.914858 -1.549258 3.030167
0.735820 1.718803 3.030167
2.037384 -0.213763 3.030167
0.926605 -1.527134 3.030167
0.863010 1.653067 3.030167
2.057983 -0.150168 3.030167
0.990200 -1.551873 3.030167
0.964541 1.694086 3.030167
0.980878 -1.549258 3.030167
1.000390 1.694086 3.030167
2.071314 -0.108257 3.030167
0.990200 1.696341 3.030167
0.992563 -1.549258 3.030167
2.078607 -0.086573 3.030167
1.053795 -1.508167 3.030167
2.103268 -0.022978 3.030167
-1.108434 -0.909611 3.030167
1.117390 -1.489772 3.030167
-1.153569 -0.849713 3.030167
2.128389 0.040617 3.030167
-1.172029 -0.826152 3.030167
1.180985 -1.486403 3.030167
-1.208027 -0.786118 3.030167
2.126423 0.104212 3.030167
-1.235624 -0.745276 3.030167
-1.245504 -0.722523 3.030167
1.435365 -1.339216 3.030167
2.134909 0.109694 3.030167
-1.286663 -0.658928 3.030167
1.498960 -1.308782 3.030167
2.143911 0.167807 3.030167
1.519544 -1.294878 3.030167
2.134909 0.189601 3.030167
-1.490004 -0.649731 3.030167
-1.362814 -0.609806 3.030167
-1.404837 -0.595333 3.030167
-1.426409 -0.531936 3.030167
-1.426424 -0.531738 3.030167
-1.461341 -0.468143 3.030167
-1.426409 -0.452549 3.030167
-1.385845 -0.404548 3.030167
-1.392517 -0.340953 3.030167
-1.426409 -0.306641 3.030167
-1.448101 -0.277358 3.030167
-1.490004 -0.192433 3.030167
-1.518888 -0.150168 3.030167
-1.299219 -0.650464 3.030167
-1.490004 -0.658928 3.002669
2.134909 0.231402 3.019991
1.562554 -1.231283 2.969069
0.036275 -1.740042 2.983910
-1.362814 -0.722523 2.992681
2.134909 0.294997 3.001878
1.626150 -1.167688 2.999427
-1.362814 -0.658928 2.998889
-0.090915 -1.676447 2.999978
2.198504 0.231402 2.998633
-1.172029 -1.040498 2.969311
-0.027319 -1.676447 3.008131
2.198504 0.294997 2.983113
0.036275 -1.676447 2.970428
1.689744 -0.976903 3.011540
0.099870 -1.740042 2.982809
0.099870 -1.676447 2.989414
-1.172029 -0.976903 3.028942
2.134909 0.358592 3.016790
0.163465 -1.676447 2.968659
-1.108434 -0.976903 2.978701
-1.172029 -0.913308 2.967177
-1.108434 -0.913308 3.026293
1.944124 -0.658928 2.991198
-0.472484 1.694086 2.994580
-0.981244 -1.040498 3.006384
-1.044839 -0.976903 3.020110
1.944124 -0.595333 3.011828
-1.299219 -0.849713 2.974856
-0.281700 1.757681 2.999120
2.007720 -0.531738 2.987580
-0.218104 1.757681 3.025692
-1.235624 -0.786118 3.003986
2.007720 -0.468143 2.966828
-1.172029 -0.849713 3.009012
-0.218104 1.821276 2.969744
2.007720 -0.404548 2.993177
-1.299219 -0.722523 2.979330
-0.154510 1.821276 2.969087
-1.299219 -0.658928 3.019434
2.007720 -0.340953 3.013387
-0.090915 1.821276 2.996541
2.007720 -0.277358 2.982569
-0.154510 1.884871 2.975360
-1.490004 -0.595333 2.975817
2.071314 -0.277358 2.968970
-1.490004 -0.531738 2.993181
-1.426409 -0.595333 3.023067
0.163465 1.821276 2.992230
2.071314 -0.213763 2.975886
-1.490004 -0.468143 2.998242
0.227060 1.821276 2.976948
2.071314 -0.150168 3.005706
-1.490004 -0.404548 2.984622
0.354250 1.821276 3.023113
-1.426409 -0.340953 3.001810
2.134909 -0.022978 2.987131
-1.490004 -0.213763 3.009553
2.134909 0.040617 3.020874
-1.553599 -0.150168 2.993199
0.608630 1.757681 3.025498
2.198504 0.040617 2.969257
0.672225 1.757681 3.001443
2.134909 0.104212 3.004312
2.198504 0.104212 3.014750
0.290655 -1.803637 2.990546
0.354250 -1.803637 3.011200
2.198504 0.167807 3.004454
0.926605 1.630491 3.018894
0.417845 -1.803637 3.018050
0.417845 -1.740042 3.016641
0.990200 1.566896 3.021719
0.481440 -1.803637 2.987585
0.545035 -1.803637 2.968929
1.053795 1.503301 3.029967
0.608630 -1.803637 2.975738
1.053795 1.566896 3.011446
0.481440 -1.740042 2.998729
1.053795 1.630491 2.989003
0.545035 -1.676447 3.023505
0.608630 -1.676447 3.029297
0.799415 1.694086 3.020533
0.735820 -1.676447 3.016704
0.735820 1.757681 2.975769
0.799415 -1.676447 2.972558
0.990200 1.694086 3.025942
0.036275 -1.549258 3.027117
0.735820 -1.612852 3.026634
0.926605 -1.549258 2.996913
1.053795 -1.485662 2.973150
1.435365 -1.358473 3.004027
2.050757 0.231402 3.093762
1.626150 -1.239605 3.093762
-0.981244 -0.952121 3.093762
1.589787 -1.231283 3.093762
-1.034205 -0.913308 3.093762
-0.090915 -1.566619 3.093762
2.071314 0.289836 3.093762
1.627901 -1.231283 3.093762
-0.027319 -1.559568 3.093762
1.562554 -1.229590 3.093762
-0.917649 -1.000699 3.093762
2.071314 0.353292 3.093762
1.626150 -1.229304 3.093762
0.036275 -1.559284 3.093762
-0.936956 -0.976903 3.093762
1.597898 -1.167688 3.093762
2.061951 0.358592 3.093762
-0.882047 -1.040498 3.093762
0.163465 -1.614389 3.093762
1.626150 -1.105409 3.093762
0.159756 -1.612852 3.093762
1.627244 -1.104093 3.093762
-1.108434 -0.860152 3.093762
0.099870 -1.569919 3.093762
2.072556 0.294997 3.093762
-1.117638 -0.849713 3.093762
1.650210 -1.040498 3.093762
-1.156360 -0.786118 3.093762
1.671698 -0.976903 3.093762
0.290655 -1.665939 3.093762
1.689744 -0.936569 3.093762
-1.235624 -0.677886 3.093762
0.354250 -1.656236 3.093762
-1.248542 -0.658928 3.093762
-1.172029 -0.752784 3.093762
0.398949 -1.612852 3.093762
-1.193208 -0.722523 3.093762
-1.044839 -0.891343 3.093762
0.417845 -1.602108 3.093762
-0.450308 1.630491 3.093762
0.481440 -1.621750 3.093762
1.712545 -0.913308 3.093762
0.481256 -1.612852 3.093762
0.545035 -1.628446 3.093762
-0.408889 1.640414 3.093762
1.753339 -0.890708 3.093762
-1.362814 -0.602267 3.093762
0.608630 -1.635519 3.093762
1.814948 -0.849713 3.093762
-0.345294 1.656972 3.093762
-1.370842 -0.595333 3.093762
0.672225 -1.644417 3.093762
1.816935 -0.848584 3.093762
-1.362814 -0.594313 3.093762
1.880529 -0.813872 3.093762
0.735820 -1.639221 3.093762
-0.281700 1.693415 3.093762
1.933632 -0.786118 3.093762
-1.362814 -0.374200 3.093762
0.799415 -1.623971 3.093762
-0.280632 1.694086 3.093762
-1.386287 -0.340953 3.093762
1.905862 -0.722523 3.093762
0.848573 -1.612852 3.093762
-0.218104 1.725799 3.093762
1.888661 -0.658928 3.093762
-1.414662 -0.277358 3.093762
0.863010 -1.608260 3.093762
-0.154510 1.733364 3.093762
0.926605 -1.570522 3.093762
-1.347003 -0.595333 3.093762
1.944124 -0.408173 3.093762
-0.090915 1.741251 3.093762
0.926605 -1.507961 3.093762
1.934371 -0.404548 3.093762
-1.258182 -0.595333 3.093762
0.909471 -1.485662 3.093762
-1.299219 -0.585491 3.093762
0.926605 -1.477578 3.093762
1.944124 -0.613695 3.093762
-1.333549 -0.531738 3.093762
1.966805 -0.595333 3.093762
0.926605 1.508223 3.093762
0.945956 -1.549258 3.093762
-1.324549 -0.468143 3.093762
1.951335 -0.531738 3.093762
0.882280 1.566896 3.093762
0.990200 -1.520057 3.093762
1.960767 -0.468143 3.093762
-1.349509 -0.404548 3.093762
0.931890 -1.485662 3.093762
0.863010 1.595900 3.093762
0.831135 1.630491 3.093762
2.007720 -0.435147 3.093762
1.978992 -0.404548 3.093762
0.929495 1.503301 3.093762
1.053795 -1.486518 3.093762
2.014072 -0.404548 3.093762
0.672225 1.687986 3.093762
0.735820 1.666020 3.093762
1.944124 -0.398028 3.093762
0.799415 1.648778 3.093762
1.056564 -1.485662 3.093762
1.944124 -0.284261 3.093762
1.936072 -0.277358 3.093762
1.117390 -1.471563 3.093762
1.944124 -0.269997 3.093762
1.180985 -1.460201 3.093762
2.007720 -0.394927 3.093762
1.971590 -0.340953 3.093762
1.435365 -1.304125 3.093762
1.459427 -1.294878 3.093762
2.007720 -0.277623 3.093762
2.004552 -0.277358 3.093762
1.498960 -1.277621 3.093762
2.008173 -0.277358 3.093762
1.559966 -1.231283 3.093762
2.031819 -0.213763 3.093762
2.056756 -0.150168 3.093762
2.055798 -0.086573 3.093762
2.062540 -0.022978 3.093762
2.071314 0.011868 3.093762
2.071314 0.085553 3.093762
2.065595 0.104212 3.093762
2.105200 0.040617 3.093762
2.047559 0.167807 3.093762
-0.726864 -1.192388 3.093762
-0.761379 -1.167688 3.093762
2.060654 0.422186 3.093762
-0.663269 -1.254936 3.093762
-0.345294 -1.515332 3.093762
-0.685405 -1.231283 3.093762
2.071314 0.482144 3.093762
-0.281700 -1.541822 3.093762
-0.632636 -1.294878 3.093762
2.007720 0.528502 3.093762
-0.260874 -1.549258 3.093762
-0.854054 -1.083024 3.093762
1.998810 0.549376 3.093762
2.071314 0.488040 3.093762
2.007720 0.591465 3.093762
-0.790459 -1.150191 3.093762
2.056990 0.612971 3.093762
-0.839811 -1.104093 3.093762
2.072364 0.485782 3.093762
2.051641 0.676567 3.093762
2.007720 0.726990 3.093762
1.985765 0.740161 3.093762
0.290655 -1.740042 3.030456
0.354250 -1.740042 3.043146
1.562554 -1.231283 3.091678
0.290655 -1.676447 3.081765
-1.490004 -0.658928 3.068135
1.626150 -1.231283 3.093570
2.071314 0.231402 3.035918
0.354250 -1.676447 3.077891
0.417845 -1.676447 3.065715
-1.172029 -0.976903 3.032609
2.071314 0.358592 3.074023
0.545035 -1.740042 3.041481
1.753339 -0.913308 3.044017
-0.981244 -0.976903 3.046371
0.481440 -1.676447 3.043409
-1.044839 -0.913308 3.074062
1.816935 -0.849713 3.085404
-0.472484 1.630491 3.083002
-0.917649 -1.040498 3.057758
1.880529 -0.786118 3.044717
-0.408889 1.694086 3.051201
-1.172029 -0.786118 3.072032
-0.090915 -1.612852 3.045493
-0.345294 1.694086 3.051441
-1.235624 -0.722523 3.045920
1.944124 -0.404548 3.086050
-0.027319 -1.612852 3.063830
0.036275 -1.612852 3.058531
1.944124 -0.595333 3.050101
0.036275 -1.549258 3.047026
2.007720 -0.404548 3.078202
-0.281700 1.694086 3.092832
-1.426409 -0.531738 3.030174
0.099870 -1.612852 3.073407
-1.362814 -0.531738 3.073167
1.944124 -0.277358 3.083515
-0.154510 1.757681 3.053849
-1.426409 -0.468143 3.041452
-0.090915 1.757681 3.066402
-1.362814 -0.468143 3.054431
0.417845 -1.612852 3.075911
-1.362814 -0.404548 3.067875
2.071314 -0.086573 3.047314
2.071314 -0.022978 3.076488
0.163465 1.757681 3.041329
-1.426409 -0.277358 3.071269
2.071314 0.104212 3.087136
0.227060 1.757681 3.045756
-1.490004 -0.150168 3.063719
0.735820 -1.612852 3.034678
2.071314 0.167807 3.039960
0.290655 1.757681 3.058625
-1.299219 -0.595333 3.085658
2.134909 0.167807 3.032592
0.354250 1.757681 3.047095
0.863010 -1.612852 3.031443
0.354250 1.821276 3.035395
0.926605 -1.549258 3.050918
0.417845 1.757681 3.050601
0.926605 -1.485662 3.060608
0.481440 1.757681 3.043247
0.545035 1.757681 3.040016
0.990200 -1.549258 3.033453
0.926605 1.566896 3.070350
0.863010 1.630491 3.060907
1.117390 -1.485662 3.042729
0.990200 1.503301 3.048873
1.180985 -1.485662 3.031680
0.990200 1.630491 3.034856
0.672225 1.694086 3.084879
0.735820 1.694086 3.063150
1.498960 -1.294878 3.059790
0.990200 1.694086 3.032666
-1.474084 -0.150168 3.093762
1.271245 -1.422068 3.093762
-0.472484 -1.472973 3.093762
1.308175 -1.367917 3.093762
-0.557567 -1.422068 3.093762
-1.490004 -0.097936 3.093762
-0.218104 -1.564568 3.093762
-1.508502 -0.022978 3.093762
-0.892565 1.376111 3.093762
-0.599674 -1.365504 3.093762
-0.854054 1.430656 3.093762
-1.504354 0.104212 3.093762
-3.270663 1.246589 3.093762
-2.634713 3.029025 3.093762
1.689744 1.115828 3.093762
-3.525043 1.280016 3.093762
-0.790705 1.503301 3.093762
-2.639484 3.029580 3.093762
1.680943 1.121731 3.093762
-3.290798 1.248921 3.093762
-0.726864 1.541920 3.093762
-2.889093 3.067005 3.093762
-1.532959 0.231402 3.093762
1.944124 0.794874 3.093762
-2.761903 3.075577 3.093762
-0.599674 1.589401 3.093762
1.180985 1.354442 3.093762
-1.556199 0.358592 3.093762
1.918212 0.867351 3.093762
-3.143473 1.228736 3.093762
1.867064 0.994541 3.093762
1.816935 1.048305 3.093762
-3.397853 1.261703 3.093762
1.292827 1.376111 3.093762
-3.604575 1.376111 3.093762
-0.472484 1.625462 3.093762
-2.587967 3.029580 3.093762
-3.016283 1.206866 3.093762
1.651238 1.248921 3.093762
1.562554 1.351722 3.093762
-2.507523 3.054694 3.093762
1.451414 1.376111 3.093762
-3.658817 2.393631 3.093762
-2.380333 3.069120 3.093762
-3.652233 2.400198 3.093762
0.036275 1.701612 3.093762
-3.527082 2.520821 3.093762
-3.652233 1.483299 3.093762
0.163465 1.704039 3.093762
-3.525043 2.523803 3.093762
-3.661369 1.503301 3.093762
-3.447218 2.648010 3.093762
0.290655 1.707604 3.093762
-1.940533 2.775200 3.093762
-3.720990 1.630491 3.093762
-3.397853 2.714402 3.093762
-1.998764 2.893794 3.093762
-2.004062 2.902390 3.093762
-3.760037 1.757681 3.093762
-3.364430 2.775200 3.093762
-3.779423 1.842154 3.093762
-2.253144 3.094677 3.093762
-3.329339 2.902390 3.093762
-3.786372 1.884871 3.093762
-2.125954 3.030739 3.093762
-2.124095 3.029580 3.093762
-3.270663 2.941154 3.093762
-3.792517 2.012061 3.093762
-3.143473 3.005951 3.093762
-3.779423 2.087716 3.093762
-3.016283 3.026699 3.093762
1.053795 1.374827 3.093762
-3.769617 2.139251 3.093762
-3.005329 3.029580 3.093762
1.028291 1.376111 3.093762
-3.755009 2.266440 3.093762
0.417845 1.708344 3.093762
0.545035 1.726854 3.093762
-1.553778 0.485782 3.093762
1.308175 1.379251 3.093762
-1.565342 0.612971 3.093762
1.435365 1.378298 3.093762
-1.617194 0.699826 3.093762
-1.652115 0.740161 3.093762
-1.744384 0.806523 3.093762
-1.235624 1.298644 3.093762
-1.108434 1.307167 3.093762
-0.981244 1.314961 3.093762
1.308175 -1.422068 2.986558
-2.634713 3.029580 3.018410
-0.854054 -1.167688 2.999058
-1.617194 -0.022978 2.988896
2.325694 0.104212 2.980661
1.689744 1.121731 3.089806
-0.218104 -1.676447 2.992441
-0.599674 -1.422068 2.969583
-1.744384 0.104212 2.971118
-2.380333 0.867351 2.972499
-1.617194 0.104212 3.007031
1.180985 1.376111 3.082131
-0.472484 -1.549258 3.009163
-0.345294 -1.549258 3.075866
-3.525043 1.248921 3.019525
-1.617194 0.231402 3.023854
1.689744 1.248921 3.061329
-3.016283 1.121731 2.967486
-1.617194 0.358592 3.014507
-3.397853 1.248921 3.056594
-1.871574 2.775200 2.993669
1.562554 1.376111 3.067439
-1.108434 1.376111 2.979322
1.689744 1.376111 3.010240
2.071314 0.612971 3.047087
-0.981244 1.376111 3.017102
-0.854054 1.503301 3.016373
-1.998764 2.902390 3.086731
-0.726864 1.630491 2.971402
1.944124 0.867351 3.058351
0.036275 1.757681 3.027194
-0.599674 1.630491 3.000395
2.071314 0.740161 3.008605
1.053795 1.376111 3.092797
1.944124 0.994541 3.004534
1.816935 1.121731 3.024103
-3.779423 1.757681 3.045311
1.180985 1.503301 3.011594
1.816935 1.248921 2.975649
-3.779423 2.139251 3.075404
1.308175 1.503301 2.992752
-3.016283 3.029580 3.068168
1.435365 1.503301 3.000432
1.562554 1.503301 3.008487
-1.998764 0.740161 2.988128
-1.871574 0.740161 3.021592
-1.617194 0.485782 3.041065
-1.744384 0.612971 2.988570
-1.617194 0.612971 3.058356
-1.744384 0.740161 3.050840
0.912346 1.376111 3.157357
1.649200 -1.040498 3.157357
-0.599674 -1.270076 3.157357
0.878309 1.439706 3.157357
-0.627986 -1.231283 3.157357
-0.345294 -1.425243 3.157357
1.669791 -0.976903 3.157357
0.863010 1.471321 3.157357
-0.663269 -1.197703 3.157357
-0.281700 -1.435713 3.157357
0.849328 1.503301 3.157357
1.689744 -0.944185 3.157357
-0.702642 -1.167688 3.157357
-0.218104 -1.453357 3.157357
0.735820 1.626561 3.157357
1.721735 -0.913308 3.157357
-0.586506 -1.294878 3.157357
-0.090915 -1.515043 3.157357
0.723301 1.630491 3.157357
1.816935 -0.850990 3.157357
-0.153852 -1.485662 3.157357
0.799415 1.595226 3.157357
-0.981244 -0.930903 3.157357
1.824882 -0.849713 3.157357
-0.154510 -1.485221 3.157357
-0.991715 -0.913308 3.157357
0.814471 1.566896 3.157357
-0.917649 -0.979796 3.157357
0.099870 -1.550967 3.157357
-0.942727 -0.976903 3.157357
0.090621 -1.549258 3.157357
-0.892565 -0.976903 3.157357
0.163465 -1.580606 3.157357
1.873926 -0.786118 3.157357
-0.854054 -0.963388 3.157357
-0.027319 -1.531953 3.157357
2.032916 0.358592 3.157357
0.036275 -1.536927 3.157357
2.039516 0.422186 3.157357
-1.108434 -0.770056 3.157357
-1.159198 -0.722523 3.157357
1.879043 -0.722523 3.157357
2.036402 0.485782 3.157357
-1.121648 -0.658928 3.157357
0.417845 -1.602423 3.157357
2.033697 0.549376 3.157357
-1.044839 -0.880217 3.157357
0.481440 -1.600440 3.157357
1.873271 -0.658928 3.157357
-1.065051 -0.849713 3.157357
2.019238 0.612971 3.157357
0.545035 -1.591345 3.157357
-1.100672 -0.786118 3.157357
-1.044839 -0.723305 3.157357
-1.048001 -0.722523 3.157357
1.863935 -0.595333 3.157357
1.944124 0.682290 3.157357
-1.043511 -0.722523 3.157357
0.608630 -1.596924 3.157357
-1.044839 -0.720966 3.157357
1.931511 0.740161 3.157357
1.880529 -0.573926 3.157357
0.672225 -1.599414 3.157357
-0.726864 -1.150998 3.157357
1.931074 -0.531738 3.157357
-0.782290 -1.104093 3.157357
2.017400 0.676567 3.157357
-0.790459 -1.094205 3.157357
1.944124 -0.517539 3.157357
-0.828367 -1.040498 3.157357
0.735820 -1.592953 3.157357
2.007720 0.682860 3.157357
1.880529 -0.408789 3.157357
0.799415 -1.584623 3.157357
-0.826357 -0.976903 3.157357
1.872647 -0.404548 3.157357
0.863010 -1.640668 3.157357
1.944124 -0.450611 3.157357
-1.235624 -0.557184 3.157357
0.815459 -1.612852 3.157357
-1.252940 -0.531738 3.157357
1.953758 -0.468143 3.157357
0.906874 -1.612852 3.157357
1.880529 -0.390064 3.157357
1.944124 -0.348291 3.157357
-1.169114 -0.595333 3.157357
0.891790 -1.549258 3.157357
-1.172029 -0.593757 3.157357
1.949719 -0.340953 3.157357
-1.288839 -0.468143 3.157357
1.982968 -0.277358 3.157357
0.926605 -1.532521 3.157357
-1.299219 -0.438683 3.157357
-1.311995 -0.404548 3.157357
2.007720 -0.252537 3.157357
0.990200 -1.505500 3.157357
-1.172029 -0.471883 3.157357
2.022995 -0.213763 3.157357
-1.175736 -0.468143 3.157357
1.047673 -1.485662 3.157357
-1.168895 -0.468143 3.157357
2.027637 -0.150168 3.157357
1.053795 -1.483902 3.157357
-1.172029 -0.465413 3.157357
2.041345 -0.086573 3.157357
1.435365 -1.277069 3.157357
2.041444 -0.022978 3.157357
1.498960 -1.247860 3.157357
2.046099 0.040617 3.157357
1.520228 -1.231283 3.157357
2.036356 0.104212 3.157357
1.543695 -1.167688 3.157357
2.032731 0.167807 3.157357
1.562554 -1.152499 3.157357
2.035714 0.231402 3.157357
1.608959 -1.104093 3.157357
2.033158 0.294997 3.157357
1.626150 -1.085411 3.157357
-0.726864 -1.167688 3.129971
-0.663269 -1.231283 3.120162
1.816935 -0.849713 3.137726
-0.599674 -1.294878 3.140738
0.926605 1.376111 3.118090
-0.345294 -1.485662 3.113894
1.880529 -0.786118 3.149536
-0.281700 -1.485662 3.124338
0.926605 1.439706 3.102343
1.880529 -0.722523 3.152385
-0.854054 -1.040498 3.126214
-0.218104 -1.549258 3.100619
0.863010 1.503301 3.138269
-0.854054 -0.976903 3.128647
1.880529 -0.658928 3.119529
-0.218104 -1.485662 3.135923
0.926605 1.503301 3.095646
-1.108434 -0.849713 3.108907
-1.108434 -0.786118 3.148010
-0.154510 -1.549258 3.111965
1.880529 -0.595333 3.117895
0.735820 1.630491 3.151291
-0.154510 -1.485662 3.157048
1.944124 -0.595333 3.116475
-1.235624 -0.658928 3.103944
0.799415 1.630491 3.125886
-0.090915 -1.549258 3.106748
1.944124 -0.531738 3.126023
-1.172029 -0.722523 3.137084
0.863010 1.566896 3.107549
-1.172029 -0.658928 3.138568
1.880529 -0.404548 3.134588
-0.027319 -1.549258 3.119536
-1.044839 -0.722523 3.154077
0.036275 -1.549258 3.130949
2.007720 -0.404548 3.101108
0.163465 -1.612852 3.096520
2.071314 0.485782 3.095220
-0.790459 -1.104093 3.148661
1.944124 -0.277358 3.096912
2.007720 0.549376 3.103845
2.007720 -0.277358 3.095820
0.481440 -1.612852 3.118668
-1.362814 -0.595333 3.103435
0.545035 -1.612852 3.116517
1.944124 0.740161 3.128838
2.071314 0.040617 3.099950
-1.235624 -0.595333 3.102311
-1.299219 -0.531738 3.114353
0.608630 -1.612852 3.131645
-1.172029 -0.595333 3.155041
0.672225 -1.612852 3.139836
-1.299219 -0.468143 3.132435
2.071314 0.294997 3.095803
-1.172029 -0.468143 3.154892
0.735820 -1.612852 3.141948
0.799415 -1.612852 3.112661
0.863010 -1.612852 3.141634
0.926605 -1.549258 3.136609
0.926605 -1.485662 3.113891
1.053795 -1.485662 3.106460
1.435365 -1.294878 3.111778
1.562554 -1.167688 3.145244
1.626150 -1.231283 3.100008
1.626150 -1.104093 3.099272
1.645436 -1.040498 3.220952
0.545035 1.604393 3.220952
-0.599674 -1.199013 3.220952
1.689744 -0.990841 3.220952
-0.094573 -1.549258 3.220952
0.608630 1.591821 3.220952
-0.641318 -1.167688 3.220952
-0.090915 -1.542064 3.220952
0.672225 1.584775 3.220952
-0.154510 -1.427543 3.220952
1.702697 -0.976903 3.220952
-0.536079 -1.259560 3.220952
-0.171065 -1.422068 3.220952
-0.543116 -1.231283 3.220952
1.730695 -0.913308 3.220952
-0.090915 -1.451805 3.220952
0.799415 1.500851 3.220952
-0.531207 -1.294878 3.220952
0.798656 1.503301 3.220952
-0.090915 -1.553752 3.220952
-0.090282 -1.549258 3.220952
1.816935 -0.693743 3.220952
0.854870 1.376111 3.220952
-0.027319 -1.496999 3.220952
-1.108434 -0.940201 3.220952
1.831450 -0.658928 3.220952
0.816916 1.439706 3.220952
-0.046690 -1.485662 3.220952
-1.165937 -0.913308 3.220952
0.036275 -1.512790 3.220952
0.735820 1.555737 3.220952
0.711156 1.566896 3.220952
0.099870 -1.523099 3.220952
1.862377 -0.595333 3.220952
-1.090025 -0.913308 3.220952
0.163465 -1.541932 3.220952
1.878223 -0.531738 3.220952
-0.854054 -0.995468 3.220952
-0.345294 -1.368503 3.220952
1.944124 0.358718 3.220952
-0.281700 -1.360688 3.220952
1.942804 0.422186 3.220952
-0.880632 -0.976903 3.220952
1.880529 -0.525116 3.220952
-0.235734 -1.358473 3.220952
1.944124 0.423368 3.220952
-0.218104 -1.338916 3.220952
-0.917649 -0.947602 3.220952
1.911544 -0.468143 3.220952
1.960854 0.358592 3.220952
-0.963501 -0.913308 3.220952
-0.199883 -1.358473 3.220952
1.925254 -0.404548 3.220952
2.007720 0.459464 3.220952
-1.108434 -0.865749 3.220952
2.007768 0.485782 3.220952
0.181657 -1.549258 3.220952
1.944124 -0.370090 3.220952
-1.108434 -0.724531 3.220952
2.007720 0.529805 3.220952
-1.109293 -0.722523 3.220952
1.995674 0.549376 3.220952
-1.108434 -0.720989 3.220952
1.960283 -0.340953 3.220952
0.417845 -1.573665 3.220952
2.007720 0.605568 3.220952
0.481440 -1.583464 3.220952
-0.981244 -0.895930 3.220952
1.967386 -0.277358 3.220952
2.021057 0.612971 3.220952
-1.012900 -0.849713 3.220952
-1.016534 -0.786118 3.220952
0.545035 -1.562786 3.220952
-1.044839 -0.761966 3.220952
1.990511 -0.213763 3.220952
0.608630 -1.551239 3.220952
-1.090560 -0.658928 3.220952
1.944124 0.684355 3.220952
0.614299 -1.549258 3.220952
2.007720 -0.191228 3.220952
-0.726864 -1.122655 3.220952
-0.751812 -1.104093 3.220952
1.910069 0.740161 3.220952
0.672225 -1.537730 3.220952
-0.790459 -1.047909 3.220952
2.019394 -0.150168 3.220952
-0.795188 -1.040498 3.220952
2.007720 0.637235 3.220952
1.949791 0.676567 3.220952
-0.663269 -1.151607 3.220952
0.735820 -1.536928 3.220952
2.024789 -0.086573 3.220952
0.793478 -1.485662 3.220952
0.799415 -1.483594 3.220952
2.033343 -0.022978 3.220952
0.863010 -1.530344 3.220952
0.849607 -1.485662 3.220952
-1.108434 -0.591606 3.220952
2.038390 0.040617 3.220952
0.926605 -1.517854 3.220952
-1.137991 -0.531738 3.220952
2.038830 0.104212 3.220952
0.990200 -1.490349 3.220952
2.007720 0.155537 3.220952
-1.235624 -0.442740 3.220952
1.020716 -1.485662 3.220952
2.002450 0.167807 3.220952
-1.268186 -0.404548 3.220952
1.053795 -1.481917 3.220952
2.003757 0.231402 3.220952
-1.172029 -0.498678 3.220952
1.435365 -1.251910 3.220952
1.983015 0.294997 3.220952
-1.205861 -0.468143 3.220952
1.480417 -1.231283 3.220952
1.498960 -1.197956 3.220952
-1.107519 -0.595333 3.220952
1.532821 -1.167688 3.220952
0.417845 1.588354 3.220952
1.562554 -1.152244 3.220952
0.481440 1.593195 3.220952
1.594968 -1.104093 3.220952
1.626150 -1.071081 3.220952
-0.472484 -1.357626 3.220952
-0.408889 -1.378127 3.220952
-0.471255 -1.358473 3.220952
1.816935 0.864258 3.220952
0.926605 1.308980 3.220952
1.814066 0.867351 3.220952
0.924269 1.312516 3.220952
1.880529 0.799056 3.220952
1.877501 0.803756 3.220952
0.863010 1.364333 3.220952
0.290655 1.623891 3.220952
0.354250 1.605141 3.220952
0.545035 1.630491 3.177975
1.689744 -0.976903 3.178922
-0.345294 -1.422068 3.160229
-0.599674 -1.231283 3.184571
0.608630 1.630491 3.175559
-0.281700 -1.422068 3.164538
0.672225 1.630491 3.173019
-0.218104 -1.422068 3.188167
-0.663269 -1.167688 3.197162
1.816935 -0.849713 3.159211
-0.090915 -1.549258 3.216616
0.799415 1.503301 3.220408
-0.536079 -1.294878 3.214606
1.816935 -0.786118 3.183234
-0.090915 -1.485662 3.192162
0.863010 1.376111 3.208566
1.816935 -0.722523 3.208598
0.863010 1.439706 3.175603
0.099870 -1.549258 3.166992
-1.108434 -0.913308 3.161183
0.735820 1.566896 3.213061
1.880529 -0.531738 3.215732
0.163465 -1.549258 3.209814
0.799415 1.566896 3.182974
1.944124 -0.468143 3.177016
-0.981244 -0.913308 3.178806
1.880529 -0.404548 3.199752
-0.218104 -1.358473 3.192982
-0.917649 -0.976903 3.164260
1.944124 0.422186 3.219718
-0.854054 -0.976903 3.172843
2.007720 0.358592 3.180585
2.007720 0.422186 3.206586
2.007720 -0.213763 3.196108
2.007720 0.549376 3.208398
0.672225 -1.549258 3.206121
-1.108434 -0.658928 3.177875
2.007720 0.167807 3.191708
-1.044839 -0.849713 3.191279
0.735820 -1.549258 3.210032
2.007720 0.231402 3.212778
2.007720 0.676567 3.162552
-1.044839 -0.786118 3.209217
2.007720 0.294997 3.182934
0.799415 -1.549258 3.195865
-1.044839 -0.722523 3.160790
0.863010 -1.612852 3.185964
0.863010 -1.549258 3.186899
0.417845 1.630491 3.163171
0.799415 -1.485662 3.219838
0.481440 1.630491 3.170455
-1.235624 -0.531738 3.174897
1.498960 -1.231283 3.188762
-1.108434 -0.595333 3.219321
-1.172029 -0.531738 3.198373
-1.235624 -0.468143 3.195994
-1.299219 -0.404548 3.178130
-1.172029 -0.468143 3.161847
-0.854054 1.376099 3.220952
1.748208 -0.786118 3.220952
1.180985 -1.435864 3.220952
-0.854039 1.376111 3.220952
-3.397853 1.328931 3.220952
-1.362814 -0.244139 3.220952
0.290655 -1.593291 3.220952
1.689744 0.983362 3.220952
-1.403733 -0.150168 3.220952
-3.270663 1.313303 3.220952
1.193144 -1.422068 3.220952
1.652175 0.994541 3.220952
-2.889093 3.058178 3.220952
-0.726864 1.449699 3.220952
-1.424199 -0.022978 3.220952
1.562554 1.053376 3.220952
-2.761903 3.087790 3.220952
-0.599674 1.494308 3.220952
1.537304 1.121731 3.220952
1.278730 -1.294878 3.220952
-3.490240 1.376111 3.220952
-1.439240 0.104212 3.220952
-2.634713 3.065385 3.220952
-0.574156 1.503301 3.220952
1.308175 -1.276417 3.220952
-0.472484 1.540316 3.220952
-1.470004 0.231402 3.220952
-2.380333 3.026436 3.220952
1.435365 1.242472 3.220952
-1.444831 0.358592 3.220952
-2.450464 3.029580 3.220952
-0.345294 1.597184 3.220952
-2.507523 3.032835 3.220952
-1.341846 -0.277358 3.220952
1.427422 1.248921 3.220952
1.180985 1.258076 3.220952
-3.652233 1.620336 3.220952
1.308175 1.287347 3.220952
-3.655053 1.630491 3.220952
-3.612480 2.393631 3.220952
-3.525043 2.487249 3.220952
-3.525043 1.400667 3.220952
-2.094179 2.902390 3.220952
-3.505217 2.520821 3.220952
-3.616979 1.503301 3.220952
-0.218104 1.601333 3.220952
-3.453479 2.648010 3.220952
-2.253144 2.992492 3.220952
-0.142041 1.630491 3.220952
-3.712855 1.757681 3.220952
-2.125954 2.931524 3.220952
-3.397853 2.723977 3.220952
0.163465 1.609424 3.220952
-3.767835 1.884871 3.220952
0.087430 1.630491 3.220952
-3.337188 2.775200 3.220952
1.053795 1.256415 3.220952
-3.777622 2.012061 3.220952
-0.090915 1.645086 3.220952
-3.270663 2.889945 3.220952
-3.747389 2.139251 3.220952
0.036275 1.644068 3.220952
-3.262708 2.902390 3.220952
-3.665016 2.266440 3.220952
-3.652233 2.283451 3.220952
-3.143473 2.973841 3.220952
-3.016283 3.018590 3.220952
-2.988366 3.029580 3.220952
-1.431433 0.485782 3.220952
-1.429427 0.612971 3.220952
-1.480438 0.740161 3.220952
-1.490004 0.755505 3.220952
-1.235624 1.239318 3.220952
-1.172209 1.248921 3.220952
-1.108434 1.260201 3.220952
-0.981244 1.289918 3.220952
-1.362814 -0.277358 3.185910
-0.472484 -1.422068 3.137859
-0.854054 1.376111 3.220906
-3.270663 1.248921 3.098988
1.308175 -1.294878 3.162113
-1.490004 -0.022978 3.114039
-3.143473 1.248921 3.134310
-2.634713 3.029580 3.095683
-3.525043 1.376111 3.199788
-0.726864 1.503301 3.146128
1.689744 0.994541 3.197208
-3.016283 1.248921 3.154750
-0.599674 1.503301 3.209955
1.562554 1.121731 3.161307
-2.380333 3.029580 3.212451
-1.490004 0.104212 3.123137
1.816935 0.867351 3.217612
1.435365 1.248921 3.213473
-0.345294 1.630491 3.154425
1.308175 1.376111 3.097115
-1.490004 0.231402 3.176185
1.435365 1.376111 3.095397
1.816935 0.994541 3.122795
-1.998764 2.775200 3.163847
1.562554 1.248921 3.146298
-1.490004 0.358592 3.176898
-3.652233 2.393631 3.127400
-3.652233 1.503301 3.130326
-2.253144 3.029580 3.152304
-0.218104 1.630491 3.197422
-3.525043 2.520821 3.096692
-2.125954 3.029580 3.095146
0.163465 1.630491 3.194392
-3.779423 1.884871 3.133111
0.290655 1.630491 3.207841
-3.270663 2.902390 3.208431
-3.779423 2.012061 3.199905
-1.490004 0.485782 3.168147
-1.490004 0.612971 3.151358
-1.617194 0.740161 3.118826
-1.617194 0.867351 3.162953
-1.490004 0.740161 3.212027
-1.235624 1.248921 3.199217
-0.472484 -1.385404 3.284547
0.036275 -1.480567 3.284547
1.816935 -0.610229 3.284547
-0.485850 -1.358473 3.284547
1.827916 -0.595333 3.284547
0.735820 1.384954 3.284547
-0.472484 -1.341827 3.284547
-0.024012 -1.422068 3.284547
1.866104 -0.531738 3.284547
0.676759 1.439706 3.284547
-0.463521 -1.358473 3.284547
0.163465 -1.494795 3.284547
-0.408889 -1.332059 3.284547
0.739852 1.376111 3.284547
0.156173 -1.485662 3.284547
1.816935 -0.470834 3.284547
-0.469800 -1.294878 3.284547
0.099870 -1.456368 3.284547
0.672225 1.443226 3.284547
1.812182 -0.468143 3.284547
-0.345294 -1.356525 3.284547
0.163465 -1.447667 3.284547
1.816935 -0.463129 3.284547
0.114037 -1.422068 3.284547
-0.536079 -1.212597 3.284547
1.880529 -0.513807 3.284547
-0.590771 -1.167688 3.284547
-0.218104 -1.371706 3.284547
1.823968 -0.468143 3.284547
-0.236949 -1.358473 3.284547
1.942692 0.358592 3.284547
-0.472484 -1.226617 3.284547
-0.282716 -1.294878 3.284547
1.918314 -0.468143 3.284547
1.939511 0.422186 3.284547
-0.468573 -1.231283 3.284547
-0.259228 -1.294878 3.284547
1.931625 -0.404548 3.284547
1.944124 0.427679 3.284547
-0.154510 -1.402245 3.284547
-0.090915 -1.414447 3.284547
1.944124 -0.381847 3.284547
-0.917649 -0.930213 3.284547
-0.281700 -1.294306 3.284547
-0.934381 -0.913308 3.284547
1.959373 -0.340953 3.284547
-0.027319 -1.420686 3.284547
-0.854054 -0.962287 3.284547
1.969036 -0.277358 3.284547
0.163465 -1.418049 3.284547
1.995201 -0.213763 3.284547
-0.981244 -0.788239 3.284547
2.007720 -0.160863 3.284547
0.227060 -1.503617 3.284547
-0.981356 -0.786118 3.284547
2.009814 -0.150168 3.284547
0.290655 -1.530288 3.284547
-0.962818 -0.849713 3.284547
0.174660 -1.422068 3.284547
2.007720 0.484511 3.284547
2.029994 -0.022978 3.284547
0.354250 -1.541693 3.284547
-0.981244 -0.783720 3.284547
2.029706 0.040617 3.284547
0.417845 -1.531143 3.284547
2.007968 0.485782 3.284547
-0.981244 -0.702737 3.284547
2.038311 0.104212 3.284547
-1.031968 -0.658928 3.284547
2.007720 0.539935 3.284547
0.608630 -1.555884 3.284547
2.006526 0.549376 3.284547
0.569101 -1.549258 3.284547
1.944124 0.355226 3.284547
-0.962614 -0.722523 3.284547
0.635924 -1.549258 3.284547
1.973379 0.612971 3.284547
2.071314 0.167785 3.284547
0.481440 -1.511909 3.284547
-0.726864 -1.076616 3.284547
2.007720 0.210597 3.284547
0.545035 -1.517773 3.284547
-0.768383 -1.040498 3.284547
1.974641 0.231402 3.284547
1.880529 0.630749 3.284547
2.071314 0.168015 3.284547
-0.663269 -1.120775 3.284547
1.858289 0.676567 3.284547
0.672225 -1.490275 3.284547
2.071407 0.167807 3.284547
-0.689596 -1.104093 3.284547
1.944124 0.675029 3.284547
-0.599674 -1.163589 3.284547
1.974210 0.294997 3.284547
0.694158 -1.485662 3.284547
-0.790459 -1.016657 3.284547
1.866879 0.740161 3.284547
0.735820 -1.481476 3.284547
-0.834384 -0.976903 3.284547
0.799415 -1.435052 3.284547
0.926605 1.246545 3.284547
1.816935 0.810049 3.284547
0.918046 1.248921 3.284547
0.863010 -1.469875 3.284547
1.778992 0.867351 3.284547
0.799415 1.310652 3.284547
0.926605 -1.471923 3.284547
0.795019 1.312516 3.284547
-1.044839 -0.606413 3.284547
1.821739 0.803756 3.284547
-1.049612 -0.595333 3.284547
0.808810 1.312516 3.284547
0.990200 -1.465701 3.284547
0.882846 1.312516 3.284547
-1.107190 -0.531738 3.284547
1.053795 -1.464330 3.284547
0.863010 1.365778 3.284547
1.435365 -1.264693 3.284547
0.290655 1.565088 3.284547
1.474862 -1.231283 3.284547
0.354250 1.555467 3.284547
1.498960 -1.203294 3.284547
0.417845 1.535651 3.284547
1.562554 -1.183131 3.284547
0.545035 1.497988 3.284547
1.570062 -1.167688 3.284547
0.517408 1.503301 3.284547
0.608630 1.493608 3.284547
1.575554 -1.104093 3.284547
0.481440 1.512845 3.284547
1.613877 -1.040498 3.284547
1.626150 -1.016385 3.284547
1.650352 -0.976903 3.284547
1.661251 -0.913308 3.284547
0.545035 1.503301 3.241316
-0.599674 -1.167688 3.275845
0.608630 1.503301 3.279661
-0.090915 -1.549258 3.225564
-0.472484 -1.358473 3.225010
1.689744 -0.976903 3.256335
0.545035 1.566896 3.254849
-0.472484 -1.294878 3.282542
-0.154510 -1.422068 3.237440
-0.408889 -1.358473 3.248600
0.608630 1.566896 3.241289
1.689744 -0.913308 3.259940
-0.090915 -1.422068 3.271510
-0.345294 -1.358473 3.271587
0.672225 1.503301 3.264461
-0.536079 -1.231283 3.238800
-0.027319 -1.485662 3.232668
0.672225 1.566896 3.230359
-0.472484 -1.231283 3.280651
0.036275 -1.485662 3.277828
1.816935 -0.658928 3.239479
-0.027319 -1.422068 3.282953
0.099870 -1.485662 3.252811
-1.108434 -0.913308 3.243459
1.816935 -0.468143 3.276201
0.163465 -1.422068 3.280888
0.735820 1.439706 3.262820
-0.854054 -0.976903 3.270495
-0.281700 -1.358473 3.225933
0.799415 1.376111 3.258670
-0.218104 -1.358473 3.227138
0.799415 1.439706 3.232014
-0.281700 -1.294878 3.283867
-1.108434 -0.722523 3.235813
0.735820 1.503301 3.244868
-0.981244 -0.849713 3.255104
-1.044839 -0.722523 3.259341
1.944124 0.358592 3.249560
0.227060 -1.549258 3.244220
-0.981244 -0.722523 3.269167
0.290655 -1.549258 3.267759
2.007720 0.167807 3.264578
-1.044839 -0.658928 3.272863
0.354250 -1.549258 3.276887
2.071314 0.167807 3.246594
-0.726864 -1.104093 3.251114
0.417845 -1.549258 3.265775
-0.790459 -1.040498 3.233713
0.545035 -1.549258 3.237168
2.007720 0.612971 3.240962
0.481440 -1.549258 3.257247
1.880529 0.676567 3.269353
0.926605 1.248921 3.279160
-1.108434 -0.531738 3.280946
1.944124 0.676567 3.279933
0.735820 -1.485662 3.275188
0.799415 1.312516 3.282996
1.880529 0.740161 3.268373
0.863010 -1.485662 3.265205
0.926605 -1.485662 3.271898
0.290655 1.566896 3.280872
