-2.015421 -1.763929 1.144440
-2.023083 -1.769360 1.426474
-1.953503 -1.721154 1.777026
-2.036656 -1.778932 1.799370
-2.043432 -1.783699 1.953930
-1.904503 -1.687364 2.440721
-1.940602 -1.712650 2.979601
-1.924319 -1.701250 2.751463
-1.894310 -1.680660 3.427997
-1.885707 -1.674645 3.327480
-1.935201 -1.709237 3.866627
-1.950978 -1.720258 4.021811
-1.967430 -1.731747 4.176890
-2.006635 -1.759116 4.523051
-1.976295 -1.738201 4.947853
3.233366 -0.099059 1.576531
3.351161 -0.103689 1.562767
3.206911 -0.098029 2.336277
3.421207 -0.106455 2.589265
3.372627 -0.104550 2.943928
3.249816 -0.099730 3.484408
3.406515 -0.105891 3.627997
3.345780 -0.103509 4.041853
3.336939 -0.103169 4.615058
3.405235 -0.105855 4.716977
3.647185 -0.424852 0.709542
3.461255 -0.401756 0.853430
3.510756 -0.407910 1.196232
3.355606 -0.388643 1.739936
3.532697 -0.410644 1.830329
3.424427 -0.397202 2.535199
3.548372 -0.412603 2.744445
3.370722 -0.390542 3.404933
3.460594 -0.401707 3.447522
3.415782 -0.396148 4.082862
3.502291 -0.406900 4.406675
3.546162 -0.412352 4.569472
3.459945 -0.401651 5.381542
3.431064 -0.398061 5.166279
3.375976 -0.663652 0.939033
3.631648 -0.716083 1.308896
3.598146 -0.709220 1.830605
3.573831 -0.704241 2.349990
3.721809 -0.734586 2.499742
3.540327 -0.697381 3.157329
3.589654 -0.707501 3.547473
3.652837 -0.720458 3.652032
3.545220 -0.698398 4.184709
3.584864 -0.706533 4.630269
3.652722 -0.720449 4.729125
3.499550 -0.997706 0.557150
3.770597 -1.077249 1.096996
3.706482 -1.058440 1.449807
3.847445 -1.099807 1.603355
3.875633 -1.108083 1.997597
3.660293 -1.044903 2.711734
3.833471 -1.095722 2.798002
3.800957 -1.086189 3.367647
3.763537 -1.075213 3.713955
3.730192 -1.065432 4.059652
3.794067 -1.084177 4.161559
3.699151 -1.056336 4.967112
3.770680 -1.077330 5.343776
3.567824 -1.017804 5.340517
3.544064 -1.341195 0.487171
3.528575 -1.335208 0.948994
3.493871 -1.321785 1.241511
3.461674 -1.309334 1.761223
3.628221 -1.373775 1.851322
3.468500 -1.311985 2.445876
3.558649 -1.346868 2.715069
3.415835 -1.291620 3.308518
3.537444 -1.338675 3.512176
3.456421 -1.307333 3.981133
3.469563 -1.312424 4.486229
3.446344 -1.303445 4.830733
3.427017 -1.295972 5.174458
3.431753 -1.297808 5.456051
3.121751 -1.485900 1.126891
3.253256 -1.549808 1.281264
3.168746 -1.508746 1.697566
3.223370 -1.535295 2.033239
3.105143 -1.477853 2.797752
3.186150 -1.517220 2.841320
3.252314 -1.549377 3.170764
3.077735 -1.464549 3.890451
3.220947 -1.534147 4.030089
3.170968 -1.509869 4.721447
3.233274 -1.540148 4.821161
3.048215 -1.755313 0.359432
2.906325 -1.672098 0.672247
2.894513 -1.665177 1.138964
2.915077 -1.677244 1.541469
2.761615 -1.587246 2.147640
2.794055 -1.606278 2.546206
2.878404 -1.655754 2.817628
2.793551 -1.605994 3.295851
2.839360 -1.632867 3.687373
2.788142 -1.602834 4.101448
2.783296 -1.599996 4.390375
2.902159 -1.669713 4.589632
2.923573 -1.682280 5.096441
2.789567 -1.603691 5.534512
2.592001 -1.795695 1.063840
2.537225 -1.757028 1.424963
2.559923 -1.773059 1.828648
2.587033 -1.792205 2.229997
2.595792 -1.798397 2.691305
2.676454 -1.855349 2.963199
2.555327 -1.769842 3.567786
2.525594 -1.748855 3.922588
2.675839 -1.854932 4.001305
2.572424 -1.781928 4.602821
2.571636 -1.781377 4.891947
2.277423 -1.875818 1.247367
2.320122 -1.911679 1.590124
2.229120 -1.835271 2.076921
2.300789 -1.895458 2.352990
2.282971 -1.880501 2.649301
2.275926 -1.874593 3.172980
2.295595 -1.891118 3.631068
2.416558 -1.992695 3.773377
2.279450 -1.877575 4.503221
2.260398 -1.861583 4.856635
2.420626 -1.996129 4.867065
2.159638 -1.776984 5.528765
2.181543 -2.121033 1.061331
2.134016 -2.073971 1.423299
2.091197 -2.031577 2.016180
2.072288 -2.012856 2.313887
2.100751 -2.041052 2.714374
2.095054 -2.035419 3.238073
2.114038 -2.054228 3.696102
2.196799 -2.136188 3.675297
2.154360 -2.094167 4.092690
2.165851 -2.105556 4.607660
2.018047 -1.959190 5.178151
2.001189 -1.942497 5.245520
1.845219 -2.123757 1.073230
1.802287 -2.073351 1.668660
1.842187 -2.120215 2.008840
1.884505 -2.169918 2.346863
1.833975 -2.110586 2.768536
1.847144 -2.126060 3.228779
1.948915 -2.245580 3.371579
1.875157 -2.158971 3.915198
1.854869 -2.135153 4.269512
1.913366 -2.203856 4.595084
1.898371 -2.186254 4.946854
1.720961 -1.977918 5.422215
1.647480 -2.224745 1.164568
1.626684 -2.196071 1.698829
1.662479 -2.245453 2.040921
1.680614 -2.270472 2.213374
1.666122 -2.250488 2.511503
1.659332 -2.241133 3.038236
1.658543 -2.240056 3.560017
1.663123 -2.246386 4.078907
1.645988 -2.222757 4.433145
1.727519 -2.335224 4.631958
1.645699 -2.222372 5.012780
1.579693 -2.131332 5.331882
1.323664 -1.778183 5.685972
1.441520 -2.325451 1.230568
1.439552 -2.322215 1.700313
1.441374 -2.325234 2.167673
1.428655 -2.304245 2.465371
1.479282 -2.387822 2.739172
1.427855 -2.302943 3.224637
1.468559 -2.370143 3.557548
1.437014 -2.318082 3.977628
1.457048 -2.351164 4.432651
1.492548 -2.409766 4.534335
1.480065 -2.389168 4.887856
1.360481 -2.191779 5.237972
1.261308 -2.480398 1.135423
1.259151 -2.476068 1.838276
1.221012 -2.399172 2.263957
1.197976 -2.352730 2.625972
1.254070 -2.465851 2.836692
1.216832 -2.390781 3.551641
1.200755 -2.358373 3.910220
1.252519 -2.462754 3.887630
1.247614 -2.452879 4.469968
1.268005 -2.494012 4.922647
0.898284 -2.191503 2.498615
1.056101 -2.589886 2.766562
1.034240 -2.534725 3.417717
1.039137 -2.547096 3.649200
1.033379 -2.532580 4.232837
1.023113 -2.506680 4.588711
1.083024 -2.657916 4.725206
0.804110 -2.559083 1.340730
0.838202 -2.671687 1.557507
0.813310 -2.589508 2.214931
0.790076 -2.512789 2.639869
0.803112 -2.555863 3.040088
0.840562 -2.679557 3.248020
0.821602 -2.616957 3.668979
0.845749 -2.696723 3.999472
0.836868 -2.667407 4.354864
0.823204 -2.622310 5.059985
0.843641 -2.689811 5.160146
0.722813 -2.290764 5.446882
0.598323 -2.611262 1.579248
0.610972 -2.669263 1.923045
0.617346 -2.698495 2.096730
0.601419 -2.625525 2.753547
0.620479 -2.712898 2.798654
0.630327 -2.758065 3.198449
0.641301 -2.808392 3.595658
0.602359 -2.629927 4.330101
0.622074 -2.720301 4.368193
0.621839 -2.719259 4.945850
0.384963 -2.706464 1.235267
0.388311 -2.731914 1.642953
0.388572 -2.733933 2.111555
0.385213 -2.708481 2.410440
0.401476 -2.831896 2.622583
0.403712 -2.848906 3.084891
0.415603 -2.939181 3.645297
0.424130 -3.003890 3.750163
0.394713 -2.780751 4.320810
0.397355 -2.800844 4.837300
0.397546 -2.802323 5.128091
0.370554 -2.597551 5.416256
0.179364 -3.121859 0.456690
0.170281 -2.934501 0.601387
0.165100 -2.827780 1.260658
0.163497 -2.794837 1.791863
0.169350 -2.915656 2.005366
0.165328 -2.832787 2.427652
0.164724 -2.820460 2.952623
0.168382 -2.896017 3.285765
0.175983 -3.052887 3.428502
0.168108 -2.890596 4.096642
0.170194 -2.933679 4.261471
0.167802 -2.884496 4.963582
0.170119 -2.932356 5.125958
0.154513 -2.610436 5.442082
-0.074026 -2.888714 0.920251
-0.079176 -3.034439 1.075771
-0.081094 -3.088597 1.417877
-0.075908 -2.941540 2.196397
-0.077286 -2.980385 2.596062
-0.078506 -3.014860 2.765206
-0.079208 -3.034566 3.223821
-0.079630 -3.046410 3.453699
-0.080706 -3.076710 3.908166
-0.080449 -3.069339 4.198467
-0.080282 -3.064406 4.773550
-0.081931 -3.111001 4.936365
-0.067390 -2.699225 5.502420
-0.312991 -2.980762 0.929067
-0.329482 -3.124813 1.086027
-0.315038 -2.998548 1.803932
-0.322063 -3.059880 2.143903
-0.332729 -3.153033 2.419297
-0.340620 -3.221930 2.753077
-0.330862 -3.136599 3.458004
-0.323782 -3.074705 3.873467
-0.334210 -3.165803 3.913478
-0.325128 -3.086405 4.389766
-0.332861 -3.153918 4.775411
-0.327917 -3.110676 5.186823
-0.288909 -2.769854 5.563572
-0.640231 -3.338524 0.583239
-0.608314 -3.179183 0.898317
-0.636684 -3.320786 1.055714
-0.635083 -3.312764 1.521146
-0.599971 -3.137455 2.128163
-0.635153 -3.313072 2.217324
-0.637132 -3.322920 2.676740
-0.645791 -3.366116 3.071719
-0.637384 -3.324130 3.425241
-0.610110 -3.187945 4.026571
-0.627058 -3.272521 4.353188
-0.630957 -3.291972 4.579948
-0.612819 -3.201397 5.116191
-0.595140 -3.113132 5.368928
-0.967459 -3.461587 0.428058
-0.955506 -3.420054 0.724915
-0.934720 -3.347833 1.313007
-0.966823 -3.459325 1.529297
-0.917426 -3.287727 2.131753
-0.959036 -3.432243 2.282390
-0.962099 -3.442861 2.738921
-0.956616 -3.423804 3.029875
-0.934413 -3.346652 3.728770
-0.957359 -3.426338 4.055079
-0.975736 -3.490160 4.158090
-0.948012 -3.393841 4.690642
-0.967638 -3.461992 5.072517
-0.890440 -3.193849 5.255771
-1.208238 -3.254948 0.445178
-1.243174 -3.346759 1.125323
-1.274286 -3.428543 1.173877
-1.272163 -3.422946 1.634306
-1.252048 -3.370047 2.215151
-1.253307 -3.373349 2.444946
-1.229388 -3.310449 3.083735
-1.271002 -3.419841 3.065755
-1.279391 -3.441879 3.516111
-1.266265 -3.407361 3.864522
-1.211826 -3.264232 4.520084
-1.277728 -3.437469 4.595309
-1.245118 -3.351725 5.124857
-1.156449 -3.118625 5.526978
-1.362787 -2.901676 0.959602
-1.412731 -3.005641 1.175303
-1.423792 -3.028656 1.575356
-1.360094 -2.896037 2.116967
-1.401155 -2.981507 2.388824
-1.383740 -2.945237 2.969029
-1.462838 -3.109895 3.050476
-1.388823 -2.955796 3.710679
-1.417637 -3.015776 3.812100
-1.454506 -3.092518 4.135976
-1.381291 -2.940083 4.855452
-1.423135 -3.027180 5.173886
-1.375308 -2.927609 5.485882
-1.540082 -2.705655 1.143853
-1.552128 -2.726371 1.548747
-1.506673 -2.648149 1.971373
-1.567537 -2.752868 2.185150
-1.503474 -2.642620 2.958986
-1.527803 -2.684470 3.354922
-1.521081 -2.672896 3.647915
-1.550434 -2.723392 4.037534
-1.571988 -2.760474 4.201244
-1.546106 -2.715932 4.613800
-1.523186 -2.676484 5.025764
-1.547487 -2.718293 5.186823
-1.650989 -2.415788 1.071156
-1.717137 -2.510611 1.288548
-1.663603 -2.433856 1.711779
-1.665579 -2.436678 2.176755
-1.655789 -2.422631 2.702091
-1.675883 -2.451434 2.871106
-1.628457 -2.383430 3.581140
-1.675566 -2.450957 3.910926
-1.685421 -2.465080 4.139263
-1.641784 -2.402512 4.618190
-1.656556 -2.423677 5.130379
-1.831123 -2.252335 0.894179
-1.747398 -2.151344 1.617257
-1.804562 -2.220282 1.896197
-1.713934 -2.110968 2.447550
-1.740768 -2.143323 2.848799
-1.787963 -2.200236 3.184398
-1.811880 -2.229078 3.353427
-1.830110 -2.251056 3.811345
-1.746991 -2.150797 4.419805
-1.730527 -2.130934 4.775280
-1.820175 -2.239050 4.974161
-1.715861 -2.113238 5.134185
-1.625736 -1.696558 0.882885
-1.851485 -1.926578 1.362291
-1.849842 -1.924895 1.833536
-1.873424 -1.948917 2.238944
-1.895816 -1.971730 2.411430
-1.905563 -1.981654 2.876482
-1.865455 -1.940773 3.528848
-1.892965 -1.968802 3.697915
-1.933894 -2.010499 4.092730
-1.879617 -1.955184 4.576086
-1.878823 -1.954370 4.868795
-1.684520 -1.486251 0.866256
-1.951734 -1.716140 1.514676
-1.973589 -1.734940 1.687390
-1.932753 -1.699796 2.282661
-1.984662 -1.744451 2.621009
-1.949087 -1.713838 2.981310
-2.047057 -1.798123 3.188999
-2.028661 -1.782287 3.774640
-1.985049 -1.744757 4.194668
-2.017084 -1.772311 4.648894
-2.052158 -1.802485 4.812871
-2.043025 -1.531823 1.148500
-2.111750 -1.582178 1.431487
-2.086957 -1.564002 1.966548
-2.064967 -1.547883 2.267492
-2.030059 -1.522294 2.862623
-1.993859 -1.495761 3.225545
-2.119889 -1.588111 3.370846
-2.083173 -1.561196 4.020205
-2.020381 -1.515176 4.504453
-2.076802 -1.556514 4.894557
-2.079033 -1.558144 5.185273
-2.007212 -1.505511 5.442867
-2.173857 -1.361588 1.124861
-2.246459 -1.405961 1.407669
-2.219957 -1.389754 1.942456
-2.221146 -1.390477 2.179529
-2.182780 -1.367017 2.774279
-2.189564 -1.371161 3.009399
-2.143356 -1.342907 3.663923
-2.192987 -1.373237 4.060715
-2.187698 -1.370000 4.355869
-2.205614 -1.380943 4.875423
-2.188211 -1.370300 5.231756
-2.167929 -1.357902 5.300160
-2.251243 -1.163701 0.960997
-2.270776 -1.173516 1.604946
-2.351212 -1.213970 1.884127
-2.174278 -1.124966 2.566055
-2.262525 -1.169348 2.840713
-2.270576 -1.173395 3.074570
-2.269725 -1.172959 3.600433
-2.255182 -1.165635 4.187106
-2.251201 -1.163629 4.481039
-2.270606 -1.173386 4.710435
-2.355387 -1.216025 5.036306
-2.027245 -1.050968 5.485551
-2.378016 -0.986315 1.105707
-2.373690 -0.984566 1.811142
-2.432252 -1.008107 2.152221
-2.494277 -1.033040 2.491120
-2.348498 -0.974419 3.105934
-2.310360 -0.959080 3.466143
-2.339260 -0.970693 3.926265
-2.510888 -1.039698 4.002372
-2.373622 -0.984503 4.386458
-2.351921 -0.975769 5.031610
-2.478988 -0.802985 1.500265
-2.341039 -0.759923 2.289311
-2.487143 -0.805517 2.437085
-2.466658 -0.799120 2.734251
-2.460391 -0.797157 3.260498
-2.398623 -0.777875 3.683106
-2.455226 -0.795535 4.077621
-2.381911 -0.772648 4.561772
-2.537670 -0.821255 4.697222
-2.431651 -0.788161 5.305635
-2.117972 -0.690267 5.338811
-2.597687 -0.607746 1.370967
-2.595982 -0.607359 1.841221
-2.629382 -0.614799 2.245630
-2.524418 -0.591396 2.734499
-2.517509 -0.589848 3.261989
-2.580396 -0.603865 3.367621
-2.584296 -0.604728 3.890871
-2.600906 -0.608427 4.121507
-2.572085 -0.601994 4.767164
-2.529644 -0.592528 5.185273
-2.329043 -0.547809 5.474906
-2.659482 -0.391064 1.329085
-2.537901 -0.374473 1.820595
-2.657755 -0.390820 2.035423
-2.694208 -0.395787 2.438642
-2.510475 -0.370714 3.117637
-2.587113 -0.381165 3.452756
-2.692540 -0.395543 3.722161
-2.683380 -0.394290 4.016233
-2.675104 -0.393153 4.598367
-2.558648 -0.377263 4.919662
-2.516049 -0.162873 0.762497
-2.746506 -0.175216 1.197682
-2.652890 -0.170191 1.857834
-2.744960 -0.175121 2.135282
-2.635827 -0.169267 2.623491
-2.680542 -0.171658 3.023735
-2.756697 -0.175734 3.358140
-2.642587 -0.169613 3.906250
-2.851924 -0.180829 3.920123
-2.677314 -0.171464 4.655088
-2.793107 -0.177669 4.630031
-2.923534 0.061987 0.851653
-2.824389 0.058940 1.276190
-2.762462 0.057040 1.869897
-2.706694 0.055328 2.230278
-2.859366 0.060031 2.377886
-2.837408 0.059358 2.672841
-2.750425 0.056689 3.385327
-2.805758 0.058398 3.778988
-2.822510 0.058917 4.007362
-2.841012 0.059489 4.235005
-2.907410 0.061539 4.623107
-2.794901 0.058082 5.226760
-2.611931 0.052451 5.449533
-3.101744 0.312602 0.474992
-2.844683 0.284365 0.981788
-2.866531 0.286771 1.389929
-2.864366 0.286539 1.858777
-2.952181 0.296188 1.905916
-2.845917 0.284522 2.622830
-2.825337 0.282265 2.919838
-2.900773 0.290557 3.251590
-3.005486 0.302066 3.518322
-2.895575 0.289996 4.059510
-2.795715 0.279032 4.600915
-3.004859 0.302011 4.609374
-2.848921 0.284887 5.336227
-2.668079 0.265020 5.557908
-3.288704 0.614775 0.470281
-3.159985 0.589599 0.722438
-2.938691 0.546319 1.396079
-3.024583 0.563124 1.674737
-3.027021 0.563607 2.139015
-3.064045 0.570855 2.538298
-3.097296 0.577362 2.707637
-3.011635 0.560614 3.415540
-2.999399 0.558224 3.707827
-3.008786 0.560067 4.223897
-3.027841 0.563798 4.451329
-3.025708 0.563384 4.740547
-2.960317 0.550599 5.216868
-2.937292 0.546096 5.283286
-3.239887 0.885811 1.100227
-3.205239 0.876031 1.396689
-3.203040 0.875416 1.860018
-3.207817 0.876771 2.320942
-3.158233 0.862774 2.676568
-3.201148 0.874898 3.071528
-3.160388 0.863392 3.425158
-3.286514 0.899012 3.630171
-3.180863 0.869184 4.167380
-3.222126 0.880838 4.331874
-3.151318 0.860849 4.805904
-3.405894 1.252456 1.230900
-3.372715 1.239967 1.526177
-3.342363 1.228543 1.820956
-3.372500 1.239896 2.219231
-3.381579 1.243321 2.676506
-3.286481 1.207521 3.152810
-3.247201 1.192736 3.505617
-3.251879 1.194504 4.018936
-3.400585 1.250497 4.160008
-3.263053 1.198723 4.816589
-3.370534 1.239191 4.795232
-3.563282 1.655895 0.650046
-3.440898 1.597964 1.126763
-3.488866 1.620678 1.465266
-3.352549 1.556151 2.001689
-3.461631 1.607795 2.213738
-3.420458 1.588311 2.789676
-3.485709 1.619206 3.119041
-3.424103 1.590047 3.528628
-3.406668 1.581801 4.097791
-3.422870 1.589475 4.322203
-3.335051 1.547907 4.851550
-3.381017 1.569675 5.292010
-3.419816 1.588041 5.173857
-2.985347 1.382365 5.631960
-3.130882 1.763666 0.860305
-2.963793 1.667827 1.464569
-2.962444 1.667060 1.927193
-3.041836 1.712606 2.202109
-3.098895 1.745342 2.536685
-3.079934 1.734470 2.828331
-3.051272 1.718037 3.405368
-3.039912 1.711525 3.695034
-3.068634 1.728007 4.144537
-3.085330 1.737587 4.367950
-3.083925 1.736790 4.933622
-3.168120 1.785091 5.250152
-2.808397 1.578747 5.522839
-2.717642 1.845648 0.803848
-2.657740 1.804225 1.394799
-2.779003 1.888101 1.548487
-2.779130 1.888197 2.010387
-2.808466 1.908494 2.407939
-2.789767 1.895565 2.700441
-2.773493 1.884313 2.992323
-2.707162 1.838445 3.694655
-2.795935 1.899850 3.959823
-2.730435 1.854553 4.434143
-2.690294 1.826795 4.845977
-2.843429 1.932716 4.919091
-2.653937 1.801655 5.260827
-2.484199 2.004570 0.986617
-2.525138 2.038208 1.328182
-2.384550 1.922722 1.936394
-2.367923 1.909071 2.461569
-2.529436 2.041759 2.484712
-2.437337 1.966110 3.253849
-2.406638 1.940895 3.608083
-2.489728 2.009160 3.874039
-2.521845 2.035548 4.038964
-2.443204 1.970951 4.576964
-2.445081 1.972503 5.148770
-2.432082 1.961829 5.497423
-2.162044 1.739988 5.591972
-2.215175 2.115245 1.020968
-2.166463 2.067882 1.613651
-2.187197 2.088050 1.785318
-2.169884 2.071222 2.311803
-2.258828 2.157725 2.522678
-2.146367 2.048365 3.129783
-2.230882 2.130567 3.624941
-2.241597 2.140991 3.853438
-2.271344 2.169924 4.018753
-2.248348 2.147572 4.656270
-2.248362 2.147591 4.944177
-1.990637 2.224134 1.404661
-1.910198 2.132554 1.892257
-2.009171 2.245249 2.043841
-1.977754 2.209489 2.632122
-1.971683 2.202586 3.155060
-1.988642 2.221904 3.612428
-2.031894 2.271155 3.716390
-2.087045 2.333957 4.044609
-2.051282 2.293244 4.459394
-2.049959 2.291744 4.748368
-1.991512 2.225205 5.287209
-1.640647 1.825708 5.604290
-1.783553 2.363829 1.000681
-1.688844 2.235818 1.553558
-1.723957 2.283289 1.896443
-1.710421 2.265004 2.426173
-1.751345 2.320329 2.764266
-1.778545 2.357107 3.162915
-1.784908 2.365712 3.395133
-1.761937 2.334669 3.752349
-1.796945 2.382000 4.145393
-1.695940 2.245480 4.878236
-1.820265 2.413539 4.888804
-1.630804 2.157446 5.489544
-1.569057 2.487709 1.266274
-1.472540 2.331419 1.881758
-1.551257 2.458902 2.033880
-1.511301 2.394211 2.688123
-1.529401 2.423526 2.858994
-1.554171 2.463651 3.257244
-1.541599 2.443304 3.841599
-1.563108 2.478143 4.009129
-1.595867 2.531204 4.400436
-1.521870 2.411385 5.068948
-1.169001 2.239476 1.204525
-1.317295 2.531420 1.446065
-1.330290 2.557014 1.850902
-1.265684 2.429845 2.401537
-1.297014 2.491531 2.739172
-1.269855 2.438084 3.390271
-1.352843 2.601458 3.470508
-1.301942 2.501269 4.015747
-1.363327 2.622119 4.218258
-1.339902 2.576015 4.634909
-1.351641 2.599139 5.147575
-1.235387 2.370281 5.274358
-1.004605 2.395870 1.285743
-1.071472 2.560303 1.609106
-1.073380 2.565016 2.310843
-1.088661 2.602605 2.711300
-1.105933 2.645089 3.109262
-1.076901 2.573726 3.819956
-1.111395 2.658546 3.860300
-1.116135 2.670218 4.377238
-1.097582 2.624612 4.793675
-1.125184 2.692496 5.179765
-1.036929 2.475487 5.242885
-0.897277 2.731905 1.631663
-0.888054 2.702884 1.930683
-0.907300 2.763481 2.270602
-0.883132 2.687424 2.693794
-0.872591 2.654269 3.282074
-0.919982 2.803449 3.426304
-0.908492 2.767297 3.782824
-0.926785 2.824897 4.172862
-0.911119 2.775601 4.587711
-0.939517 2.865006 4.910356
-0.836855 2.541877 5.573024
-0.785849 2.381316 5.447105
-0.685519 2.869741 1.247367
-0.637939 2.661884 1.925271
-0.677995 2.836910 2.013476
-0.660993 2.762660 2.666927
-0.665019 2.780280 3.128715
-0.667446 2.790898 3.360566
-0.690923 2.893491 3.629596
-0.655604 2.739206 4.300090
-0.686242 2.873090 4.501257
-0.686426 2.873928 5.077096
-0.434947 2.859891 1.138273
-0.429931 2.824663 1.670073
-0.442637 2.914044 1.947641
-0.447619 2.949120 2.348821
-0.437947 2.881160 2.998804
-0.443111 2.917489 3.167333
-0.433724 2.851511 3.586799
-0.431339 2.834793 4.168499
-0.443825 2.922632 4.495366
-0.433894 2.852829 4.973915
-0.443773 2.922320 5.074151
-0.407603 2.667951 5.200032
-0.204604 3.128656 0.877359
-0.193786 2.937073 1.490054
-0.203811 3.114758 1.581440
-0.193825 2.937935 2.192468
-0.197556 3.004126 2.530618
-0.193880 2.939138 3.180100
-0.199700 3.042330 3.450273
-0.198997 3.029939 3.743309
-0.199862 3.045318 3.972965
-0.195376 2.965925 4.452669
-0.196632 2.988314 4.966224
0.037397 3.177033 1.239801
0.037308 3.172536 1.475620
0.036644 3.140102 1.773262
0.035546 3.086409 2.362289
0.037533 3.182775 2.635028
0.038454 3.227221 3.030271
0.037045 3.158572 3.446548
0.036802 3.146568 3.737525
0.036519 3.132479 4.314104
0.035490 3.082238 4.727838
0.037445 3.176975 5.049820
0.034686 3.042750 5.427997
0.322440 3.330150 0.686289
0.317763 3.285660 1.215546
0.314083 3.250643 1.742659
0.307932 3.192176 2.100906
0.327228 3.375417 2.417366
0.304876 3.163022 3.145619
0.314302 3.252550 3.189421
0.319673 3.303512 3.582109
0.315873 3.267382 3.934783
0.315072 3.259738 4.224642
0.321882 3.324367 4.611425
0.315206 3.260872 5.367346
0.290743 3.028513 5.429465
0.622053 3.418188 0.873191
0.620103 3.407913 1.337114
0.602977 3.317886 1.984256
0.609604 3.352679 2.381599
0.617220 3.392667 2.776518
0.628893 3.453989 2.882230
0.620565 3.410210 3.234011
0.625505 3.436133 3.685398
0.600655 3.305525 4.282486
0.608824 3.348435 4.445958
0.608741 3.347962 5.014722
1.009996 3.744395 0.321781
0.948829 3.523955 0.752403
0.962129 3.571865 1.092277
0.920241 3.420883 1.859416
0.952421 3.536836 2.071561
0.977318 3.626539 2.343415
0.934254 3.471327 2.939328
0.961275 3.568687 3.206801
0.950420 3.529554 3.555615
0.934014 3.470412 3.965255
0.950522 3.529883 4.349525
0.974621 3.616709 4.669898
0.956455 3.551223 5.136400
0.870391 3.241071 5.441734
1.354683 3.741421 0.345459
1.303899 3.604166 1.050795
1.354096 3.739804 1.207078
1.331614 3.679031 1.783652
1.363145 3.764224 2.054571
1.334508 3.686825 2.462844
1.307926 3.614980 2.870970
1.315238 3.634721 3.318636
1.369607 3.781635 3.460312
1.339250 3.699586 3.925076
1.328346 3.670108 4.268061
1.311085 3.623439 4.950226
1.296853 3.584967 5.351914
1.281512 3.543506 5.475614
1.683581 3.708006 0.594165
1.578353 3.480413 0.854872
1.612454 3.554158 1.133303
1.622068 3.574939 1.531300
1.633574 3.599820 1.701132
1.598084 3.523042 2.338620
1.602987 3.533632 2.791331
1.667249 3.672612 2.938267
1.615529 3.560738 3.467482
1.596483 3.519525 4.095774
1.634809 3.602416 4.136677
1.602652 3.532843 4.881057
1.594067 3.514266 5.223418
1.596264 3.519009 5.504067
1.477117 3.261322 5.407042
1.754643 3.139750 1.072980
1.735657 3.106376 1.597507
1.823342 3.260446 1.690254
1.824007 3.261602 2.148584
1.811099 3.238915 2.440378
1.804130 3.226655 2.956135
1.756194 3.142414 3.430068
1.782866 3.189269 3.819001
1.790537 3.202742 4.045494
1.833114 3.277547 4.369200
1.819687 3.253946 4.715747
1.745959 2.604752 0.656924
1.940154 2.888928 1.304813
1.937877 2.885585 1.767179
1.972293 2.935942 2.103905
1.961263 2.919789 2.623025
1.934158 2.880115 2.976182
1.924412 2.865845 3.267051
1.968362 2.930155 3.595850
1.947955 2.900284 3.946156
1.928554 2.871877 4.578904
1.967121 2.928315 4.680296
2.005950 2.511704 1.165074
2.059810 2.577945 1.443477
2.077698 2.599939 1.844026
2.062891 2.581715 2.366269
2.083723 2.607335 2.534964
2.076641 2.598614 3.053353
2.075349 2.597014 3.569023
2.021191 2.530391 4.044797
2.122117 2.654525 4.183813
2.059567 2.577580 4.718788
2.104943 2.633384 5.101279
2.090085 2.615106 5.166380
1.841248 2.309036 5.381417
2.169685 2.314961 1.248813
2.166470 2.311586 1.485122
2.143988 2.288014 1.783262
2.166228 2.311320 2.185394
2.153745 2.298225 2.709832
2.241301 2.390001 2.917794
2.274665 2.424968 3.310205
2.212593 2.359892 3.786235
2.172803 2.318174 4.199783
2.169472 2.314672 4.772731
2.217566 2.365085 4.872461
2.391074 2.156698 0.711736
2.337809 2.109482 1.072616
2.332474 2.104745 1.539479
2.242939 2.025381 2.024247
2.334047 2.106127 2.237313
2.260136 2.040607 2.948218
2.276763 2.055335 3.406249
2.286460 2.063926 3.636183
2.292587 2.069348 4.152520
2.306626 2.081787 4.380243
2.409628 2.173077 4.580281
2.391681 2.157164 4.930320
2.115675 1.912527 5.368245
2.582796 1.963847 0.664089
2.581487 1.962870 0.667248
2.399976 1.827303 1.339962
2.349514 1.789612 1.700486
2.352132 1.791560 2.165463
2.382934 1.814557 2.565170
2.461705 1.873380 2.837221
2.404539 1.830680 3.255649
2.385735 1.816628 3.836871
2.438940 1.856360 3.939947
2.469215 1.878963 4.391476
2.411371 1.835757 4.867992
2.470746 1.880093 5.251994
2.283292 1.740098 5.314314
2.475195 1.576977 0.830525
2.621105 1.667986 1.156792
2.488896 1.585510 1.705641
2.565581 1.633340 1.982874
2.542849 1.619156 2.279216
2.483185 1.581929 2.929276
2.569238 1.635602 3.200082
2.526737 1.609082 3.844469
2.540740 1.617813 4.073335
2.676599 1.702556 4.212693
2.534221 1.613734 4.939755
2.711850 1.724533 4.949535
2.362379 1.506535 5.513711
2.527313 1.329721 2.387245
2.694332 1.415511 2.702531
2.652611 1.394075 3.060382
2.582460 1.358029 3.770042
2.640920 1.388058 3.874625
2.673287 1.404677 4.328643
2.691266 1.413906 4.842290
2.712565 1.424843 5.068790
2.470391 1.300435 5.543328
2.666249 1.142934 1.578521
2.804364 1.200562 1.963300
2.810227 1.203002 2.427806
2.822772 1.208231 2.889762
2.732575 1.170586 3.373051
2.712382 1.162152 3.956329
2.727903 1.168625 4.186600
2.767880 1.185305 4.351668
2.829957 1.211203 4.739080
2.928156 0.977982 1.423008
2.842740 0.950303 2.077410
2.790770 0.933463 2.437653
2.804172 0.937799 2.900307
2.925463 0.977086 3.109608
2.885447 0.964119 3.466178
2.890146 0.965634 3.984708
2.953225 0.986066 4.088779
2.924537 0.976769 4.442287
2.770115 0.926736 5.171655
2.837093 0.948431 5.272498
2.482453 0.833548 5.431403
3.140049 0.762424 0.473071
2.888893 0.703737 0.976391
2.970648 0.722835 1.256743
2.879067 0.701432 1.679870
2.825831 0.688986 2.270602
2.946472 0.717170 2.481884
2.987935 0.726852 2.879251
2.983213 0.725742 3.399158
2.971106 0.722910 3.690948
2.889605 0.703861 4.170164
3.069817 0.745965 4.246075
2.929646 0.713207 4.910111
2.968241 0.465842 0.475295
3.009938 0.471980 1.053256
3.033225 0.475408 1.457714
3.061034 0.479505 1.629291
3.002284 0.470840 1.988014
3.066154 0.480250 2.325161
3.078923 0.482126 2.784966
3.020555 0.473515 3.429725
3.025465 0.474232 3.946549
3.140903 0.491247 3.924193
3.085753 0.483113 4.338259
3.106352 0.486143 4.849018
3.174889 0.239710 1.452726
3.202254 0.241532 1.625166
3.203569 0.241614 2.088742
3.240166 0.244049 2.487628
3.147430 0.237858 3.195325
3.159992 0.238692 3.422180
3.174292 0.239643 3.648342
3.233053 0.243555 4.035562
3.203754 0.241597 4.384050
3.249013 0.244608 4.828974
3.601525 -0.029791 0.414139
3.373865 -0.026142 0.849731
3.211965 -0.023549 1.395286
3.329110 -0.025433 1.611201
3.418053 -0.026864 1.887572
3.282554 -0.024699 2.657151
3.353896 -0.025848 2.990145
3.336924 -0.025580 3.281619
3.348767 -0.025773 3.510408
3.354455 -0.025871 4.023939
3.396495 -0.026548 4.188647
3.344582 -0.025723 4.883387
3.324219 -0.025401 5.231536
3.024554 -0.020593 5.480872
3.463229 -0.316638 0.866683
3.576160 -0.327884 1.084021
3.509981 -0.321300 1.439602
3.421080 -0.312458 2.084910
3.542503 -0.324549 2.296087
3.445412 -0.314892 2.997882
3.376488 -0.308035 3.411460
3.430793 -0.313447 3.800635
3.446854 -0.315049 4.026652
3.533146 -0.323644 4.350158
3.506632 -0.321009 4.697139
3.555368 -0.325867 5.139268
3.256735 -0.296138 5.384096
3.865996 -0.684631 0.443560
3.562341 -0.628621 0.598143
3.665496 -0.647655 1.047102
3.657096 -0.646111 1.508456
3.684751 -0.651218 1.906348
3.544567 -0.625366 2.443506
3.638982 -0.642785 2.714841
3.619173 -0.639135 3.004938
3.564662 -0.629088 3.640210
3.628526 -0.640870 3.744316
3.661644 -0.646985 4.191398
3.748024 -0.662923 4.513465
3.633707 -0.641844 5.103144
3.430605 -0.604383 5.380819
3.107851 -0.544847 5.409625
3.676048 -0.975370 0.890119
3.814602 -1.013230 1.047676
3.806642 -1.011061 1.505452
3.834001 -1.018542 1.900267
3.730052 -0.990149 2.596314
3.709890 -0.984644 2.884293
3.755283 -0.997052 3.272538
3.692028 -0.979774 3.680229
3.868671 -1.028039 3.760722
3.649612 -0.968196 4.591639
3.693325 -0.980142 4.752581
3.698377 -0.981530 5.312867
3.649458 -0.968162 5.159786
3.685503 -1.296245 0.269063
3.545795 -1.245988 0.976905
3.593940 -1.263315 1.316871
3.561538 -1.251664 1.837627
3.700985 -1.301839 1.990572
3.627075 -1.275255 2.627944
3.632618 -1.277252 2.856936
3.639868 -1.279864 3.085270
3.661453 -1.287636 3.534916
3.555741 -1.249609 4.065821
3.572992 -1.255818 4.288586
3.547986 -1.246830 4.912505
3.680814 -1.294624 5.106531
3.528650 -1.239878 5.257381
3.272822 -1.468914 0.441020
3.175703 -1.424417 0.861141
3.193569 -1.432609 1.264341
3.271141 -1.468160 1.542260
3.270619 -1.467927 2.002499
3.219886 -1.444684 2.356920
3.281234 -1.472801 2.690424
3.224609 -1.446862 3.328837
3.235437 -1.451827 3.556890
3.156639 -1.415725 4.030752
3.235088 -1.451678 4.355447
3.147360 -1.411486 4.888687
3.275139 -1.470042 5.085478
3.167864 -1.420884 5.117088
3.009840 -1.658307 1.168389
2.847848 -1.567336 1.774233
2.901432 -1.597435 2.112117
2.884839 -1.588124 2.633859
2.994381 -1.649649 2.843140
2.978262 -1.640601 3.134522
2.919345 -1.607517 3.549156
2.946554 -1.622805 4.000705
2.961766 -1.631352 4.227329
2.875783 -1.583068 4.763183
2.645994 -1.758862 0.360884
2.657505 -1.766667 0.767944
2.647895 -1.760163 1.235173
2.619645 -1.741032 1.762532
2.644218 -1.757683 1.933327
2.696932 -1.793403 2.270134
2.683840 -1.784541 2.791245
2.656600 -1.766095 3.372010
2.688686 -1.787836 3.538361
2.576297 -1.711700 4.140549
2.590616 -1.721409 4.653096
2.609571 -1.734255 4.878529
2.574621 -1.710582 5.290585
2.477349 -1.644678 5.323260
2.346966 -1.839366 0.959467
2.316400 -1.814952 1.491527
2.362210 -1.851561 1.832842
2.340028 -1.833842 2.130129
2.326068 -1.822696 2.655191
2.361281 -1.850838 3.052049
2.462226 -1.931496 3.258728
2.391313 -1.874845 3.737924
2.437670 -1.911890 4.128091
2.396421 -1.878939 4.542544
2.413733 -1.892775 4.768415
2.082373 -1.930013 1.247102
2.101385 -1.947993 1.652835
2.058376 -1.907341 2.014268
2.105532 -1.951926 2.353263
2.028672 -1.879275 2.839163
2.082543 -1.930208 3.174046
2.196120 -2.037580 3.318124
2.216596 -2.056945 3.774156
2.210215 -2.050918 4.065496
2.102592 -1.949188 4.733331
2.122954 -1.968446 5.244921
2.106202 -1.952611 5.310622
1.873464 -1.732599 5.628802
1.887292 -2.065592 0.439354
1.999392 -2.190784 0.769150
1.911119 -2.092216 1.258439
1.948571 -2.134046 1.601642
1.928124 -2.111217 1.900384
1.932222 -2.115804 2.366066
1.904711 -2.085092 2.955336
1.902344 -2.082458 3.478837
1.877571 -2.054801 3.836251
1.967150 -2.154841 4.040091
1.962962 -2.150169 4.331991
1.898650 -2.078361 4.875276
1.718158 -2.227187 1.074217
1.696218 -2.198164 1.606883
1.715082 -2.223135 2.010814
1.665080 -2.156976 2.434683
1.707216 -2.212742 2.771498
1.728730 -2.241216 2.940543
1.664486 -2.156218 3.715975
1.730156 -2.243125 3.982708
1.740966 -2.257435 4.211352
1.752837 -2.273148 4.439250
1.723742 -2.234656 4.855546
1.557738 -2.014991 5.332516
1.482723 -2.294850 1.467834
1.514523 -2.345201 1.808647
1.484316 -2.297389 2.168910
1.460741 -2.260081 2.759244
1.480017 -2.290601 2.927675
1.506366 -2.332323 3.324048
1.458784 -2.257008 3.807087
1.465361 -2.267432 4.325644
1.489263 -2.305276 4.489746
1.501142 -2.324086 4.716456
1.194055 -2.213308 1.227946
1.276275 -2.369875 1.786455
1.359459 -2.528266 1.876007
1.293147 -2.402019 2.427756
1.244828 -2.310029 2.914241
1.317288 -2.448002 3.058483
1.328863 -2.470054 3.517071
1.265836 -2.350063 4.126217
1.318313 -2.449989 4.390167
1.371818 -2.551873 4.652124
1.309448 -2.433135 5.319369
1.170567 -2.168704 5.574827
1.123049 -2.581349 2.725111
1.079229 -2.477850 3.502597
1.124864 -2.585660 3.480809
1.098295 -2.522917 4.190555
1.124650 -2.585183 4.293184
1.104965 -2.538692 4.711021
1.078892 -2.477110 5.191612
0.945063 -2.160956 5.576067
0.862626 -2.532672 1.126664
0.861070 -2.527971 1.831553
0.917089 -2.698268 1.920335
0.892629 -2.623937 2.575697
0.894659 -2.630117 2.809767
0.888851 -2.612474 3.106409
0.904707 -2.660694 3.503748
0.862019 -2.530949 4.114815
0.889520 -2.614564 4.444017
0.874335 -2.568418 4.862854
0.888988 -2.612970 5.027606
0.787732 -2.305173 5.347371
0.672149 -2.698271 1.139374
0.684760 -2.751183 1.484504
0.677786 -2.721960 2.016736
0.686095 -2.756835 2.420258
0.674390 -2.707759 2.781372
0.651362 -2.611208 3.268715
0.681547 -2.737814 3.476864
0.682758 -2.742926 3.998486
0.680600 -2.733906 4.580195
0.696451 -2.800393 4.683120
0.680694 -2.734333 5.163598
0.610883 -2.441551 5.420187
0.455546 -2.820686 1.210392
0.459399 -2.846166 1.615912
0.459300 -2.845529 1.850902
0.437966 -2.704719 2.401042
0.456676 -2.828268 2.611995
0.443333 -2.740236 3.325530
0.445243 -2.752863 3.556560
0.457542 -2.834094 3.887128
0.456417 -2.826693 4.179087
0.466178 -2.891175 4.568545
0.445744 -2.756313 5.236387
0.417317 -2.568618 5.173346
0.235006 -2.882483 1.139749
0.238895 -2.936724 1.483915
0.234460 -2.875010 1.846227
0.236860 -2.908508 2.249708
0.235103 -2.884087 2.547269
0.236231 -2.899891 3.009866
0.239743 -2.948885 3.406912
0.241891 -2.978890 3.861629
0.237858 -2.922779 4.277436
0.239298 -2.942934 4.790327
0.241041 -2.967246 5.015264
0.229406 -2.805193 5.172724
0.203289 -2.441450 5.618275
-0.005360 -2.898003 1.127696
-0.005646 -2.922373 1.533779
-0.007014 -3.040950 1.749333
-0.004701 -2.839374 2.423708
-0.006876 -3.027847 2.738023
-0.007101 -3.046922 3.197146
-0.007840 -3.110904 3.302413
-0.005653 -2.920222 4.033701
-0.006660 -3.007317 4.361223
-0.005828 -2.934496 4.839685
-0.006110 -2.958724 5.066051
-0.005325 -2.890354 5.258451
-0.001286 -2.539616 5.353678
-0.269659 -3.154378 0.598658
-0.268819 -3.145452 0.834932
-0.265223 -3.107318 1.133113
-0.267510 -3.131494 1.537041
-0.259363 -3.045105 2.188649
-0.262989 -3.083461 2.587621
-0.264572 -3.100162 3.046594
-0.273064 -3.190107 3.089623
-0.272941 -3.188733 3.606957
-0.274321 -3.203322 3.835110
-0.268948 -3.146347 4.249487
-0.268569 -3.142257 4.823174
-0.268720 -3.143816 5.110492
-0.240456 -2.844411 5.360855
-0.580544 -3.387523 2.081531
-0.562377 -3.286418 2.787100
-0.554309 -3.241515 3.140880
-0.558763 -3.266255 3.594713
-0.556872 -3.255716 3.884326
-0.559092 -3.268026 4.395836
-0.575167 -3.357423 4.718427
-0.579273 -3.380244 4.942263
-0.884662 -3.475051 0.658130
-0.867796 -3.410893 0.785525
-0.880429 -3.458926 1.127245
-0.870989 -3.422993 1.651363
-0.878171 -3.450301 1.822398
-0.863427 -3.394206 2.177543
-0.851825 -3.350049 2.757944
-0.877088 -3.446124 3.027472
-0.876339 -3.443248 3.540784
-0.879867 -3.456655 3.767421
-0.852611 -3.352959 4.301360
-0.869425 -3.416893 4.685349
-0.875223 -3.438933 4.908857
-0.811002 -3.194645 5.311054
-1.225004 -3.537629 1.005307
-1.202178 -3.473259 1.361043
-1.200963 -3.469815 1.821509
-1.192616 -3.446262 2.340886
-1.233699 -3.562084 2.551717
-1.181107 -3.413781 3.148213
-1.197902 -3.461118 3.538374
-1.193913 -3.449861 3.826665
-1.197485 -3.459913 4.335157
-1.188320 -3.434059 4.682499
-1.173024 -3.390917 5.090520
-1.357823 -3.076107 1.092967
-1.343033 -3.043333 1.389177
-1.354291 -3.068261 1.790264
-1.355920 -3.071856 2.250956
-1.394951 -3.158312 2.523619
-1.341297 -3.039434 3.063046
-1.383362 -3.132613 3.331489
-1.388422 -3.143815 3.559417
-1.363168 -3.087856 3.972158
-1.349384 -3.057303 4.606340
-1.387664 -3.142095 4.927779
-1.500335 -2.753992 1.097978
-1.497131 -2.748220 1.564603
-1.467698 -2.695315 1.923924
-1.484651 -2.725772 2.324428
-1.490768 -2.736754 2.784966
-1.565706 -2.871427 2.931388
-1.531524 -2.809984 3.347912
-1.545305 -2.834740 3.801793
-1.529108 -2.805621 4.154007
-1.538258 -2.822060 4.380887
-1.469677 -2.698789 5.043852
-1.599773 -2.431763 1.101877
-1.647471 -2.502764 1.381126
-1.613841 -2.452686 1.972198
-1.599190 -2.430870 2.268144
-1.637143 -2.487361 2.604156
-1.646952 -2.501953 3.063324
-1.594707 -2.424166 3.544489
-1.626559 -2.471574 3.936446
-1.636438 -2.486275 4.164031
-1.646534 -2.501293 4.677243
-1.646842 -2.501745 4.965244
-1.705333 -2.201968 1.130485
-1.758125 -2.268730 1.411836
-1.702610 -2.198506 2.069560
-1.686491 -2.178113 2.368161
-1.729030 -2.231906 2.706368
-1.708193 -2.205541 3.292442
-1.805878 -2.329084 3.434406
-1.798734 -2.320043 3.725816
-1.717375 -2.217132 4.331666
-1.701216 -2.196688 4.684838
-1.744514 -2.251446 4.784559
-1.649856 -2.131714 5.515545
-1.459820 -1.891369 5.484916
-1.932768 -2.106528 0.539428
-1.909358 -2.081508 0.606210
-1.921281 -2.094243 1.015538
-1.854316 -2.022666 1.675335
-1.856300 -2.024778 2.143193
-1.819930 -1.985903 2.504741
-1.830749 -1.997456 2.968756
-1.892474 -2.063420 3.011825
-1.908573 -2.080616 3.471932
-1.848884 -2.016818 3.955613
-1.762156 -1.924122 4.566226
-1.873287 -2.042884 4.702869
-1.889169 -2.059852 4.930545
-1.716848 -1.875688 5.344466
-1.986923 -1.835362 0.620796
-1.997294 -1.844734 1.265698
-1.949713 -1.801680 1.630319
-2.038203 -1.881734 1.846427
-1.979041 -1.828199 2.503503
-1.922444 -1.776988 2.928643
-1.938952 -1.791914 3.391687
-2.006213 -1.852765 3.434042
-1.972988 -1.822695 4.083096
-1.968664 -1.818778 4.376921
-2.018801 -1.864131 4.767863
-1.969720 -1.819719 5.249327
-1.828611 -1.692058 5.187596
-2.027253 -1.576208 0.893047
-2.143162 -1.664314 1.049635
-2.065689 -1.605412 1.711972
-2.091423 -1.624967 2.117978
-2.048670 -1.592463 2.481060
-2.039311 -1.585340 3.010394
-2.026203 -1.575371 3.307997
-2.048624 -1.592407 3.769523
-2.175145 -1.688580 3.911108
-2.130418 -1.654574 4.331587
-2.110398 -1.639345 4.976051
-2.037628 -1.584025 5.234491
-2.161549 -1.408910 1.094020
-2.132292 -1.390278 1.863399
-2.210322 -1.439935 2.141053
-2.213370 -1.441871 2.376016
-2.194467 -1.429836 2.673881
-2.187748 -1.425552 3.200858
-2.146078 -1.399022 3.852331
-2.181285 -1.421426 4.019460
-2.255030 -1.468356 4.348677
-2.253663 -1.467477 4.928722
-2.176488 -1.418355 5.186019
-1.941521 -1.268810 5.379616
-2.258737 -1.236032 1.565390
-2.233682 -1.222666 2.100835
-2.341540 -1.280169 2.315748
-2.247119 -1.229820 2.806368
-2.183307 -1.195791 3.233277
-2.266359 -1.240064 3.797861
-2.237707 -1.224782 4.154991
-2.297758 -1.256798 4.256723
-2.254657 -1.233808 4.964672
-2.238380 -1.225124 5.318576
-1.974698 -1.084533 5.576778
-2.378157 -1.051443 2.717352
-2.445001 -1.080135 3.054463
-2.491186 -1.099958 3.452597
-2.456823 -1.085200 3.811051
-2.359444 -1.043386 4.359599
-2.313863 -1.023812 4.780645
-2.422342 -1.070380 5.043252
-2.144976 -0.951299 5.300375
-2.303308 -0.798809 1.621150
-2.361522 -0.818247 1.963557
-2.505234 -0.866244 2.113017
-2.322790 -0.805300 2.793199
-2.393318 -0.828851 3.129342
-2.404391 -0.832546 3.361503
-2.432559 -0.841948 3.821236
-2.425246 -0.839501 4.114928
-2.532200 -0.875219 4.379647
-2.377752 -0.823625 5.116294
-2.527395 -0.642038 1.730104
-2.503367 -0.636202 2.262519
-2.535163 -0.643914 2.434104
-2.470709 -0.628267 3.090002
-2.405088 -0.612340 3.514528
-2.460216 -0.625710 3.911322
-2.591595 -0.657584 4.114815
-2.540132 -0.645092 4.534933
-2.561608 -0.650300 4.763691
-2.564972 -0.437686 1.049527
-2.557914 -0.436553 1.523125
-2.645480 -0.450523 1.803796
-2.503999 -0.427939 2.357566
-2.572154 -0.438810 2.696482
-2.499876 -0.427271 3.121372
-2.499765 -0.427246 3.647236
-2.606707 -0.444309 3.915678
-2.643946 -0.450245 4.372213
-2.734973 -0.464771 4.411159
-2.686799 -0.457078 4.829199
-2.729976 -0.239625 1.221417
-2.695227 -0.236928 1.523268
-2.724483 -0.239190 1.930217
-2.668266 -0.234829 2.293688
-2.652823 -0.233626 2.823680
-2.687919 -0.236343 2.995002
-2.763011 -0.242157 3.330964
-2.698407 -0.237146 3.753594
-2.732895 -0.239812 4.211816
-2.751078 -0.241215 4.730293
-2.612794 -0.230495 5.114728
-2.720658 -0.009017 1.261986
-2.716681 -0.009039 1.733221
-2.836414 -0.008200 1.949166
-2.751807 -0.008786 2.374587
-2.875914 -0.007916 2.587130
-2.827589 -0.008249 2.947199
-2.823596 -0.008270 3.471439
-2.904185 -0.007703 3.803722
-2.846196 -0.008103 4.223177
-2.935072 -0.007478 4.551104
-2.703419 -0.009087 5.187155
-2.519091 -0.010371 5.413459
-2.865590 0.229311 1.402481
-2.893570 0.231830 1.807361
-3.013580 0.242614 2.021553
-2.791519 0.222674 2.758664
-2.972458 0.238930 2.842408
-2.940773 0.236091 3.427040
-2.878004 0.230457 3.846028
-2.938383 0.235887 4.237651
-2.910593 0.233395 4.591397
-2.955904 0.237467 4.755722
-3.000946 0.497018 1.063044
-3.026914 0.501567 1.234734
-3.052937 0.506129 1.637107
-3.023881 0.501045 1.932237
-3.031060 0.502308 2.393573
-2.964928 0.490737 3.040287
-3.028160 0.501810 3.144316
-3.130537 0.519740 3.411705
-3.068802 0.508935 3.826334
-3.057144 0.506902 4.401733
-3.078244 0.510599 4.626734
-3.011355 0.498893 5.101075
-2.873786 0.474806 5.195004
-3.235238 0.805984 0.927674
-3.109175 0.773457 1.411831
-3.193465 0.795213 1.690235
-3.139776 0.781365 2.277183
-3.170761 0.789364 2.447553
-3.157949 0.786065 2.968543
-3.204725 0.798141 3.362564
-3.191731 0.794792 3.653885
-3.134329 0.779984 4.066431
-3.127323 0.778183 4.638621
-3.083528 0.766886 5.049090
-3.109043 0.773474 5.271777
-3.295191 1.118099 1.305295
-3.320339 1.126861 1.476667
-3.403085 1.155686 1.752752
-3.271599 1.109898 2.519036
-3.355991 1.139294 2.564089
-3.269806 1.109284 3.265121
-3.232063 1.096142 3.616643
-3.309525 1.123128 3.943265
-3.372179 1.144953 4.045947
-3.320721 1.127034 4.455773
-3.277728 1.112069 5.146502
-3.466798 1.513010 0.713698
-3.539874 1.545552 0.992997
-3.559097 1.554118 1.392053
-3.420031 1.492203 1.928079
-3.450988 1.505992 2.323373
-3.436429 1.499517 2.838350
-3.502903 1.529121 3.167589
-3.417767 1.491218 3.638415
-3.385093 1.476674 3.986633
-3.463361 1.511530 4.309804
-3.438133 1.500301 4.655576
-3.564965 1.556779 4.852790
-3.379210 1.474075 5.406037
-3.079705 1.340712 5.433263
-3.069155 1.655345 1.068074
-3.115326 1.680733 1.409053
-2.982137 1.607519 1.951366
-3.217668 1.737008 2.084731
-3.046901 1.643136 2.746610
-3.157145 1.703747 2.955891
-3.164802 1.707959 3.185162
-3.097526 1.670984 3.882836
-3.176942 1.714644 3.925424
-3.208810 1.732171 4.372759
-3.104299 1.674723 4.966335
-2.815481 1.816397 1.340497
-2.837277 1.830725 1.742839
-2.887836 1.863949 2.081048
-2.818759 1.818569 2.497919
-2.709407 1.746727 3.039024
-2.729068 1.759652 3.494369
-2.783319 1.795300 3.598591
-2.768940 1.785861 4.173929
-2.804883 1.809480 4.338170
-2.841200 1.833348 4.784900
-2.575021 1.979174 0.876932
-2.496056 1.917396 1.299993
-2.493055 1.915056 1.766190
-2.473211 1.899538 2.292447
-2.460757 1.889803 2.816216
-2.582012 1.984677 2.963199
-2.526757 1.941451 3.380531
-2.609385 2.006105 3.648547
-2.523095 1.938600 4.188092
-2.426497 1.863029 4.790423
-2.483693 1.907787 5.175845
-2.305365 2.101878 1.130916
-2.300744 2.097596 1.598037
-2.575054 2.352274 3.438366
-2.405583 2.194962 3.999848
-2.332224 2.126866 4.253143
-2.260514 2.060301 4.507316
-2.192130 1.996828 5.047892
-1.934434 2.077243 0.579093
-2.027790 2.179505 0.969277
-1.982443 2.129842 1.330651
-2.021177 2.172275 1.671773
-1.981616 2.128949 2.031421
-1.930890 2.073402 2.683686
-2.072165 2.228142 2.704244
-2.049095 2.202884 3.287737
-2.085175 2.242411 3.680432
-2.095682 2.253923 3.908410
-2.009533 2.159575 4.511813
-1.962354 2.107908 4.989664
-2.073367 2.229504 5.122850
-1.885601 2.023846 5.310721
-1.786637 2.271627 1.370983
-1.749552 2.223536 1.964449
-1.750845 2.225218 2.198828
-1.808963 2.300610 2.473516
-1.834959 2.334338 2.871842
-1.880378 2.393259 3.204976
-1.824385 2.320640 3.685790
-1.800474 2.289637 4.328550
-1.827473 2.324662 4.493157
-1.897972 2.416114 4.754724
-1.565230 2.350587 1.278162
-1.530303 2.296998 1.641470
-1.611669 2.421861 1.794084
-1.567435 2.353998 2.448851
-1.635605 2.458611 2.660101
-1.551924 2.330215 3.268500
-1.581332 2.375352 3.662135
-1.590030 2.388705 3.890328
-1.586271 2.382943 4.180811
-1.673292 2.516489 4.603986
-1.648426 2.478341 5.016735
-1.535587 2.305193 5.300098
-1.352642 2.453814 1.786928
-1.382086 2.508523 2.127625
-1.373447 2.492488 2.655099
-1.420346 2.579623 2.928049
-1.381564 2.507595 3.638984
-1.388609 2.520688 3.869405
-1.373238 2.492143 4.225148
-1.326616 2.405544 4.769841
-1.361111 2.469638 5.157680
-1.147213 2.564854 1.080631
-1.144835 2.559416 1.782980
-1.100653 2.457957 2.505980
-1.143711 2.556872 3.009111
-1.184576 2.650744 3.279863
-1.158623 2.591145 3.699586
-1.172274 2.622515 4.155205
-1.170305 2.618003 4.446636
-1.141853 2.552667 4.926596
-1.134092 2.534852 5.279596
-1.087106 2.426931 5.313530
-0.932385 2.672829 1.264355
-0.921623 2.640988 1.797046
-0.950790 2.727351 2.074953
-0.980731 2.816002 2.351028
-0.946742 2.715397 2.836099
-0.970316 2.785201 3.171016
-0.916251 2.625168 3.843660
-0.943430 2.705645 4.173670
-0.949484 2.723577 4.402824
-0.986081 2.831936 4.666213
-0.713329 2.752869 1.466513
-0.727575 2.810182 1.807361
-0.715060 2.759880 2.397837
-0.703048 2.711589 2.756690
-0.746984 2.888300 2.839465
-0.736249 2.845142 3.195817
-0.718181 2.772512 3.904116
-0.750789 2.903669 4.106169
-0.720957 2.783718 4.710437
-0.743342 2.873751 4.747871
-0.501680 2.841554 1.380332
-0.496180 2.808553 1.680911
-0.506084 2.868043 2.023063
-0.506350 2.869658 2.258802
-0.512730 2.907996 2.660346
-0.511177 2.898714 3.185011
-0.504392 2.858006 3.543259
-0.505411 2.864166 4.063689
-0.500588 2.835233 4.416605
-0.504139 2.856570 4.642778
-0.501208 2.839025 5.279610
-0.490304 2.773572 5.470785
-0.269595 2.963878 1.195345
-0.261876 2.869197 1.619850
-0.271564 2.988145 1.834803
-0.274309 3.021889 2.236119
-0.266305 2.923769 2.948678
-0.267086 2.933391 3.180100
-0.271292 2.985074 3.574673
-0.276602 3.050269 3.678720
-0.279331 3.083830 4.131999
-0.273108 3.007531 4.609619
-0.275171 3.032923 5.120647
-0.263791 2.893267 5.216148
-0.239429 2.594311 5.470399
-0.023825 3.183324 1.227380
-0.023825 3.178686 1.692835
-0.024047 3.004208 2.301755
-0.023808 3.184527 2.388365
-0.023855 3.143462 2.972420
-0.023718 3.245066 3.242129
-0.023929 3.077773 3.907921
-0.023904 3.094729 4.136152
-0.023876 3.113450 4.363642
-0.023930 3.066125 5.062677
0.254881 3.253782 1.066643
0.259485 3.306665 1.408806
0.261844 3.333728 1.810842
0.251832 3.218546 2.292741
0.252835 3.230004 2.753077
0.254458 3.248594 3.210791
0.253160 3.233632 3.503117
0.262336 3.339095 3.770446
0.257255 3.280612 4.184602
0.258873 3.299176 4.411835
0.250963 3.208119 5.232122
0.250821 3.206478 5.236744
0.220422 2.856957 5.329579
0.533313 3.307301 1.117656
0.557652 3.450588 1.273975
0.561843 3.475230 1.675422
0.562174 3.477143 2.134937
0.554389 3.431267 2.715269
0.533156 3.306208 3.253771
0.543879 3.369336 3.358538
0.557137 3.447373 3.686602
0.551305 3.413007 4.036540
0.550225 3.406627 4.324032
0.557454 3.449153 4.769605
0.852447 3.488587 0.864625
0.871730 3.564886 1.372053
0.870955 3.561808 1.603655
0.871143 3.562527 2.061745
0.866214 3.542992 2.578688
0.856979 3.506406 3.154450
0.872572 3.568123 3.258956
0.843995 3.454979 3.792411
0.852558 3.488848 4.239655
0.875002 3.577687 4.279867
0.846317 3.464100 5.151040
0.852907 3.490171 5.371510
0.778098 3.194061 5.335071
1.135869 3.383159 0.476082
1.237790 3.678990 0.956162
1.254603 3.727780 1.293797
1.272646 3.780142 1.629380
1.254038 3.726104 2.205197
1.245902 3.702476 2.493929
1.259467 3.741837 2.883972
1.236248 3.674422 3.292256
1.212176 3.604520 3.982389
1.248041 3.708618 4.243377
1.223564 3.637549 4.709025
1.238501 3.680902 4.869654
1.581192 3.653224 0.982302
1.566204 3.619243 1.273408
1.588560 3.669903 1.608559
1.588812 3.670459 2.062614
1.558111 3.600856 2.696137
1.586975 3.666266 3.023856
1.559082 3.603033 3.430708
1.622299 3.746310 3.572949
1.557729 3.599940 4.219652
1.593463 3.680923 4.538794
1.556005 3.596007 5.062389
1.786842 3.348537 0.475732
1.724677 3.234077 0.722230
1.703999 3.195992 1.244806
1.687797 3.166148 1.765234
1.759186 3.297582 1.915421
1.708354 3.203974 2.614632
1.738140 3.258810 2.719146
1.747101 3.275297 3.169505
1.666631 3.127123 3.824142
1.778650 3.333367 3.779825
1.726666 3.237636 4.590043
1.793433 3.360564 4.505843
1.727591 3.239323 5.154350
1.695519 3.180269 5.340313
1.927067 3.017182 0.886233
1.889253 2.958978 1.243394
1.902832 2.979866 1.644147
1.887716 2.956590 2.165745
1.908079 2.987919 2.561685
1.866959 2.924626 2.975217
1.893543 2.965530 3.365888
1.872583 2.933265 3.715755
1.864538 2.920869 4.287133
1.965339 3.076001 4.363177
1.938252 3.034304 4.770272
2.014149 2.644190 0.511701
2.081896 2.731585 0.732297
2.019111 2.650578 1.153497
1.978534 2.598217 1.742659
2.033675 2.669349 2.019100
1.986614 2.608621 2.665402
2.097266 2.751372 2.751433
2.068752 2.714578 3.105045
2.011123 2.640221 3.582109
2.045694 2.684813 3.972158
2.011556 2.640764 4.385172
2.052649 2.693769 4.770634
2.039221 2.676439 5.119182
1.868579 2.456291 5.304267
2.121810 2.350575 1.037275
2.178503 2.412269 1.317492
2.116179 2.344430 1.969145
2.139956 2.370298 2.369131
2.068222 2.292221 2.851147
2.118040 2.346432 3.184601
2.205619 2.441740 3.391428
2.111413 2.339204 3.993883
2.156397 2.388159 4.097314
2.183252 2.417376 4.547241
2.214760 2.451658 4.994125
2.093743 2.319945 5.496447
