3.773884 -0.906830 3.315429
-1.948780 -1.728590 3.315429
2.798430 1.075284 3.315429
0.581955 -2.768146 3.315429
3.733394 -0.882267 3.315429
2.863460 0.817329 3.315429
-1.949163 -1.727661 3.315429
0.587400 -2.762775 3.315429
2.836789 0.873550 3.315429
3.578794 -0.428669 3.315429
3.569977 -0.427056 3.315429
2.870272 0.808520 3.315429
-1.948780 -1.720407 3.315429
0.652431 -2.740560 3.315429
3.448733 -0.379898 3.315429
2.828664 0.938580 3.315429
-1.941704 -1.662631 3.315429
3.513763 -0.405845 3.315429
2.807095 1.003611 3.315429
0.717461 -2.728587 3.315429
-2.143871 -1.503148 3.315429
3.643824 -0.589336 3.315429
2.837303 1.133671 3.315429
-2.166838 -1.467540 3.315429
3.618730 -0.557116 3.315429
2.799778 1.198701 3.315429
3.658652 -0.622146 3.315429
-2.165174 -1.402510 3.315429
0.977582 -2.644601 3.315429
3.619212 -0.492086 3.315429
1.019733 -2.638085 3.315429
-2.078841 -1.553123 3.315429
3.643824 -0.433064 3.315429
0.262249 3.227597 3.315429
3.598763 -0.427056 3.315429
-2.104274 -1.532570 3.315429
1.042613 -2.597797 3.315429
0.327280 3.247735 3.315429
3.648476 -0.427056 3.315429
-2.013811 -1.591422 3.315429
3.643824 -0.420633 3.315429
0.392310 3.241528 3.315429
1.058764 -2.573055 3.315429
0.457340 3.264221 3.315429
-1.948780 -1.652655 3.315429
1.107643 -2.508680 3.315429
-2.008761 -1.597600 3.315429
-2.924234 0.467581 3.315429
1.107757 -2.508024 3.315429
-2.947270 0.483368 3.315429
-2.170797 -1.337479 3.315429
1.133913 -2.442994 3.315429
-2.989265 0.525731 3.315429
-2.208901 -1.280299 3.315429
-3.005537 0.548398 3.315429
1.107643 -2.389853 3.315429
-2.214234 -1.272449 3.315429
1.098830 -2.377964 3.315429
-2.859204 0.185640 3.315429
-2.290439 -1.142389 3.315429
1.107643 -2.373347 3.315429
-2.324464 -1.077358 3.315429
-2.841827 0.223247 3.315429
-2.338962 -1.043344 3.315429
1.172673 -2.368477 3.315429
-2.349976 -1.012328 3.315429
-2.858975 0.288278 3.315429
1.237703 -2.340761 3.315429
-2.369401 -0.947298 3.315429
-2.391678 -0.882267 3.315429
-2.859204 0.288575 3.315429
-2.901360 0.353308 3.315429
1.298453 -2.312933 3.315429
-2.403992 -0.808923 3.315429
-2.428462 -0.752207 3.315429
-2.890863 0.418338 3.315429
1.432794 -2.378970 3.315429
-2.447734 -0.687177 3.315429
1.390638 -2.377964 3.315429
-2.467570 -0.622146 3.315429
1.435557 -2.377964 3.315429
-1.623629 2.408893 3.315429
-2.534053 -0.596365 3.315429
1.432794 -2.366720 3.315429
-1.575084 2.434277 3.315429
-2.571865 -0.557116 3.315429
1.497825 -2.328862 3.315429
-2.580814 -0.492086 3.315429
-1.558599 2.446834 3.315429
1.437052 -2.312933 3.315429
-2.469023 -0.620431 3.315429
-1.493568 2.484929 3.315429
-2.576838 -0.427056 3.315429
1.302733 -2.311161 3.315429
-2.580893 -0.362025 3.315429
-1.469809 2.499307 3.315429
1.367764 -2.301195 3.315429
-2.402917 -0.817237 3.315429
1.432794 -2.290038 3.315429
-1.428538 2.524583 3.315429
-1.363508 2.515587 3.315429
1.548871 -2.312933 3.315429
-0.973326 2.677709 3.315429
1.562855 -2.303073 3.315429
-0.931514 2.694398 3.315429
1.627885 -2.299209 3.315429
-0.908296 2.708092 3.315429
-0.843266 2.737021 3.315429
1.757946 -2.265510 3.315429
1.797061 -2.247903 3.315429
-0.778235 2.729144 3.315429
1.822976 -2.230274 3.315429
1.888006 -2.189371 3.315429
-2.859204 0.093187 3.294237
-2.859204 0.158217 3.258900
-1.753689 -2.312933 3.260814
-0.778235 2.759428 3.278105
2.213158 -1.987782 3.292119
-1.818720 -2.247903 3.251859
2.278188 -1.922752 3.278676
-1.883750 -1.857722 3.251460
0.197219 3.214640 3.286104
3.708854 -1.142389 3.287199
0.197219 -2.898206 3.289915
-1.948780 -1.857722 3.301991
2.993521 0.483368 3.250652
0.262249 -2.833176 3.291520
-1.948780 -1.662631 3.304786
0.457340 -2.833176 3.290438
-2.013811 -1.597600 3.292407
3.578794 -0.427056 3.261332
0.457340 -2.768146 3.289951
2.798430 0.938580 3.264290
3.643824 -0.427056 3.276073
2.798430 1.003611 3.287859
-2.403992 -0.817237 3.313375
-2.989265 0.548398 3.293129
-2.469023 -0.752207 3.276269
2.798430 1.133671 3.281370
-2.469023 -0.687177 3.271800
-2.859204 0.223247 3.251664
-2.469023 -0.622146 3.308198
-2.859204 0.288278 3.260939
0.522370 -2.833176 3.289213
2.863460 0.808520 3.286396
0.587400 -2.768146 3.291540
-1.493568 2.499307 3.282063
0.977582 -2.638085 3.291229
0.392310 3.214640 3.284513
1.107643 -2.377964 3.297253
-0.908296 2.694398 3.250662
-0.908296 2.759428 3.271286
1.172673 -2.377964 3.298666
1.432794 -2.377964 3.311634
1.497825 -2.312933 3.266496
1.627885 -2.312933 3.288242
1.757946 -2.312933 3.271877
1.822976 -2.247903 3.301901
-2.859204 0.084023 3.380460
-0.843266 2.777038 3.380460
-2.864962 0.093187 3.380460
-0.778235 2.782032 3.380460
1.913901 -2.182873 3.380460
-1.753689 -2.396351 3.380460
-0.713205 2.789728 3.380460
1.953036 -2.149453 3.380460
-2.824849 0.028156 3.380460
0.105839 3.149610 3.380460
-1.771725 -2.377964 3.380460
2.000504 -2.117843 3.380460
0.132189 3.174250 3.380460
-1.794440 -2.312933 3.380460
2.018066 -2.107200 3.380460
-2.895805 0.158217 3.380460
0.178149 3.214640 3.380460
-1.706739 -2.442994 3.380460
2.080875 -2.052813 3.380460
0.197219 3.226106 3.380460
2.083097 -2.050300 3.380460
-1.812483 -2.247903 3.380460
-1.882765 -1.922752 3.380460
2.148127 -1.989334 3.380460
-1.818720 -2.231353 3.380460
-1.883750 -1.915670 3.380460
2.152951 -1.987782 3.380460
-1.839206 -2.182873 3.380460
2.993521 0.521067 3.380460
2.213158 -1.973370 3.380460
2.985044 0.548398 3.380460
-1.856348 -2.117843 3.380460
2.278188 -1.953771 3.380460
0.197219 -2.937603 3.380460
3.027905 0.548398 3.380460
-1.883750 -2.067932 3.380460
0.258123 -2.898206 3.380460
3.788758 -1.272449 3.380460
3.838914 -1.225933 3.380460
0.262249 -2.895189 3.380460
3.838914 -1.187921 3.380460
-1.897008 -1.857722 3.380460
3.796178 -1.142389 3.380460
0.327280 -2.840955 3.380460
2.993521 0.555431 3.380460
-1.915962 -1.792691 3.380460
3.796384 -1.077358 3.380460
0.337264 -2.833176 3.380460
3.773884 -1.023389 3.380460
3.058551 0.555185 3.380460
-1.936585 -1.727661 3.380460
3.764699 -1.012328 3.380460
3.018556 0.613429 3.380460
0.392310 -2.803835 3.380460
-1.933898 -1.662631 3.380460
3.748840 -0.947298 3.380460
0.457340 -2.787647 3.380460
2.993521 0.671961 3.380460
3.737810 -0.882267 3.380460
-2.143871 -1.497848 3.380460
-2.150804 -1.467540 3.380460
2.986023 0.678459 3.380460
0.522370 -2.785465 3.380460
3.868726 -1.207419 3.380460
-2.166326 -1.402510 3.380460
0.573746 -2.768146 3.380460
3.162445 0.418338 3.380460
3.578794 -0.463368 3.380460
0.587400 -2.760375 3.380460
-2.078841 -1.610199 3.380460
3.541575 -0.427056 3.380460
3.136433 0.483368 3.380460
-2.095234 -1.597600 3.380460
3.448733 -0.383317 3.380460
0.652431 -2.734805 3.380460
3.123581 0.501842 3.380460
3.513763 -0.409861 3.380460
-2.013811 -1.613095 3.380460
0.711992 -2.703115 3.380460
3.076477 0.548398 3.380460
-2.127003 -1.532570 3.380460
3.643824 -0.615470 3.380460
3.611230 -0.557116 3.380460
3.648376 -0.622146 3.380460
0.977582 -2.640262 3.380460
-1.948780 -1.616522 3.380460
3.599536 -0.492086 3.380460
2.798430 1.118051 3.380460
1.042613 -2.652193 3.380460
2.792665 1.133671 3.380460
1.061003 -2.638085 3.380460
-2.190594 -1.337479 3.380460
2.749068 1.198701 3.380460
-2.924234 0.359141 3.380460
1.055665 -2.573055 3.380460
-2.208901 -1.281052 3.380460
-2.939186 0.418338 3.380460
-2.211612 -1.272449 3.380460
2.863460 0.867695 3.380460
1.086328 -2.508024 3.380460
-2.976498 0.483368 3.380460
2.818460 0.873550 3.380460
1.107643 -2.465843 3.380460
-2.989265 0.496252 3.380460
-2.273932 -1.123710 3.380460
-3.046474 0.548398 3.380460
2.886978 0.808520 3.380460
-2.322259 -1.077358 3.380460
1.172673 -2.444321 3.380460
2.833616 0.938580 3.380460
1.173929 -2.442994 3.380460
-2.905796 0.223247 3.380460
-2.338962 -1.042186 3.380460
2.810727 1.003611 3.380460
-2.351027 -1.012328 3.380460
-2.912537 0.288278 3.380460
1.176857 -2.377964 3.380460
2.803721 1.068641 3.380460
-2.923441 0.353308 3.380460
-2.262680 -1.142389 3.380460
1.237703 -2.324396 3.380460
-1.623629 2.390372 3.380460
-2.354360 -0.947298 3.380460
-1.568808 2.434277 3.380460
0.262249 3.230108 3.380460
-1.558599 2.442972 3.380460
-2.376226 -0.882267 3.380460
1.260975 -2.312933 3.380460
0.327280 3.233625 3.380460
-1.493568 2.484048 3.380460
1.432794 -2.321310 3.380460
-2.403992 -0.785505 3.380460
-1.428538 2.496449 3.380460
0.392310 3.247027 3.380460
1.394426 -2.312933 3.380460
-2.418128 -0.752207 3.380460
-1.412914 2.499307 3.380460
0.457340 3.260430 3.380460
1.464269 -2.312933 3.380460
-1.363508 2.508812 3.380460
-2.469023 -0.692310 3.380460
1.302733 -2.293882 3.380460
-2.472468 -0.687177 3.380460
-0.973326 2.683345 3.380460
1.367764 -2.282948 3.380460
-2.509875 -0.622146 3.380460
-0.945441 2.694398 3.380460
-0.908296 2.717741 3.380460
1.497825 -2.294720 3.380460
-2.534053 -0.582698 3.380460
-0.872387 2.759428 3.380460
-2.546170 -0.557116 3.380460
1.562855 -2.281888 3.380460
-2.580392 -0.492086 3.380460
1.627885 -2.294985 3.380460
-2.569608 -0.427056 3.380460
1.757946 -2.265399 3.380460
-2.585072 -0.362025 3.380460
1.790328 -2.247903 3.380460
-2.397675 -0.817237 3.380460
1.822976 -2.229995 3.380460
1.888006 -2.201554 3.380460
1.692915 -2.273557 3.380460
0.717461 -2.699380 3.380460
0.782491 -2.646763 3.380460
2.928491 0.756044 3.380460
0.795033 -2.638085 3.380460
2.946425 0.743489 3.380460
2.408248 -1.920507 3.380460
0.847522 -2.619986 3.380460
2.473279 -1.898489 3.380460
0.973616 -2.638085 3.380460
2.538309 -1.859001 3.380460
2.766990 1.263731 3.380460
0.912552 -2.613712 3.380460
2.775046 1.328762 3.380460
2.539968 -1.857722 3.380460
2.603339 -1.805419 3.380460
2.408248 2.118654 3.380460
2.358730 2.174156 3.380460
2.619003 -1.792691 3.380460
-2.599083 -0.325540 3.380460
2.343218 2.201540 3.380460
2.326128 2.239186 3.380460
2.668369 -1.758288 3.380460
-2.611542 -0.296995 3.380460
2.720110 -1.727661 3.380460
-2.627663 -0.231965 3.380460
2.304249 2.304216 3.380460
2.297410 2.369246 3.380460
2.733400 -1.719717 3.380460
2.788008 -1.662631 3.380460
2.798430 -1.650144 3.380460
-0.648175 2.810813 3.380460
-0.604887 2.824458 3.380460
-0.583144 2.832158 3.380460
-0.518114 2.858851 3.380460
-0.453084 2.885436 3.380460
-0.441770 2.889489 3.380460
-0.388054 2.904883 3.380460
-0.323023 2.916726 3.380460
2.213158 -1.987782 3.372217
-1.753689 -2.377964 3.337111
-0.843266 2.759428 3.343259
-1.883750 -1.922752 3.376420
-0.778235 2.759428 3.357254
3.838914 -1.207419 3.360480
0.327280 -2.833176 3.361112
3.708854 -1.142389 3.315790
-1.948780 -1.727661 3.316821
2.993521 0.548398 3.350495
0.457340 -2.768146 3.371659
3.773884 -1.077358 3.317411
-2.078841 -1.597600 3.358006
0.717461 -2.703115 3.371313
3.773884 -0.947298 3.357788
-2.013811 -1.597600 3.357851
1.042613 -2.638085 3.318371
2.798430 1.068641 3.325249
2.798430 1.133671 3.360456
1.107643 -2.508024 3.315845
2.798430 1.198701 3.323051
-2.273932 -1.142389 3.336771
1.172673 -2.442994 3.378311
1.107643 -2.377964 3.340452
3.643824 -0.427056 3.334039
1.172673 -2.377964 3.368536
-2.469023 -0.687177 3.317788
1.432794 -2.377964 3.339782
-2.469023 -0.622146 3.353234
-2.924234 0.418338 3.366376
1.432794 -2.312933 3.336706
1.497825 -2.312933 3.363518
-2.859204 0.223247 3.345526
-2.859204 0.288278 3.316591
-1.428538 2.499307 3.372492
-0.323023 -3.108410 3.380460
-1.888686 -2.052813 3.380460
-3.184355 0.872252 3.380460
-0.283597 -3.093297 3.380460
-2.794174 -0.167976 3.380460
-3.217589 0.938580 3.380460
3.368799 -1.402510 3.380460
-2.822977 -0.101904 3.380460
-0.192963 -3.074636 3.380460
-1.883750 -1.949556 3.380460
-3.094630 0.678459 3.380460
-2.664113 -0.200805 3.380460
-2.143871 2.164297 3.380460
-0.062902 -3.076998 3.380460
-3.162933 0.808520 3.380460
2.739151 1.458823 3.380460
-0.192963 2.985758 3.380460
1.837966 3.019549 3.380460
0.067158 -3.009754 3.380460
1.776378 3.149610 3.380460
-0.103342 3.019549 3.380460
2.757600 1.588883 3.380460
0.149551 -2.963236 3.380460
-3.287799 1.068641 3.380460
1.863111 3.279670 3.380460
-1.363508 -3.409935 3.380460
2.398989 -1.922752 3.380460
2.686328 1.718944 3.380460
3.448733 -1.305886 3.380460
-1.428246 -3.353418 3.380460
-3.314416 1.126885 3.380460
0.497018 3.279670 3.380460
-0.062902 3.034889 3.380460
-1.500661 -2.963236 3.380460
3.570855 -1.402510 3.380460
-3.353549 1.198701 3.380460
-1.462449 -3.223357 3.380460
0.587400 3.334975 3.380460
0.067158 3.122787 3.380460
-1.522172 -2.833176 3.380460
3.759114 -1.402510 3.380460
0.717461 3.408754 3.380460
-1.560860 -2.703115 3.380460
-1.483731 -3.093297 3.380460
2.928491 -1.602613 3.380460
2.538309 1.831785 3.380460
-1.623629 -2.517059 3.380460
0.718749 3.409731 3.380460
2.521853 1.849004 3.380460
-1.493568 -3.023635 3.380460
3.188612 0.286107 3.380460
3.058551 -1.595432 3.380460
0.847522 3.504990 3.380460
-1.592489 -2.573055 3.380460
2.458625 1.979064 3.380460
3.318672 0.031754 3.380460
3.187720 0.288278 3.380460
-3.417786 1.328762 3.380460
0.927232 3.539792 3.380460
-3.430850 1.458823 3.380460
-2.013811 2.153074 3.380460
0.977582 3.564668 3.380460
3.250729 0.158217 3.380460
-1.883750 2.214387 3.380460
1.107643 3.616115 3.380460
3.708854 -0.812479 3.380460
-3.418844 1.588883 3.380460
-1.233447 -3.468853 3.380460
2.668369 1.756371 3.380460
1.237703 3.654344 3.380460
3.684180 -0.752207 3.380460
-3.320560 1.718944 3.380460
-1.846572 2.239186 3.380460
3.188612 -1.569124 3.380460
-1.103387 -3.443827 3.380460
1.276514 3.669852 3.380460
3.266222 -1.532570 3.380460
2.421223 2.109125 3.380460
3.422244 -0.362025 3.380460
-0.973326 -3.454601 3.380460
-3.314416 1.722794 3.380460
1.367764 3.705077 3.380460
-1.753689 2.340685 3.380460
3.318672 -1.495412 3.380460
-0.843266 -3.411166 3.380460
1.497825 3.742163 3.380460
-1.681803 2.369246 3.380460
3.399540 -0.231965 3.380460
-3.184355 1.803196 3.380460
1.757946 3.652478 3.380460
3.578794 -1.414217 3.380460
3.354887 -0.101904 3.380460
-0.726995 -3.353418 3.380460
1.695432 3.669852 3.380460
-1.233447 2.550674 3.380460
-3.054295 1.830061 3.380460
3.708854 -1.447236 3.380460
-0.713205 -3.343247 3.380460
1.627885 3.704422 3.380460
2.278188 2.396980 3.380460
-1.104996 2.629367 3.380460
-0.583144 -3.301625 3.380460
-2.924234 1.825688 3.380460
3.321792 0.028156 3.380460
2.169106 2.499307 3.380460
-1.103387 2.630206 3.380460
1.888006 3.295408 3.380460
-0.537278 -3.223357 3.380460
2.018066 2.710307 3.380460
1.985253 2.759428 3.380460
1.948035 3.409731 3.380460
-0.453084 -3.142779 3.380460
-2.876454 1.849004 3.380460
-3.054295 0.564164 3.380460
2.148127 2.521157 3.380460
1.897642 3.539792 3.380460
-2.794174 1.895083 3.380460
2.073443 2.629367 3.380460
-2.664113 1.952735 3.380460
1.888006 3.557309 3.380460
1.914662 2.889489 3.380460
-2.534053 1.974263 3.380460
1.888006 2.943201 3.380460
-2.522647 1.979064 3.380460
-2.422302 2.109125 3.380460
-2.403992 2.128138 3.380460
-2.273932 2.197302 3.380460
-0.323023 -3.093297 3.370473
-3.054295 0.678459 3.250606
-1.883750 2.239186 3.274195
-2.664113 -0.231965 3.268389
-0.062902 -3.093297 3.252231
-1.493568 -2.963236 3.344651
0.067158 -2.963236 3.286451
2.668369 -1.792691 3.273363
2.798430 -1.662631 3.256508
2.798430 1.328762 3.286638
-2.924234 1.849004 3.256849
-1.623629 -2.573055 3.324188
0.717461 3.409731 3.378373
2.668369 1.718944 3.331445
-2.534053 1.979064 3.341990
2.408248 2.109125 3.369573
1.757946 3.669852 3.345861
2.278188 2.369246 3.255609
2.018066 3.409731 3.309498
2.148127 2.499307 3.275246
1.497825 -2.282041 3.445490
-1.753689 -2.371119 3.445490
3.058551 0.482773 3.445490
0.197219 -2.940387 3.445490
1.562855 -2.264938 3.445490
-1.809024 -2.312933 3.445490
0.262249 -2.914141 3.445490
3.056760 0.483368 3.445490
1.627885 -2.273217 3.445490
-1.688659 -2.418749 3.445490
0.293147 -2.898206 3.445490
3.058551 0.504085 3.445490
-1.741483 -2.377964 3.445490
1.692915 -2.257563 3.445490
0.327280 -2.877270 3.445490
3.058551 0.550864 3.445490
1.757946 -2.255593 3.445490
0.373484 -2.833176 3.445490
3.018405 0.613429 3.445490
-1.673206 -2.442994 3.445490
0.392310 -2.824100 3.445490
2.993521 0.671213 3.445490
2.411565 -1.922752 3.445490
-1.818720 -2.289371 3.445490
2.990537 0.678459 3.445490
0.457340 -2.792639 3.445490
3.123581 0.429676 3.445490
2.473279 -1.903890 3.445490
0.522370 -2.781579 3.445490
0.587400 -2.768878 3.445490
-1.830034 -2.247903 3.445490
3.130754 0.418338 3.445490
0.589701 -2.768146 3.445490
-1.851709 -2.182873 3.445490
2.533859 -1.857722 3.445490
3.059986 0.548398 3.445490
0.652431 -2.736673 3.445490
-1.862513 -2.117843 3.445490
2.538309 -1.854055 3.445490
-1.874308 -2.052813 3.445490
0.713966 -2.703115 3.445490
2.798430 1.113794 3.445490
2.599574 -1.792691 3.445490
2.790328 1.133671 3.445490
-1.948780 -1.802146 3.445490
0.717461 -2.700800 3.445490
2.603339 -1.786376 3.445490
-1.953305 -1.792691 3.445490
0.782491 -2.644263 3.445490
2.771285 1.198701 3.445490
2.668369 -1.737611 3.445490
0.793025 -2.638085 3.445490
-1.883750 -1.842145 3.445490
-1.948780 -1.762992 3.445490
2.928491 0.774638 3.445490
2.733400 -1.729839 3.445490
0.847522 -2.624264 3.445490
-1.942774 -1.727661 3.445490
2.909968 0.808520 3.445490
-1.948780 -1.702420 3.445490
0.912552 -2.612608 3.445490
2.749045 -1.727661 3.445490
-1.966046 -1.662631 3.445490
0.977582 -2.585532 3.445490
2.951435 0.743489 3.445490
2.798430 -1.710298 3.445490
0.992404 -2.573055 3.445490
-2.143871 -1.448044 3.445490
-2.165329 -1.402510 3.445490
2.875829 0.873550 3.445490
1.042613 -2.532373 3.445490
2.863460 -1.663987 3.445490
-2.013811 -1.633758 3.445490
1.073288 -2.508024 3.445490
2.880540 0.938580 3.445490
-2.065126 -1.597600 3.445490
2.865113 -1.662631 3.445490
1.107643 -2.477581 3.445490
-2.078841 -1.590681 3.445490
-2.137042 -1.532570 3.445490
1.172673 -2.452329 3.445490
3.766841 -1.272449 3.445490
-2.078841 -1.473655 3.445490
1.183744 -2.442994 3.445490
2.863460 0.966717 3.445490
3.773884 -1.254242 3.445490
-2.073865 -1.467540 3.445490
2.838253 1.003611 3.445490
1.218511 -2.377964 3.445490
-2.078841 -1.458705 3.445490
3.794805 -1.207419 3.445490
1.237703 -2.361333 3.445490
2.844094 1.068641 3.445490
3.795546 -1.142389 3.445490
-2.338962 -1.148148 3.445490
1.302733 -2.317532 3.445490
-2.346403 -1.142389 3.445490
1.309349 -2.312933 3.445490
3.787703 -1.077358 3.445490
2.751709 1.263731 3.445490
1.432794 -2.315248 3.445490
-2.273932 -1.178564 3.445490
1.427339 -2.312933 3.445490
3.773884 -1.013398 3.445490
2.750488 1.328762 3.445490
1.444035 -2.312933 3.445490
-2.338962 -1.138413 3.445490
3.773427 -1.012328 3.445490
1.367764 -2.292379 3.445490
-2.317998 -1.077358 3.445490
2.408248 2.124610 3.445490
-2.319557 -1.012328 3.445490
2.365221 2.174156 3.445490
3.513763 -0.499649 3.445490
-2.328896 -0.947298 3.445490
2.343218 2.204812 3.445490
3.505937 -0.492086 3.445490
-2.338962 -0.935642 3.445490
2.284462 2.239186 3.445490
-2.378954 -0.882267 3.445490
3.578794 -0.497278 3.445490
3.513763 -0.460867 3.445490
2.303382 2.304216 3.445490
-2.542661 -0.492086 3.445490
3.522449 -0.427056 3.445490
2.296533 2.369246 3.445490
-2.556199 -0.427056 3.445490
-2.591979 -0.362025 3.445490
3.448733 -0.366008 3.445490
3.513763 -0.408439 3.445490
-2.398945 -0.817237 3.445490
-2.403812 -0.752207 3.445490
3.637419 -0.622146 3.445490
3.606773 -0.557116 3.445490
-2.599083 -0.334363 3.445490
-2.607833 -0.296995 3.445490
-2.924234 0.356335 3.445490
-2.642667 -0.231965 3.445490
-2.961483 0.418338 3.445490
-2.989265 0.477840 3.445490
-1.865925 -1.922752 3.445490
-2.995615 0.483368 3.445490
-1.863429 -1.857722 3.445490
-2.924234 0.477341 3.445490
-2.974801 0.483368 3.445490
-3.021723 0.548398 3.445490
-2.924234 0.501976 3.445490
-2.922073 0.288278 3.445490
-2.920712 0.353308 3.445490
-2.906732 0.483368 3.445490
-0.713205 2.792968 3.445490
-0.648175 2.814219 3.445490
-0.583144 2.821650 3.445490
-0.577111 2.824458 3.445490
-0.518114 2.859714 3.445490
-0.480418 2.889489 3.445490
-0.453084 2.902423 3.445490
-0.388054 2.920536 3.445490
-0.323023 2.934757 3.445490
0.262249 -2.898206 3.387407
-1.753689 -2.377964 3.440955
3.058551 0.483368 3.400624
2.993521 0.548398 3.401244
-1.688659 -2.442994 3.419535
2.408248 -1.922752 3.430709
0.587400 -2.768146 3.430974
-1.818720 -2.247903 3.402447
2.538309 -1.857722 3.395646
3.123581 0.483368 3.397187
2.603339 -1.792691 3.424132
-1.883750 -2.052813 3.412143
0.977582 -2.638085 3.381681
2.733400 -1.727661 3.437187
-1.883750 -1.857722 3.401006
2.863460 0.873550 3.387524
2.798430 -1.662631 3.403139
-1.948780 -1.792691 3.440036
1.042613 -2.638085 3.395031
2.863460 0.938580 3.422404
1.042613 -2.573055 3.397192
-1.948780 -1.662631 3.426059
2.863460 -1.662631 3.444183
-2.143871 -1.467540 3.419779
3.773884 -1.272449 3.429558
-2.078841 -1.597600 3.382282
3.838914 -1.207419 3.403218
1.302733 -2.312933 3.408726
-2.078841 -1.467540 3.433213
3.513763 -0.492086 3.429757
3.578794 -0.492086 3.432210
-2.338962 -1.142389 3.423191
-2.273932 -1.142389 3.422196
3.643824 -0.622146 3.406020
-2.338962 -1.012328 3.395250
-2.989265 0.483368 3.420868
-2.338962 -0.947298 3.410196
-2.924234 0.483368 3.398995
-2.403992 -0.752207 3.394629
-0.583144 2.824458 3.395878
-0.453084 2.889489 3.395370
-1.753689 -2.359891 3.510520
0.197219 -2.928144 3.510520
1.497825 -2.286205 3.510520
3.058551 0.568474 3.510520
0.262249 -2.915362 3.510520
-1.795889 -2.312933 3.510520
1.562855 -2.273621 3.510520
3.023843 0.613429 3.510520
0.306009 -2.898206 3.510520
-1.688659 -2.422030 3.510520
1.627885 -2.260933 3.510520
2.993521 0.666797 3.510520
0.327280 -2.891086 3.510520
-1.734550 -2.377964 3.510520
2.986694 0.678459 3.510520
0.392310 -2.891140 3.510520
1.692915 -2.266122 3.510520
0.437375 -2.833176 3.510520
-1.668662 -2.442994 3.510520
3.123581 0.454113 3.510520
1.753479 -2.247903 3.510520
0.457340 -2.807939 3.510520
3.110787 0.483368 3.510520
-1.818720 -2.267943 3.510520
1.757946 -2.245237 3.510520
0.522370 -2.789548 3.510520
3.139163 0.418338 3.510520
-1.826653 -2.247903 3.510520
0.579926 -2.768146 3.510520
3.074798 0.548398 3.510520
0.587400 -2.764610 3.510520
-1.855639 -2.182873 3.510520
2.431212 -1.922752 3.510520
0.652431 -2.742832 3.510520
2.473279 -1.916806 3.510520
-1.858466 -2.117843 3.510520
2.733400 1.121456 3.510520
0.709479 -2.703115 3.510520
2.526236 -1.857722 3.510520
-1.861350 -2.052813 3.510520
2.722914 1.133671 3.510520
0.717461 -2.695183 3.510520
2.538309 -1.844585 3.510520
2.798430 1.076628 3.510520
0.782491 -2.649158 3.510520
-1.883750 -1.867445 3.510520
2.603339 -1.797769 3.510520
0.803038 -2.638085 3.510520
2.733400 1.137543 3.510520
-1.891943 -1.857722 3.510520
2.610341 -1.792691 3.510520
0.847522 -2.628112 3.510520
2.774354 1.198701 3.510520
0.912552 -2.651538 3.510520
-1.948780 -1.799971 3.510520
2.668369 -1.746994 3.510520
0.879321 -2.638085 3.510520
-1.954233 -1.792691 3.510520
2.928491 0.774002 3.510520
0.977582 -2.650021 3.510520
2.733400 -1.750696 3.510520
2.912971 0.808520 3.510520
0.977582 -2.605775 3.510520
-1.975797 -1.727661 3.510520
2.798430 -1.785175 3.510520
0.965908 -2.573055 3.510520
2.938983 0.743489 3.510520
-1.995236 -1.662631 3.510520
0.977582 -2.555392 3.510520
2.863460 -1.742827 3.510520
2.993521 0.802315 3.510520
0.991786 -2.638085 3.510520
-2.143871 -1.429984 3.510520
2.871610 -1.727661 3.510520
2.956969 0.808520 3.510520
1.042613 -2.527884 3.510520
-2.164038 -1.402510 3.510520
1.067206 -2.508024 3.510520
3.006083 0.808520 3.510520
2.913511 -1.662631 3.510520
-2.013811 -1.635618 3.510520
1.101870 -2.442994 3.510520
2.906498 0.873550 3.510520
-2.056589 -1.597600 3.510520
1.107643 -2.432774 3.510520
2.878843 0.938580 3.510520
-2.078841 -1.538901 3.510520
3.736582 -1.272449 3.510520
1.172673 -2.391023 3.510520
-2.080800 -1.532570 3.510520
3.769712 -1.207419 3.510520
1.237703 -2.382745 3.510520
2.993521 0.819761 3.510520
3.773884 -1.200269 3.510520
-2.121056 -1.467540 3.510520
1.249563 -2.377964 3.510520
2.863460 0.973530 3.510520
3.796629 -1.142389 3.510520
1.284710 -2.312933 3.510520
2.832912 1.003611 3.510520
-2.273932 -1.208174 3.510520
1.367764 -2.315550 3.510520
1.345717 -2.312933 3.510520
2.800771 1.068641 3.510520
3.791862 -1.077358 3.510520
-2.274403 -1.207419 3.510520
1.386089 -2.312933 3.510520
3.784689 -1.012328 3.510520
1.302733 -2.303216 3.510520
-2.316464 -1.142389 3.510520
2.753223 1.263731 3.510520
1.432794 -2.290902 3.510520
3.578794 -0.539008 3.510520
-2.338962 -1.100196 3.510520
2.733400 1.313449 3.510520
-2.346214 -1.077358 3.510520
2.726983 1.328762 3.510520
3.561924 -0.492086 3.510520
-2.343120 -1.012328 3.510520
3.527521 -0.427056 3.510520
2.408248 2.130256 3.510520
-2.340057 -0.947298 3.510520
2.366063 2.174156 3.510520
3.513763 -0.404996 3.510520
-2.375623 -0.882267 3.510520
2.343218 2.208282 3.510520
3.480971 -0.362025 3.510520
2.321764 2.239186 3.510520
-2.403992 -0.796218 3.510520
3.611586 -0.622146 3.510520
-2.421599 -0.752207 3.510520
2.284271 2.304216 3.510520
3.585015 -0.557116 3.510520
-2.534053 -0.388235 3.510520
2.295519 2.369246 3.510520
-2.566597 -0.362025 3.510520
-2.533104 -0.492086 3.510520
-2.953439 0.288278 3.510520
-2.501102 -0.427056 3.510520
-2.959444 0.353308 3.510520
-2.396916 -0.817237 3.510520
-2.966250 0.418338 3.510520
-2.593100 -0.296995 3.510520
-2.984624 0.483368 3.510520
-2.599083 -0.292639 3.510520
-2.989265 0.500143 3.510520
-2.659427 -0.231965 3.510520
-3.004577 0.548398 3.510520
-1.858751 -1.922752 3.510520
-0.713205 2.811666 3.510520
-0.691918 2.824458 3.510520
-0.648175 2.850194 3.510520
-0.583144 2.844151 3.510520
-0.518114 2.855214 3.510520
-0.472500 2.889489 3.510520
-0.484801 2.954519 3.510520
-0.453084 2.977078 3.510520
-0.323023 2.953842 3.510520
-0.336190 2.954519 3.510520
-0.388054 2.969843 3.510520
-2.013811 2.210266 3.510520
-1.948780 2.232978 3.510520
-2.452924 -0.687177 3.510520
-1.935448 2.239186 3.510520
-2.469023 -0.658174 3.510520
-1.883750 2.266522 3.510520
-2.490071 -0.622146 3.510520
-1.818720 2.303585 3.510520
-2.518530 -0.557116 3.510520
-1.817691 2.304216 3.510520
-1.753689 2.342200 3.510520
-1.705913 2.369246 3.510520
-1.688659 2.379219 3.510520
-1.623629 2.428976 3.510520
-0.817391 2.759428 3.510520
-0.778235 2.774199 3.510520
3.058551 0.483368 3.446218
1.757946 -2.247903 3.495604
0.392310 -2.833176 3.471765
2.603339 -1.792691 3.507396
0.587400 -2.768146 3.470129
2.733400 1.133671 3.492965
2.798430 -1.727661 3.460974
2.993521 0.808520 3.492281
-1.883750 -1.857722 3.503781
2.863460 -1.727661 3.488977
0.912552 -2.638085 3.462649
0.977582 -2.638085 3.475401
0.977582 -2.573055 3.483338
-1.948780 -1.727661 3.449510
3.773884 -1.207419 3.488282
2.733400 1.328762 3.490752
3.773884 -1.012328 3.448479
1.107643 -2.442994 3.498454
1.172673 -2.442994 3.462861
3.513763 -0.492086 3.490095
-2.078841 -1.467540 3.489407
1.237703 -2.377964 3.492541
3.448733 -0.362025 3.448972
1.302733 -2.312933 3.475568
1.367764 -2.312933 3.503484
-2.273932 -1.207419 3.508415
1.432794 -2.312933 3.450097
-2.924234 0.288278 3.449803
-2.338962 -1.142389 3.476735
-2.924234 0.353308 3.453464
-2.338962 -1.077358 3.487468
-2.989265 0.483368 3.494299
-2.338962 -1.012328 3.505026
-2.924234 0.483368 3.469996
-2.338962 -0.947298 3.508727
-0.648175 2.824458 3.475303
-2.403992 -0.752207 3.446664
-0.583144 2.824458 3.455687
-2.534053 -0.492086 3.502858
-2.534053 -0.427056 3.459620
-0.453084 2.954519 3.477218
-0.388054 2.954519 3.481731
-2.599083 -0.296995 3.474198
-0.323023 -3.151945 3.510520
-2.924234 0.155289 3.510520
3.711649 -1.402510 3.510520
-1.363508 -3.420941 3.510520
2.018066 -2.105481 3.510520
-1.409588 -3.353418 3.510520
-2.143871 2.192578 3.510520
-0.280812 -3.093297 3.510520
-0.192963 3.009477 3.510520
-2.924860 0.158217 3.510520
-3.184355 0.887763 3.510520
1.834502 3.019549 3.510520
2.082450 -2.052813 3.510520
2.668369 1.409366 3.510520
-3.211066 0.938580 3.510520
-0.062902 3.001560 3.510520
1.817215 3.149610 3.510520
2.148127 -1.990053 3.510520
-1.453226 -3.223357 3.510520
-3.087244 0.678459 3.510520
2.617916 1.458823 3.510520
-0.040423 3.019549 3.510520
1.873616 3.279670 3.510520
2.274149 -1.922752 3.510520
-3.154778 0.808520 3.510520
-2.794174 -0.114625 3.510520
1.874026 -2.182873 3.510520
0.067158 3.130987 3.510520
-2.802919 -0.101904 3.510520
-1.475326 -3.093297 3.510520
2.634442 1.588883 3.510520
-3.281751 1.068641 3.510520
-0.192963 -2.983602 3.510520
0.391604 3.279670 3.510520
-2.664113 -0.227653 3.510520
3.731586 -0.882267 3.510520
2.648898 1.718944 3.510520
-3.312783 1.198701 3.510520
0.085766 3.149610 3.510520
-1.493568 -3.013846 3.510520
1.888006 -2.172383 3.510520
2.408248 -1.923901 3.510520
-0.062902 -2.965065 3.510520
0.457340 3.290120 3.510520
0.197219 3.234841 3.510520
-2.882504 0.028156 3.510520
2.333470 -1.922752 3.510520
-1.504785 -2.963236 3.510520
2.538309 1.973097 3.510520
0.002336 -2.963236 3.510520
0.587400 3.339271 3.510520
-3.314416 1.200710 3.510520
2.531490 1.979064 3.510520
3.318672 -0.078605 3.510520
-3.407903 1.328762 3.510520
3.274917 0.028156 3.510520
2.626848 1.849004 3.510520
0.717461 3.406900 3.510520
-1.558028 -2.833176 3.510520
3.261380 0.158217 3.510520
-1.233447 -3.457139 3.510520
-3.415580 1.458823 3.510520
-1.493568 2.448861 3.510520
-1.103387 -3.462559 3.510520
-3.414337 1.588883 3.510520
-1.374883 2.499307 3.510520
-0.973326 -3.432649 3.510520
-3.348721 1.718944 3.510520
-1.580805 -2.703115 3.510520
2.278188 -1.921776 3.510520
3.212836 0.288278 3.510520
-0.843266 -3.409333 3.510520
-1.623629 -2.558952 3.510520
-3.314416 1.748302 3.510520
2.434758 2.109125 3.510520
0.721391 3.409731 3.510520
-1.619804 -2.573055 3.510520
-3.184355 1.830165 3.510520
3.188612 0.340188 3.510520
-0.746193 -3.353418 3.510520
-1.363508 2.505112 3.510520
-3.054295 1.808356 3.510520
0.847522 3.502012 3.510520
2.928491 -1.653520 3.510520
-0.713205 -3.324036 3.510520
3.708854 -0.769893 3.510520
-1.233447 2.542480 3.510520
-2.924234 1.805297 3.510520
-0.583144 -3.241584 3.510520
3.058551 -1.596738 3.510520
0.327280 3.269204 3.510520
0.067158 -2.961903 3.510520
3.703105 -0.752207 3.510520
-1.106112 2.629367 3.510520
-0.555390 -3.223357 3.510520
0.914298 3.539792 3.510520
-2.794174 1.836729 3.510520
-1.103387 2.630079 3.510520
3.188612 -1.561810 3.510520
-0.453084 -3.174169 3.510520
-2.775756 1.849004 3.510520
0.977582 3.569775 3.510520
-0.973326 2.715746 3.510520
3.318672 -1.552575 3.510520
-2.664113 1.931317 3.510520
2.278188 2.393764 3.510520
-2.238112 -1.272449 3.510520
1.107643 3.612438 3.510520
-0.843266 2.752544 3.510520
3.448733 -0.328627 3.510520
2.175931 2.499307 3.510520
-2.546526 1.979064 3.510520
1.237703 3.662385 3.510520
3.347664 -1.532570 3.510520
3.381028 -0.231965 3.510520
-2.534053 1.984719 3.510520
3.448733 -1.462268 3.510520
2.018066 2.741978 3.510520
1.251532 3.669852 3.510520
3.333207 -0.101904 3.510520
1.367764 3.718904 3.510520
1.497825 3.731352 3.510520
2.009397 2.759428 3.510520
-2.444735 2.109125 3.510520
3.578794 -1.468021 3.510520
-3.054295 0.638129 3.510520
1.627885 3.713002 3.510520
2.148127 2.530747 3.510520
3.708854 -1.408352 3.510520
-2.403992 2.150904 3.510520
1.757946 3.681313 3.510520
2.052740 2.629367 3.510520
-2.273932 2.191106 3.510520
1.888006 3.298513 3.510520
1.891987 2.889489 3.510520
1.917737 3.409731 3.510520
1.888006 2.895887 3.510520
1.888006 3.518486 3.510520
1.874906 3.539792 3.510520
1.770569 3.669852 3.510520
-1.883750 2.239186 3.461483
2.278188 -1.922752 3.508549
0.067158 -2.963236 3.508581
-3.314416 1.198701 3.487923
-2.924234 0.158217 3.477970
3.448733 -1.402510 3.458544
1.888006 -2.182873 3.478632
-0.062902 3.019549 3.434646
3.318672 0.028156 3.384964
2.668369 1.458823 3.472386
0.457340 3.279670 3.469535
2.668369 1.588883 3.463678
-0.843266 2.759428 3.509878
-2.794174 1.849004 3.486971
3.318672 -1.532570 3.455391
2.668369 1.718944 3.495920
3.188612 0.288278 3.382728
-2.534053 1.979064 3.499427
2.538309 1.849004 3.394662
1.757946 3.669852 3.501561
1.888006 3.539792 3.411891
2.863460 0.792827 3.575550
0.327280 -2.893676 3.575550
2.855147 0.808520 3.575550
2.523096 -1.792691 3.575550
-1.883750 -1.879061 3.575550
2.928491 0.765917 3.575550
0.392310 -2.873874 3.575550
2.538309 -1.786105 3.575550
-1.896047 -1.857722 3.575550
2.976384 0.678459 3.575550
0.457340 -2.849353 3.575550
2.938167 0.743489 3.575550
-1.918532 -1.792691 3.575550
2.603339 -1.800682 3.575550
2.863460 0.850284 3.575550
0.457340 -2.789063 3.575550
-1.948780 -1.747589 3.575550
2.870117 0.873550 3.575550
2.551648 -1.792691 3.575550
-1.965685 -1.727661 3.575550
0.447772 -2.768146 3.575550
2.863460 0.886435 3.575550
2.668369 -1.794053 3.575550
2.828427 0.938580 3.575550
2.669283 -1.792691 3.575550
0.457340 -2.763352 3.575550
-2.002583 -1.662631 3.575550
2.798430 -1.807216 3.575550
2.798430 0.965549 3.575550
0.473322 -2.833176 3.575550
2.785604 -1.792691 3.575550
-2.143871 -1.418764 3.575550
0.522370 -2.807209 3.575550
2.733400 -1.781330 3.575550
-2.155826 -1.402510 3.575550
2.733400 1.255454 3.575550
0.459342 -2.768146 3.575550
2.729078 1.263731 3.575550
-2.013811 -1.587205 3.575550
0.587400 -2.783869 3.575550
2.817455 -1.792691 3.575550
2.772635 1.198701 3.575550
-2.050627 -1.532570 3.575550
2.833833 -1.727661 3.575550
0.652431 -2.770580 3.575550
2.704612 1.328762 3.575550
2.863460 -1.704273 3.575550
-2.001333 -1.597600 3.575550
0.653368 -2.768146 3.575550
2.910049 -1.662631 3.575550
-2.078841 -1.496394 3.575550
0.652431 -2.764231 3.575550
2.408248 2.134186 3.575550
-2.114092 -1.467540 3.575550
0.641622 -2.703115 3.575550
2.376727 2.174156 3.575550
-2.013811 2.217767 3.575550
-1.954404 2.239186 3.575550
2.343218 2.219965 3.575550
0.652431 -2.684269 3.575550
-2.338962 -1.214380 3.575550
2.328304 2.239186 3.575550
-2.350132 -1.207419 3.575550
0.717461 -2.674986 3.575550
-1.948780 2.243737 3.575550
-2.273932 -1.215946 3.575550
-1.883750 2.269446 3.575550
0.782491 -2.652985 3.575550
-2.338962 -1.200317 3.575550
2.278188 2.286500 3.575550
0.805493 -2.638085 3.575550
-2.288145 -1.142389 3.575550
2.262901 2.304216 3.575550
0.847522 -2.613856 3.575550
-1.830477 2.304216 3.575550
2.248688 2.369246 3.575550
-2.334610 -1.077358 3.575550
0.912552 -2.599408 3.575550
-1.818720 2.314266 3.575550
0.971363 -2.573055 3.575550
-2.338962 -1.046923 3.575550
-1.753689 2.360103 3.575550
-2.344152 -1.012328 3.575550
-1.688659 2.368812 3.575550
0.977582 -2.568791 3.575550
-1.687703 2.369246 3.575550
-2.370022 -0.947298 3.575550
1.042613 -2.530742 3.575550
-1.623629 2.404975 3.575550
-2.273932 -1.001555 3.575550
1.077658 -2.508024 3.575550
-2.278092 -0.947298 3.575550
1.101106 -2.442994 3.575550
-0.809299 2.759428 3.575550
-2.376255 -0.882267 3.575550
1.172673 -2.444163 3.575550
-0.778235 2.774248 3.575550
-2.273932 -0.944441 3.575550
1.159002 -2.442994 3.575550
-0.713205 2.816876 3.575550
1.173862 -2.442994 3.575550
-2.272184 -0.947298 3.575550
-0.701782 2.824458 3.575550
-0.648175 2.860965 3.575550
1.107643 -2.436675 3.575550
-0.601512 2.889489 3.575550
-2.403992 -0.808648 3.575550
1.237703 -2.406499 3.575550
-0.583144 2.897104 3.575550
-2.427246 -0.752207 3.575550
-0.518114 2.885316 3.575550
-2.452090 -0.687177 3.575550
1.302733 -2.379855 3.575550
-0.577871 2.889489 3.575550
1.303001 -2.377964 3.575550
-2.469023 -0.632528 3.575550
-0.453084 2.866589 3.575550
-2.471259 -0.622146 3.575550
1.367764 -2.329415 3.575550
-0.435748 2.889489 3.575550
1.432794 -2.378574 3.575550
-0.388551 2.954519 3.575550
-2.509120 -0.557116 3.575550
1.431863 -2.377964 3.575550
-0.388054 2.954748 3.575550
-2.527041 -0.492086 3.575550
1.433862 -2.377964 3.575550
1.445148 -2.312933 3.575550
-0.323023 2.967761 3.575550
1.432794 -2.279361 3.575550
-2.534053 -0.464261 3.575550
1.409366 -2.247903 3.575550
3.058551 0.560302 3.575550
1.497825 -2.296763 3.575550
-2.546195 -0.427056 3.575550
3.021168 0.613429 3.575550
1.465953 -2.247903 3.575550
-2.588816 -0.362025 3.575550
2.993521 0.653909 3.575550
1.432794 -2.242758 3.575550
-2.400475 -0.817237 3.575550
1.562855 -2.271474 3.575550
2.781776 1.003611 3.575550
1.627885 -2.251835 3.575550
2.795766 1.068641 3.575550
-2.664113 -0.276648 3.575550
1.646297 -2.247903 3.575550
-2.689576 -0.231965 3.575550
2.774789 1.133671 3.575550
1.692915 -2.241643 3.575550
-2.599083 -0.330777 3.575550
1.757946 -2.227118 3.575550
-2.638822 -0.296995 3.575550
2.409782 -1.922752 3.575550
2.473279 -1.898872 3.575550
0.197219 -2.917755 3.575550
2.528082 -1.857722 3.575550
0.262249 -2.899725 3.575550
0.278768 -2.898206 3.575550
2.863460 0.808520 3.566045
0.457340 -2.833176 3.540633
2.993521 0.808520 3.549960
-1.948780 -1.792691 3.516261
0.457340 -2.768146 3.571335
2.538309 -1.792691 3.527984
2.863460 0.938580 3.535472
2.668369 -1.792691 3.572827
0.587400 -2.768146 3.529609
-2.013811 -1.597600 3.542346
2.798430 -1.792691 3.518683
-2.078841 -1.532570 3.512241
2.798430 1.003611 3.529984
0.652431 -2.768146 3.573759
2.798430 1.068641 3.532820
0.652431 -2.703115 3.552669
2.863460 -1.727661 3.575519
-2.338962 -1.207419 3.555399
2.733400 1.263731 3.561782
-2.338962 -1.077358 3.574828
0.912552 -2.638085 3.538499
-1.948780 2.239186 3.551406
0.977582 -2.638085 3.537764
-2.273932 -0.947298 3.555831
2.278188 2.304216 3.521698
1.172673 -2.442994 3.574574
-1.818720 2.304216 3.514785
2.278188 2.369246 3.541971
-1.688659 2.369246 3.573686
1.302733 -2.377964 3.574977
-2.534053 -0.427056 3.569117
1.302733 -2.312933 3.531230
1.432794 -2.377964 3.569897
-0.583144 2.889489 3.567847
-2.664113 -0.231965 3.523473
1.432794 -2.312933 3.571360
-2.599083 -0.296995 3.544229
-0.453084 2.889489 3.517343
1.432794 -2.247903 3.532198
-0.453084 2.954519 3.562907
1.692915 -2.247903 3.554560
-0.323023 2.954519 3.513439
2.733400 1.133671 3.545412
0.392310 -2.920876 3.640581
2.928491 0.713888 3.640581
2.538309 -1.868204 3.640581
2.908056 0.743489 3.640581
-1.883750 -1.893759 3.640581
2.562717 -1.857722 3.640581
0.387399 -2.898206 3.640581
2.863460 0.781715 3.640581
2.603339 -1.841305 3.640581
-1.909068 -1.857722 3.640581
2.850138 0.808520 3.640581
0.426368 -2.898206 3.640581
2.668369 -1.821113 3.640581
-1.936880 -1.792691 3.640581
0.327280 -2.893333 3.640581
2.954842 0.678459 3.640581
2.733400 -1.809702 3.640581
-2.013811 -1.683140 3.640581
0.457340 -2.863135 3.640581
2.860029 0.873550 3.640581
2.798430 -1.798945 3.640581
-2.043564 -1.662631 3.640581
2.850457 0.938580 3.640581
-1.948780 -1.779295 3.640581
2.806997 -1.792691 3.640581
0.500803 -2.833176 3.640581
-1.972343 -1.727661 3.640581
2.849984 -1.727661 3.640581
2.822850 1.003611 3.640581
0.522370 -2.822443 3.640581
2.863460 -1.709574 3.640581
-1.948780 -1.664949 3.640581
2.798430 1.063636 3.640581
2.907203 -1.662631 3.640581
-1.953068 -1.662631 3.640581
0.587400 -2.796650 3.640581
-1.947717 -1.662631 3.640581
0.638496 -2.768146 3.640581
-2.013811 2.211293 3.640581
2.733400 1.250506 3.640581
-1.972887 2.239186 3.640581
-2.143871 -1.420484 3.640581
0.652431 -2.750528 3.640581
2.726767 1.263731 3.640581
-2.175998 -1.402510 3.640581
-1.948780 2.257135 3.640581
0.708351 -2.703115 3.640581
2.750605 1.198701 3.640581
-1.883750 2.275932 3.640581
-2.031257 -1.597600 3.640581
2.669558 1.328762 3.640581
0.717461 -2.698180 3.640581
-2.046957 -1.532570 3.640581
-1.837856 2.304216 3.640581
-1.818720 2.320952 3.640581
-1.948780 -1.661048 3.640581
0.782491 -2.652693 3.640581
-1.753689 2.345973 3.640581
2.408248 2.138406 3.640581
0.808074 -2.638085 3.640581
-1.688659 2.354649 3.640581
-2.070102 -1.467540 3.640581
2.368371 2.174156 3.640581
-1.628347 2.369246 3.640581
-2.078841 -1.459717 3.640581
0.847522 -2.623697 3.640581
2.343218 2.211063 3.640581
-1.623629 2.370561 3.640581
2.327906 2.239186 3.640581
0.912552 -2.609344 3.640581
-2.273932 -1.219303 3.640581
0.977582 -2.575252 3.640581
-0.799287 2.759428 3.640581
-2.281941 -1.207419 3.640581
-0.778235 2.771431 3.640581
2.278188 2.287210 3.640581
0.983789 -2.573055 3.640581
-0.713205 2.807631 3.640581
-2.317699 -1.142389 3.640581
2.261052 2.304216 3.640581
-0.697174 2.824458 3.640581
1.042613 -2.532703 3.640581
-0.648175 2.888811 3.640581
2.220403 2.369246 3.640581
-2.333113 -1.077358 3.640581
-0.645516 2.889489 3.640581
1.065183 -2.508024 3.640581
-2.338962 -1.053119 3.640581
-0.583144 2.901934 3.640581
1.107643 -2.478137 3.640581
-2.348922 -1.012328 3.640581
-0.518114 2.911940 3.640581
-0.453084 2.918096 3.640581
1.172673 -2.447613 3.640581
-2.366973 -0.947298 3.640581
-0.388054 2.936829 3.640581
1.237703 -2.447554 3.640581
-0.363699 2.954519 3.640581
-2.385476 -0.882267 3.640581
-0.323023 2.982132 3.640581
1.245503 -2.442994 3.640581
-2.403992 -0.832070 3.640581
3.058551 0.549235 3.640581
-2.409009 -0.817237 3.640581
3.012223 0.613429 3.640581
1.302733 -2.402024 3.640581
-2.452516 -0.752207 3.640581
2.993521 0.635588 3.640581
1.339792 -2.377964 3.640581
-2.469023 -0.693562 3.640581
-2.469574 -0.687177 3.640581
2.796531 1.068641 3.640581
1.367764 -2.352055 3.640581
2.771680 1.133671 3.640581
-2.482561 -0.622146 3.640581
1.432794 -2.314649 3.640581
-2.534053 -0.519463 3.640581
1.439166 -2.312933 3.640581
-2.540441 -0.492086 3.640581
-2.513258 -0.557116 3.640581
1.497825 -2.303142 3.640581
-2.534053 -0.462626 3.640581
1.562855 -2.284606 3.640581
-2.599083 -0.389357 3.640581
-2.617485 -0.362025 3.640581
1.627885 -2.257772 3.640581
-2.534053 -0.395988 3.640581
1.692915 -2.253387 3.640581
-2.514463 -0.427056 3.640581
1.707126 -2.247903 3.640581
1.757946 -2.206718 3.640581
-2.729144 -0.303233 3.640581
-2.736261 -0.296995 3.640581
2.408248 -1.908952 3.640581
-2.692934 -0.296995 3.640581
2.473279 -1.889484 3.640581
-2.729144 -0.274936 3.640581
-2.664113 -0.290498 3.640581
-2.718157 -0.231965 3.640581
-2.656403 -0.296995 3.640581
0.197219 -2.909592 3.640581
0.262249 -2.898449 3.640581
0.262821 -2.898206 3.640581
-1.298477 -3.438698 3.640581
-1.337426 -3.418448 3.640581
1.977541 -2.182873 3.640581
-1.233447 -3.458625 3.640581
2.018066 -2.131159 3.640581
-1.363508 -3.403103 3.640581
-1.168417 -3.471900 3.640581
2.034705 -2.117843 3.640581
-1.103387 -3.482712 3.640581
2.083097 -2.084698 3.640581
-0.192963 -2.986192 3.640581
-0.127933 -2.970630 3.640581
2.118091 -2.052813 3.640581
-0.085412 -2.963236 3.640581
2.148127 -2.028935 3.640581
-0.062902 -2.961080 3.640581
2.213158 -1.996150 3.640581
1.888006 -2.188066 3.640581
0.002128 -2.960365 3.640581
2.229661 -1.987782 3.640581
1.953036 -2.203158 3.640581
0.067158 -2.950392 3.640581
2.278188 -1.960399 3.640581
0.132189 -2.930291 3.640581
2.343218 -1.931274 3.640581
2.367754 -1.922752 3.640581
-2.952838 0.418338 3.640581
-2.188689 -1.337479 3.640581
-2.967346 0.483368 3.640581
-2.208901 -1.329117 3.640581
-2.988443 0.548398 3.640581
-2.240045 -1.272449 3.640581
-2.989265 0.549816 3.640581
-3.024486 0.613429 3.640581
-3.050845 0.678459 3.640581
-1.558599 2.390226 3.640581
-1.493568 2.398022 3.640581
-1.471067 2.434277 3.640581
-1.428538 2.460871 3.640581
-1.390960 2.499307 3.640581
-1.363508 2.519649 3.640581
0.392310 -2.898206 3.618739
2.928491 0.743489 3.598984
-2.013811 -1.662631 3.592975
0.457340 -2.768146 3.581360
2.538309 -1.792691 3.585262
2.863460 0.873550 3.587724
-1.948780 -1.662631 3.580796
2.538309 -1.857722 3.595003
-2.013811 -1.597600 3.610998
2.798430 1.003611 3.618705
0.652431 -2.768146 3.577169
-2.078841 -1.467540 3.622432
2.733400 -1.792691 3.603446
0.652431 -2.703115 3.625555
-2.338962 -1.207419 3.601236
-2.273932 -0.947298 3.582809
0.977582 -2.573055 3.622589
1.107643 -2.442994 3.585485
-2.403992 -0.817237 3.594146
1.237703 -2.442994 3.625927
-0.518114 2.889489 3.581595
-2.469023 -0.687177 3.637872
-0.453084 2.889489 3.601244
1.432794 -2.377964 3.593426
-2.534053 -0.492086 3.617290
-0.388054 2.954519 3.575956
-2.534053 -0.427056 3.613607
1.432794 -2.247903 3.589956
-2.599083 -0.362025 3.602105
1.692915 -2.247903 3.636163
2.408248 -1.922752 3.576719
-2.729144 -0.296995 3.624651
-1.883750 -2.216529 3.640581
-3.184355 0.801075 3.640581
3.711519 -1.402510 3.640581
-1.493568 -2.889772 3.640581
-1.912364 -2.182873 3.640581
-2.794174 -0.114586 3.640581
3.763925 -1.272449 3.640581
-1.508092 -2.833176 3.640581
-2.403992 2.087698 3.640581
-2.804586 -0.101904 3.640581
-1.887955 -2.052813 3.640581
2.928491 -1.647252 3.640581
-3.188076 0.808520 3.640581
3.794429 -1.142389 3.640581
2.003479 2.759428 3.640581
-1.883750 -1.954424 3.640581
-2.386961 2.109125 3.640581
3.058551 -1.607398 3.640581
-3.286184 0.938580 3.640581
-2.882512 0.028156 3.640581
2.668369 1.329762 3.640581
-2.273932 2.156537 3.640581
-1.472698 -2.963236 3.640581
-3.054295 0.682296 3.640581
3.188612 -1.599707 3.640581
-1.414002 -3.353418 3.640581
1.898811 2.889489 3.640581
-2.143871 2.210686 3.640581
-1.522005 -2.703115 3.640581
3.318672 -1.578918 3.640581
-3.295147 1.068641 3.640581
-1.429346 -3.223357 3.640581
2.598966 1.458823 3.640581
-2.896385 0.158217 3.640581
1.888006 2.901402 3.640581
3.803336 -1.012328 3.640581
-0.192963 3.015126 3.640581
-1.452208 -3.093297 3.640581
-3.314416 1.116299 3.640581
1.805037 3.019549 3.640581
2.538309 1.652610 3.640581
3.719236 -0.882267 3.640581
3.448733 -1.540171 3.640581
-0.062902 3.018655 3.640581
-3.343926 1.198701 3.640581
2.536342 1.718944 3.640581
-1.872496 -1.922752 3.640581
1.801824 3.149610 3.640581
3.470981 -1.532570 3.640581
-1.623629 -2.450653 3.640581
-0.973326 -3.461398 3.640581
-0.843266 -3.373764 3.640581
2.564311 1.588883 3.640581
-0.810133 -3.353418 3.640581
2.538309 1.722434 3.640581
-1.233447 2.565081 3.640581
-0.060263 3.019549 3.640581
-0.713205 -3.290573 3.640581
-1.627526 -2.442994 3.640581
2.622163 1.849004 3.640581
-2.924234 0.276530 3.640581
-0.615159 -3.223357 3.640581
-1.122610 2.629367 3.640581
2.564190 1.979064 3.640581
1.867696 3.279670 3.640581
0.066212 3.149610 3.640581
-1.103387 2.636005 3.640581
3.578794 -1.486209 3.640581
-0.583144 -3.206985 3.640581
0.067158 3.150267 3.640581
-0.973326 2.706861 3.640581
0.197219 3.201361 3.640581
2.538309 2.016128 3.640581
0.355328 3.279670 3.640581
-3.389083 1.328762 3.640581
-0.453084 -3.155908 3.640581
3.708854 -1.406736 3.640581
0.457340 3.323005 3.640581
3.318672 -0.030046 3.640581
-3.403836 1.458823 3.640581
-1.589424 -2.573055 3.640581
-0.843266 2.741226 3.640581
-0.323023 -3.119217 3.640581
0.587400 3.398818 3.640581
3.188612 0.279899 3.640581
-3.402648 1.588883 3.640581
3.281655 0.028156 3.640581
3.185144 0.288278 3.640581
0.625812 3.409731 3.640581
-3.348868 1.718944 3.640581
3.238606 0.158217 3.640581
2.435497 2.109125 3.640581
0.717461 3.434398 3.640581
-3.314416 1.753581 3.640581
-1.753689 -2.341066 3.640581
-0.295188 -3.093297 3.640581
3.708854 -0.860243 3.640581
-3.195933 1.849004 3.640581
-1.788602 -2.312933 3.640581
3.101106 0.418338 3.640581
0.847522 3.522120 3.640581
0.327280 3.268810 3.640581
-3.184355 1.851112 3.640581
3.680579 -0.752207 3.640581
3.059027 0.548398 3.640581
-3.054295 1.823922 3.640581
0.877441 3.539792 3.640581
0.977582 3.578222 3.640581
3.592709 -0.622146 3.640581
1.107643 3.624387 3.640581
2.152875 2.499307 3.640581
1.237703 3.647620 3.640581
3.578794 -0.542260 3.640581
-3.182259 1.849004 3.640581
3.571246 -0.492086 3.640581
2.018066 2.732985 3.640581
3.520914 -0.362025 3.640581
-2.924234 1.797984 3.640581
1.316129 3.669852 3.640581
2.148127 2.505439 3.640581
3.448733 -0.261004 3.640581
1.367764 3.695165 3.640581
-2.794174 1.814261 3.640581
3.427868 -0.231965 3.640581
2.063275 2.629367 3.640581
-2.723985 1.849004 3.640581
1.497825 3.773995 3.640581
3.355014 -0.101904 3.640581
-2.664113 1.938984 3.640581
-2.614800 1.979064 3.640581
1.627885 3.789903 3.640581
-2.534053 1.997142 3.640581
-2.927433 0.288278 3.640581
1.757946 3.695982 3.640581
1.888006 3.335478 3.640581
1.912221 3.409731 3.640581
1.894248 3.539792 3.640581
1.888006 3.550493 3.640581
1.784716 3.669852 3.640581
-1.883750 -2.182873 3.579100
-2.924234 0.158217 3.523864
-1.493568 -2.963236 3.548985
2.278188 -1.922752 3.566369
-3.184355 0.808520 3.624579
-1.883750 -2.052813 3.634419
-3.054295 0.678459 3.569067
1.888006 -2.182873 3.618698
-2.403992 2.109125 3.624258
-3.314416 1.198701 3.539250
0.067158 3.149610 3.527412
2.538309 1.718944 3.638323
-0.062902 -2.963236 3.529579
-0.583144 -3.223357 3.574811
0.717461 3.409731 3.534504
3.448733 -1.532570 3.606409
2.538309 1.979064 3.518039
3.188612 0.288278 3.631420
-3.184355 1.849004 3.578793
1.888006 3.539792 3.610578
1.966046 -2.182873 3.705611
2.018066 -2.131121 3.705611
-0.562145 2.889489 3.705611
-2.395483 -0.882267 3.705611
2.036393 -2.117843 3.705611
-0.518114 2.907106 3.705611
-1.103387 -3.483672 3.705611
-2.403992 -0.853115 3.705611
2.083097 -2.095225 3.705611
-0.453084 2.929308 3.705611
-1.118854 -3.483479 3.705611
2.143641 -2.052813 3.705611
-2.403992 -0.785124 3.705611
