-1.649703 1.795670 3.946589
-1.610515 1.757026 4.376039
-1.408184 1.558263 4.869399
-1.274901 1.427370 5.104534
-1.123677 1.278389 6.437887
-1.097045 1.252037 6.933667
-1.208267 1.361096 7.121671
-1.177420 1.330580 7.680030
-1.234328 1.386384 7.772886
-1.175977 1.328977 8.106555
-1.050649 1.205856 8.418878
-0.847499 1.006348 8.780427
-0.657152 0.819430 9.080259
-0.005327 0.201507 0.848732
-0.951054 1.303921 0.124309
-1.081929 1.456301 0.394399
-1.055004 1.424775 0.707356
-1.009768 1.371878 1.086398
-1.571593 2.025485 3.357320
-1.580326 2.035548 3.592179
-1.525277 1.971161 4.085247
-1.460934 1.896055 4.348589
-1.321531 1.733464 4.644379
-1.245581 1.644799 4.976221
-1.005649 1.364977 5.445612
-0.881028 1.219784 5.387274
-0.880934 1.219352 6.054049
-1.028184 1.390804 6.344320
-1.039472 1.403815 6.641951
-1.045297 1.410255 7.363334
-1.041207 1.405283 7.790580
-1.051227 1.416787 8.150142
-0.957238 1.307175 8.327854
-0.947142 1.295377 8.395399
-0.761805 1.079229 8.755413
-0.939849 1.526427 0.438456
-0.879355 1.441983 0.882967
-0.875632 1.436539 1.369364
-1.422246 2.196255 3.493243
-1.303342 2.030468 4.013605
-1.357405 2.105701 4.051315
-1.230498 1.928737 4.638804
-1.161479 1.832647 4.672538
-0.973543 1.570712 5.300993
-0.849522 1.398078 5.306664
-0.786062 1.309564 5.642906
-0.901363 1.469669 6.363027
-0.934236 1.515339 6.526214
-0.945635 1.531047 6.821349
-0.948202 1.534427 7.181779
-0.904382 1.473060 7.873168
-0.913684 1.486042 7.808755
-0.838978 1.381767 8.343759
-0.764033 1.277387 8.457391
-0.638848 1.102856 8.976476
-0.500100 0.909637 9.141891
-0.771824 1.544322 0.122181
-0.729591 1.473057 0.745647
-0.709408 1.438843 1.300480
-0.724100 1.463393 1.478214
-0.693645 1.412046 1.855669
-1.193319 2.249894 3.134905
-1.199534 2.260182 3.369449
-1.141814 2.162965 3.927308
-1.113906 2.115862 4.355196
-1.028696 1.972749 4.519060
-0.873586 1.712075 5.080265
-0.801751 1.591447 5.183301
-0.756361 1.515102 5.451854
-0.708161 1.433817 6.084720
-0.765055 1.529105 6.411368
-0.774438 1.544671 6.707921
-0.804138 1.594418 6.870607
-0.806634 1.598387 7.231548
-0.777103 1.548439 7.857062
-0.760126 1.519862 7.992733
-0.719496 1.451466 8.328636
-0.638319 1.315069 8.576847
-0.472336 1.036141 9.145140
-0.307607 0.759617 9.225594
-0.606832 1.527426 0.064880
-0.592840 1.498181 1.048106
-0.604191 1.521037 1.469614
-0.644021 1.602084 1.755646
-0.978735 2.283608 3.554413
-0.963520 2.252312 3.917161
-0.982483 2.290876 4.084487
-0.887126 2.095931 4.671963
-0.835117 1.989811 4.705573
-0.711139 1.736758 4.904681
-0.609886 1.529942 5.273054
-0.627283 1.565053 5.802821
-0.675001 1.662163 6.129700
-0.648102 1.606891 6.691295
-0.641475 1.593066 7.119048
-0.660321 1.631350 7.346203
-0.679901 1.671130 7.572433
-0.635884 1.581051 7.972971
-0.587497 1.482009 8.441579
-0.511791 1.327347 8.756749
-0.449747 1.200649 8.939829
-0.490336 1.616015 -0.025196
-0.503518 1.649465 0.577831
-0.500705 1.642000 0.824723
-0.486753 1.605563 1.379512
-0.475387 1.576001 1.691354
-0.433734 1.468209 2.203195
-0.696313 2.143709 3.594181
-0.738727 2.253039 3.569521
-0.708098 2.173673 4.065860
-0.663618 2.058754 4.396818
-0.603437 1.903514 4.562801
-0.518616 1.684598 4.929587
-0.469771 1.558369 5.331944
-0.518893 1.684478 5.892472
-0.516488 1.677963 6.256808
-0.508764 1.657683 6.686619
-0.516355 1.676992 6.982427
-0.506044 1.649988 7.476561
-0.528482 1.707677 7.637239
-0.492550 1.614725 8.039030
-0.458537 1.526719 8.442100
-0.412156 1.407087 8.556930
-0.335161 1.208208 9.077500
-0.223611 0.920716 9.088640
-0.377131 1.750626 0.442086
-0.348033 1.650190 0.888170
-0.329318 1.585490 1.267619
-0.311902 1.525250 1.646784
-0.305285 1.501903 2.199272
-0.340358 1.622116 2.415144
-0.467582 2.057629 3.687995
-0.486182 2.121390 3.793328
-0.463631 2.043382 4.291572
-0.403662 1.837088 4.590808
-0.325544 1.568231 5.093572
-0.359727 1.685331 5.360344
-0.376883 1.743732 5.823985
-0.342396 1.624839 6.226763
-0.336289 1.603377 6.658621
-0.374258 1.733491 6.914699
-0.390845 1.790276 7.076093
-0.361093 1.687647 7.476561
-0.346502 1.636834 8.102001
-0.346364 1.636356 8.104083
-0.320398 1.546727 8.506570
-0.249201 1.301953 8.734089
-0.166947 1.018967 9.169528
-0.200496 1.644121 0.490091
-0.204160 1.661678 0.914192
-0.184701 1.563723 1.607083
-0.178993 1.534816 1.919413
-0.186409 1.571061 2.337396
-0.200329 1.639789 2.686202
-0.253997 1.904508 4.186230
-0.239438 1.831723 4.388870
-0.216580 1.716949 5.023579
-0.231936 1.792737 5.423219
-0.237773 1.821415 5.657125
-0.225150 1.758267 5.860298
-0.219835 1.731127 6.292375
-0.219441 1.728582 6.657012
-0.209288 1.677156 7.220192
-0.226837 1.763776 7.673805
-0.223349 1.746300 7.744375
-0.210307 1.680961 8.014579
-0.157933 1.419145 8.732084
-0.149456 1.376634 8.935563
-0.050091 1.584371 0.182229
-0.059015 1.662858 0.474468
-0.064681 1.712204 0.831481
-0.053756 1.613187 1.519405
-0.054018 1.614147 2.008652
-0.049076 1.568491 2.625337
-0.058844 1.653659 3.209620
-0.065015 1.707346 3.619386
-0.080110 1.840906 3.827446
-0.060747 1.667521 4.296235
-0.068495 1.735238 4.699982
-0.071869 1.763729 5.233627
-0.077484 1.813154 5.401455
-0.073820 1.779375 5.833840
-0.077531 1.811705 6.066207
-0.070643 1.748917 6.629489
-0.068910 1.732311 7.059028
-0.067850 1.721682 7.487474
-0.071100 1.749736 7.781753
-0.067359 1.716113 7.918381
-0.051694 1.575206 8.522235
-0.040685 1.477427 8.504008
-0.021556 1.306540 8.822566
0.086069 1.567783 -0.011298
0.083956 1.644255 0.283480
0.088291 1.467487 1.353954
0.088121 1.468136 1.840919
0.084044 1.620613 1.990922
0.083622 1.630862 2.472978
0.084391 1.594477 3.085899
0.082199 1.673364 3.429147
0.079259 1.781338 3.703625
0.082501 1.654669 4.038865
0.083759 1.601880 4.476041
0.076161 1.884644 4.877281
0.077669 1.821664 5.375552
0.077898 1.808641 5.740519
0.081574 1.663985 6.208538
0.081542 1.660890 6.572667
0.078841 1.758434 6.962441
0.077679 1.799712 7.190591
0.079035 1.745987 7.392409
0.079054 1.740215 7.818622
0.081496 1.643046 8.220740
0.083050 1.581017 8.490384
0.089353 1.340591 8.650928
0.097035 1.044715 9.086103
0.108452 0.611146 9.216105
0.211116 1.496923 0.105812
0.210868 1.497649 1.023967
0.208736 1.462561 1.580185
0.215415 1.583533 1.799288
0.210541 1.498653 2.244260
0.211158 1.512449 2.727261
0.220428 1.680770 3.108380
0.217503 1.632128 3.781773
0.219842 1.675014 3.951152
0.218094 1.645758 4.319666
0.224472 1.763282 4.886260
0.226133 1.796044 5.415445
0.224889 1.774121 5.482577
0.219492 1.680917 6.111741
0.222523 1.736173 6.274460
0.224496 1.772821 6.502874
0.223377 1.755168 6.929486
0.221595 1.726001 7.421492
0.225006 1.788049 7.580208
0.215693 1.624846 8.246272
0.212189 1.563533 8.514141
0.200932 1.364259 8.963154
0.192321 1.211306 9.213712
0.350168 1.570037 0.360376
0.344300 1.529158 0.674214
0.347116 1.550065 1.096895
0.338047 1.487193 1.717886
0.342797 1.521791 2.135762
0.348311 1.561793 2.551205
0.366105 1.688363 2.764343
0.357925 1.631916 3.441119
0.376526 1.764192 3.649442
0.348210 1.564749 4.184825
0.354147 1.607879 4.655662
0.383826 1.818855 4.956403
0.381193 1.801020 5.322216
0.370319 1.725231 5.886244
0.358689 1.643429 6.154924
0.355337 1.620646 6.585686
0.376731 1.772667 6.776259
0.367124 1.706000 7.402795
0.364581 1.688137 7.471884
0.363798 1.683542 7.898111
0.345909 1.557986 8.434011
0.343693 1.542438 8.503437
0.307981 1.289895 8.731456
0.469507 1.467042 0.500596
0.480786 1.516367 0.857249
0.472131 1.479674 1.412223
0.465679 1.452510 1.964906
0.459910 1.427970 2.275140
0.481905 1.523583 2.556423
0.506873 1.632399 3.073276
0.524476 1.709087 3.415834
0.504787 1.624548 3.919682
0.476209 1.501715 4.556947
0.544931 1.799286 4.593393
0.540803 1.782336 5.257012
0.511207 1.654766 5.657760
0.532449 1.746774 5.690784
0.507620 1.640252 6.386934
0.524609 1.713939 6.484206
0.507912 1.642531 7.112031
0.521428 1.701267 7.272780
0.508412 1.645788 7.897592
0.497353 1.598190 8.099138
0.483105 1.536882 8.367751
0.450784 1.397207 8.548283
0.412179 1.230513 8.865244
0.599459 1.440615 0.459307
0.574601 1.364601 1.330901
0.611322 1.478428 1.550966
0.621167 1.509314 1.969548
0.598056 1.438512 2.652764
0.637456 1.560620 2.865998
0.652595 1.607875 3.277048
0.624965 1.522914 3.782815
0.599896 1.445874 4.288455
0.649780 1.600646 4.725959
0.672346 1.670864 5.126523
0.687440 1.717732 5.294265
0.676417 1.684070 5.726269
0.673511 1.675453 6.091081
0.648216 1.597840 6.720652
0.671696 1.670578 6.817720
0.656370 1.623739 7.378649
0.654349 1.617921 7.805639
0.654089 1.617121 7.809014
0.619158 1.509537 8.278586
0.565479 1.343792 8.594407
0.508452 1.167765 8.980695
0.678456 1.286529 0.679390
0.675661 1.280078 0.927532
0.661212 1.246134 1.485348
0.661907 1.248186 1.973618
0.709764 1.362283 2.191167
0.693181 1.323308 2.808376
0.737714 1.429738 3.325599
0.722915 1.394813 3.699755
0.673544 1.277560 4.038645
0.717220 1.381753 4.312227
0.835438 1.663683 4.948384
0.836711 1.666958 5.249252
0.847492 1.692811 5.483064
0.797651 1.574492 5.884687
0.779316 1.531248 6.383036
0.771363 1.512665 6.813974
0.831157 1.655159 7.004398
0.755954 1.476734 7.739271
0.793135 1.565268 7.767475
0.754993 1.474797 8.170731
0.730598 1.416944 8.441579
0.625786 1.167680 8.737774
0.560011 1.011364 9.059090
0.781542 1.227682 0.219998
0.741139 1.150531 1.097134
0.739429 1.147573 1.587018
0.768167 1.203115 1.940026
0.811902 1.287467 2.223855
0.830906 1.324320 2.639441
0.803194 1.271456 3.320046
0.876375 1.412376 3.462987
0.781792 1.230736 4.001154
0.920201 1.497718 4.943602
0.932118 1.520809 5.178114
0.914959 1.488085 5.611012
0.872633 1.407067 6.242908
0.889081 1.438875 6.474297
0.880335 1.422338 6.904512
0.927083 1.512560 7.292752
0.910497 1.480736 7.428764
0.900320 1.461489 7.922020
0.855961 1.376402 8.324986
0.841501 1.348670 8.461673
0.742248 1.158029 8.979973
0.645185 0.971271 9.010129
0.848815 1.102896 0.350153
0.857597 1.117021 0.776719
0.820837 1.059171 1.159202
0.851558 1.107914 1.515019
0.852897 1.110315 2.003024
0.919184 1.215166 2.220193
0.896737 1.180065 2.837181
0.894783 1.177299 3.384456
0.938472 1.246522 3.727964
0.857357 1.118613 4.133889
0.931092 1.235222 4.339926
1.056461 1.433600 4.876663
1.057947 1.436124 5.178114
0.992859 1.333707 5.877777
0.999584 1.344506 6.177303
1.039491 1.407612 6.276278
0.977982 1.310885 7.039939
1.051859 1.427749 7.295347
0.995938 1.339639 7.698136
1.047303 1.420803 7.726210
0.969281 1.297895 8.329158
0.928501 1.233668 8.666962
0.829897 1.078116 9.052528
0.724724 0.911939 9.015950
0.914598 0.991536 0.438475
0.999134 1.102823 0.841062
0.957828 1.048745 1.223119
0.956494 1.047247 1.712858
0.977222 1.074701 2.133013
0.979678 1.078054 2.377820
0.939723 1.025909 3.062756
0.987014 1.088227 3.409082
0.964536 1.058887 3.784676
1.031507 1.147027 4.059942
1.142258 1.292746 4.433740
1.115629 1.258136 5.169174
1.176561 1.338372 5.502025
1.194593 1.362187 5.735855
1.164499 1.322903 6.234228
1.151283 1.305759 6.662725
1.175062 1.337123 6.890835
1.199860 1.369823 7.118045
1.153221 1.308900 7.808755
1.142989 1.295491 7.876805
1.047652 1.170566 8.545214
1.056551 1.182225 8.479943
0.867349 0.933876 8.976476
0.723312 0.744700 9.141360
1.039419 0.957466 0.306038
1.071624 0.993176 0.665498
1.064523 0.985570 1.157018
1.022397 0.939369 1.780604
1.104654 1.030252 1.998914
1.030468 0.948619 2.511626
1.024312 0.942082 3.061705
1.076890 1.000269 3.407510
1.052105 0.973091 3.782578
1.109908 1.037045 4.124269
1.233369 1.173474 4.497162
1.235027 1.175585 5.098947
1.258794 1.202064 5.630747
1.279570 1.225102 5.863930
1.261039 1.204852 6.295491
1.285176 1.231599 6.526733
1.248326 1.191193 7.089164
1.300347 1.248649 7.185407
1.252309 1.195760 7.454738
1.216114 1.156107 8.081701
1.152928 1.086561 8.485686
1.142523 1.075111 8.554616
1.018045 0.937911 8.937928
1.094974 0.842043 0.601272
1.173762 0.915426 1.313617
1.106631 0.853351 1.760116
1.090630 0.838747 2.313080
1.081721 0.830719 2.863475
1.216778 0.956022 2.941365
1.090540 0.839236 3.651555
1.089806 0.838556 3.654183
1.166872 0.910284 4.231589
1.354868 1.084858 4.702579
1.408825 1.135076 5.102422
1.318670 1.051753 5.800740
1.357598 1.087930 5.966200
1.310060 1.044080 6.529977
1.379911 1.108881 6.560455
1.327164 1.060226 7.188461
1.320770 1.054478 7.615908
1.391325 1.119932 7.643203
1.272033 1.009571 8.311429
1.227070 0.967982 8.581257
1.091329 0.842243 8.965256
0.926877 0.689750 9.062531
1.200891 0.774720 0.273497
1.188043 0.764899 0.766743
1.156925 0.740862 1.325021
1.203444 0.777173 1.436800
1.158562 0.742430 2.058719
1.189586 0.766782 2.476445
1.268187 0.828172 2.757603
1.223051 0.793255 3.438433
1.214426 0.786653 3.745860
1.188711 0.766754 4.119713
1.333945 0.880127 4.492738
1.428559 0.954115 5.060995
1.456127 0.975818 5.592320
1.547287 1.046873 5.559838
1.522278 1.027548 5.990586
1.486654 0.999973 6.486799
1.442948 0.966123 7.048639
1.504066 1.013809 7.144467
1.433795 0.959159 7.479679
1.379335 0.916978 8.172814
1.378752 0.916525 8.175939
1.305644 0.859691 8.579690
1.159544 0.745944 8.964205
1.242877 0.665034 0.313388
1.147148 0.602426 1.256101
1.196353 0.634922 1.611210
1.248771 0.669531 1.964169
1.256905 0.675063 2.449153
1.362954 0.744894 2.663999
1.279818 0.690406 3.174320
1.268351 0.682980 3.483005
1.254170 0.673882 4.094519
1.368009 0.748947 4.601869
1.428251 0.788721 5.004915
1.529477 0.855400 5.272039
1.579129 0.888231 5.735855
1.605653 0.905764 5.968325
1.567498 0.880855 6.465023
1.582797 0.891029 6.761751
1.555395 0.873192 7.256441
1.467705 0.815668 7.659097
1.533916 0.859252 7.753719
1.451717 0.805339 8.156669
1.361560 0.746218 8.627761
1.195623 0.637248 9.080403
1.019763 0.521593 9.111774
1.296062 0.553963 0.313651
1.338084 0.576743 0.673885
1.298757 0.555832 1.480886
1.352173 0.584752 1.835417
1.308500 0.561431 2.455975
1.395610 0.608488 2.738507
1.414063 0.618607 3.219611
1.334253 0.575767 3.729343
1.348626 0.583601 3.970231
1.424834 0.624909 4.612581
1.569012 0.702677 4.749864
1.575587 0.706435 5.349951
1.684774 0.765387 5.614679
1.609608 0.724965 5.883649
1.584597 0.711765 6.675710
1.635165 0.739082 6.839494
1.670418 0.758167 7.068844
1.530739 0.683088 7.670547
1.514834 0.674690 8.164481
1.528031 0.681782 8.101480
1.406334 0.616397 8.706174
1.294099 0.555939 8.822892
1.337162 0.440412 0.317064
1.351949 0.446963 0.743647
1.343486 0.443465 1.235192
1.424724 0.478752 1.523104
1.316261 0.431947 2.037171
1.326080 0.436366 2.522656
1.468457 0.498087 2.670271
1.389986 0.464353 3.418515
1.379615 0.459967 3.726459
1.372029 0.456786 4.033663
1.452958 0.492060 4.675048
1.669385 0.585887 4.910386
1.779757 0.633786 5.177381
1.706658 0.602316 5.742073
1.592018 0.552797 6.144517
1.624022 0.566739 6.376539
1.710946 0.604524 6.767969
1.625283 0.567534 7.103715
1.648467 0.577676 7.396304
1.569370 0.543674 8.153545
1.554759 0.537368 8.221000
1.498169 0.512948 8.488818
1.327631 0.439209 8.870419
1.382726 0.329645 0.517503
1.374857 0.327087 0.766218
1.337173 0.314629 1.325284
1.278368 0.295026 1.707008
1.398172 0.335373 2.167364
1.383769 0.330723 2.719008
1.366440 0.325012 3.029402
1.465255 0.358257 3.308532
1.477851 0.362563 3.549706
1.509667 0.373395 4.025969
1.592939 0.401544 4.666083
1.794657 0.469321 4.967786
1.674874 0.429365 5.666852
1.684867 0.432817 5.966719
1.735682 0.449921 6.132811
1.658907 0.424371 6.763014
1.644754 0.419765 7.192882
1.626860 0.413785 7.263381
1.651513 0.422154 7.558953
1.663310 0.426231 7.919941
1.586806 0.400676 8.256956
1.407228 0.340554 8.640284
1.258851 0.290857 8.892385
1.399570 0.207802 0.531151
1.327369 0.190528 1.157097
1.472878 0.225797 1.310213
1.501830 0.232940 1.729918
1.452458 0.221190 2.348206
1.377994 0.203309 2.791995
1.451842 0.221296 3.137891
1.580099 0.252408 3.347772
1.355006 0.198120 3.953529
1.417589 0.213400 4.360554
1.828411 0.312936 4.663994
1.763867 0.297474 5.163074
1.727958 0.288922 5.595176
1.758224 0.296323 5.827097
1.654973 0.271556 6.523470
1.710413 0.285028 6.686619
1.730696 0.290032 6.981908
1.652917 0.271430 7.675232
1.730319 0.290195 7.768514
1.589885 0.256398 8.370359
1.545300 0.245672 8.573159
1.474218 0.228575 8.910250
1.229316 0.169372 9.141367
-0.139271 -0.150837 0.822881
1.495698 0.107974 0.356317
1.328528 0.081682 0.941275
1.443865 0.100021 1.164359
1.440942 0.099714 1.654094
1.474106 0.105100 2.074313
1.478618 0.105892 2.317033
1.466921 0.104213 2.865472
1.569134 0.120491 3.143325
1.454038 0.102444 3.717547
1.490439 0.108360 4.191786
1.627099 0.130165 4.696049
1.767289 0.152433 4.896895
1.799426 0.157692 5.427365
1.787320 0.155890 5.791834
1.799476 0.157910 6.089008
1.700359 0.142318 6.423326
1.776552 0.154530 6.879424
1.616610 0.129389 7.480613
1.628475 0.131382 7.840867
1.660082 0.136482 8.133237
1.659593 0.136405 8.135320
1.567814 0.121996 8.537902
1.343397 0.086637 9.123014
1.135863 0.053776 9.153086
1.525571 -0.019390 0.302941
1.414845 -0.027031 0.996790
1.318692 -0.033715 1.446033
1.498861 -0.020899 1.532004
1.501741 -0.020542 2.018803
1.540205 -0.017680 2.436141
1.556871 -0.016346 2.917847
1.554817 -0.016320 3.463697
1.527507 -0.018236 3.534275
1.438795 -0.024278 4.345341
1.695377 -0.006011 4.516926
1.654148 -0.008707 5.251435
1.842455 0.004680 5.317557
1.765822 -0.000582 5.882092
1.839498 0.004679 5.981267
1.698681 -0.005169 6.449329
1.794292 0.001741 6.840013
1.763073 -0.000320 7.334266
1.710280 -0.004003 7.536855
1.722652 -0.003012 7.897072
1.642119 -0.008622 8.233245
1.492814 -0.019009 8.905014
1.394556 -0.025989 8.887490
1.440117 -0.149370 0.693285
1.495939 -0.150192 0.808600
1.425769 -0.148917 1.434701
1.456017 -0.149249 1.857165
1.578339 -0.151059 2.076485
1.560923 -0.150619 2.627949
1.633816 -0.151629 2.976389
1.487227 -0.149175 3.620099
1.434156 -0.148316 3.759496
1.519519 -0.149520 4.102821
1.774398 -0.153192 4.876145
1.805578 -0.153504 5.409745
1.898875 -0.154926 5.446121
1.748852 -0.152474 5.915311
1.682488 -0.151277 6.481580
1.776952 -0.152717 6.514803
1.721631 -0.151690 7.078771
1.781651 -0.152562 7.239845
1.723935 -0.151479 7.864855
1.612000 -0.149613 8.333329
1.611518 -0.149605 8.335415
1.464336 -0.147133 9.006632
1.254156 -0.143895 9.035552
1.587441 -0.288946 0.125091
1.466007 -0.276341 1.068200
1.491334 -0.278775 1.491704
1.522222 -0.281772 1.912879
1.502198 -0.279568 2.465425
1.453762 -0.274540 2.843729
1.608965 -0.290223 2.990982
1.438072 -0.272680 3.701559
1.311149 -0.259709 4.042690
1.493004 -0.278020 4.418630
1.682391 -0.297003 5.089068
1.869253 -0.315919 5.158001
1.789323 -0.307640 5.723938
1.664462 -0.294858 6.127607
1.679151 -0.296252 6.427486
1.734661 -0.301826 6.593409
1.717204 -0.299920 7.024227
1.740534 -0.302191 7.321032
1.700323 -0.297939 7.882521
1.635078 -0.291241 8.153805
1.498401 -0.277198 8.760042
1.414597 -0.268731 8.676735
1.583143 -0.428491 0.523433
1.543548 -0.420913 0.837939
1.507063 -0.413923 1.151988
1.414242 -0.396252 1.599572
1.417947 -0.396796 2.086888
1.519687 -0.415841 2.610192
1.500542 -0.412127 2.919937
1.628053 -0.436138 3.132571
1.679964 -0.445809 3.542992
1.461194 -0.404401 3.845083
1.520616 -0.415396 4.554336
1.751334 -0.458888 4.791119
1.737978 -0.456153 5.456392
1.787876 -0.465522 5.623995
1.757427 -0.459635 6.055844
1.677264 -0.444411 6.325617
1.732712 -0.454714 6.850383
1.719222 -0.452029 7.279264
1.700817 -0.448531 7.349837
1.614333 -0.431957 8.110330
1.693455 -0.446868 8.204128
1.463544 -0.403267 8.786723
1.324633 -0.376976 8.971563
1.200250 -0.353450 9.090430
1.546191 -0.557923 0.515877
1.568943 -0.564131 0.696687
1.499581 -0.544822 1.319525
1.439664 -0.528195 1.699058
1.501556 -0.545129 2.049083
1.485697 -0.540582 2.597137
1.479060 -0.538576 3.142542
1.593634 -0.570144 3.114882
1.530417 -0.552589 3.553387
1.473215 -0.536690 3.991487
1.489876 -0.541104 4.529535
1.719808 -0.604265 5.062010
1.703930 -0.599772 5.427106
1.672109 -0.590867 5.857704
1.665345 -0.588886 6.220994
1.737969 -0.608858 6.317900
1.736427 -0.608316 6.679147
1.636061 -0.580424 7.437594
1.663289 -0.587828 7.730102
1.630895 -0.578861 7.864855
1.602266 -0.570794 8.422117
1.558512 -0.558677 8.623795
1.394342 -0.513354 8.938791
1.413004 -0.657730 0.236024
1.602381 -0.727593 0.505379
1.417161 -0.658959 1.151988
1.442814 -0.668375 1.331269
1.412843 -0.657200 1.643649
1.363148 -0.638636 2.263101
1.428472 -0.662649 2.612280
1.548489 -0.706909 2.825943
1.607808 -0.728604 3.473418
1.503676 -0.689948 4.045115
1.479257 -0.680905 4.115462
1.651860 -0.744537 4.487266
1.764270 -0.785870 5.052906
1.748292 -0.779846 5.418230
1.716805 -0.768071 5.848825
1.691013 -0.758400 6.278565
1.545305 -0.704399 6.812933
1.582904 -0.718211 7.042405
1.605542 -0.726474 7.337380
1.508336 -0.690434 7.739792
1.674105 -0.751626 7.857772
1.526021 -0.696703 8.525391
1.405927 -0.652304 8.640304
1.272712 -0.603035 8.823417
-0.220071 -0.037151 0.629560
1.525449 -0.857907 0.298718
1.487255 -0.839842 0.612139
1.505290 -0.848174 1.034416
1.446082 -0.820207 1.412831
1.341539 -0.770796 2.165289
1.454776 -0.823959 2.381039
1.444512 -0.818943 2.927943
1.490227 -0.840293 3.338891
1.495038 -0.842368 3.880167
1.640707 -0.910804 4.020338
1.485653 -0.837744 4.488322
1.573818 -0.878975 5.121858
1.684427 -0.930884 5.387250
1.548395 -0.866768 5.854331
1.559782 -0.872018 6.152775
1.627338 -0.903745 6.251402
1.486284 -0.837244 6.785891
1.593282 -0.887437 7.107944
1.584450 -0.883137 7.534344
1.493088 -0.840044 7.935795
1.536947 -0.860586 8.161560
1.466621 -0.827406 8.497029
1.298226 -0.748104 8.879358
1.082405 -0.646581 9.043202
1.493360 -1.013656 0.188480
1.371936 -0.943025 0.701894
1.417035 -0.969060 1.058063
1.360503 -0.936125 1.437049
1.282429 -0.890669 1.882570
1.289516 -0.894604 2.367162
1.350612 -0.929923 2.715639
1.368672 -0.940227 3.195037
1.482514 -1.006196 3.405722
1.585977 -1.065927 4.214631
1.644943 -1.100098 4.319048
1.460786 -0.993042 4.918688
1.564887 -1.053339 5.185910
1.588730 -1.067087 5.419779
1.523772 -1.029196 5.983596
1.501466 -1.016099 6.414232
1.433742 -0.976711 6.683762
1.503446 -1.016985 7.139804
1.480470 -1.003476 7.633609
1.563431 -1.051596 7.662210
1.423048 -0.969910 8.329577
1.382875 -0.946530 8.533198
1.259359 -0.874805 8.715847
1.124593 -0.796529 8.967358
0.822216 -0.621027 9.180424
1.377824 -1.123716 0.468277
1.262519 -1.042405 1.228781
1.186056 -0.988507 1.675530
1.261380 -1.041325 1.961469
1.315301 -1.079077 2.312097
1.229000 -1.018242 2.822023
1.442621 -1.168182 3.242821
1.577521 -1.262709 3.921025
1.648729 -1.312614 4.258725
1.588349 -1.270110 4.460375
1.434800 -1.162015 4.993144
1.402144 -1.138902 5.427106
1.469622 -1.186164 5.824012
1.384623 -1.126311 6.159776
1.429233 -1.157592 6.325665
1.396606 -1.134476 6.822127
1.414341 -1.146824 7.118563
1.406175 -1.140922 7.546520
1.376665 -1.119972 8.106036
1.324771 -1.083405 8.376359
1.311486 -1.074044 8.447343
1.170244 -0.974678 8.763966
0.929177 -0.805126 9.198659
1.226418 -1.182492 0.167926
1.281597 -1.228030 0.702946
1.227959 -1.183397 1.082238
1.272359 -1.220169 1.195004
1.223332 -1.179360 1.573188
1.181342 -1.144288 2.191096
1.206762 -1.165295 2.367766
1.298843 -1.241345 3.123435
1.515363 -1.420625 3.773213
1.672244 -1.550592 4.080653
1.577580 -1.471958 4.411672
1.485734 -1.395660 4.744029
1.216348 -1.172111 5.146280
1.187482 -1.147998 5.581213
1.406414 -1.329505 5.676819
1.247977 -1.197852 6.343541
1.320632 -1.257940 6.735332
1.350876 -1.282926 6.965076
1.240487 -1.191169 7.499947
1.275138 -1.219810 7.728026
1.311083 -1.249524 7.955153
1.277691 -1.221580 8.579256
1.145966 -1.112220 8.894897
1.059145 -1.040205 8.945076
1.135197 -1.298689 0.125298
1.167637 -1.330529 0.484101
1.202889 -1.365144 0.840892
1.132430 -1.295448 1.286154
1.109188 -1.272386 1.598158
1.075319 -1.238601 2.455779
0.968417 -1.133112 2.554918
1.574788 -1.730490 4.206850
1.539185 -1.695313 4.341382
1.353577 -1.512046 4.769749
1.136753 -1.298058 5.038647
1.155763 -1.316706 5.273337
1.221809 -1.381546 5.965737
1.189502 -1.349461 6.462172
1.243352 -1.402534 6.559886
1.270491 -1.429202 6.789336
1.247665 -1.406470 7.282284
1.197512 -1.356882 7.550666
1.160848 -1.320442 8.175575
1.218450 -1.377218 8.268260
1.063175 -1.223833 8.781701
1.075655 -1.456359 -0.044911
1.077795 -1.458543 0.623100
1.011607 -1.380794 1.068720
0.949609 -1.307953 1.514450
0.988060 -1.352941 1.626259
1.512043 -1.965672 3.839079
1.507147 -1.959793 4.138200
1.381746 -1.812642 4.662779
1.335721 -1.758631 4.862758
1.229153 -1.633715 5.030709
1.047201 -1.420475 5.234925
0.975671 -1.336521 5.571576
1.092658 -1.473355 5.998093
1.151075 -1.541596 6.390929
1.102517 -1.484412 7.015524
1.129804 -1.516267 7.241964
1.092558 -1.472336 7.864503
1.092309 -1.472043 7.866057
1.103179 -1.484604 8.222451
0.970817 -1.329339 8.667032
0.842689 -1.179031 9.116186
0.892275 -1.464635 -0.077201
0.979287 -1.585668 0.748747
0.921116 -1.504215 1.192928
0.884190 -1.452458 1.570588
1.352334 -2.104850 3.782849
1.333421 -2.078250 4.146311
1.234815 -1.940337 4.605147
1.220473 -1.920276 4.673749
1.084584 -1.730363 5.037394
0.976779 -1.579729 5.272791
0.832784 -1.378458 5.710747
0.895057 -1.465221 6.040243
0.925335 -1.507210 6.566163
0.992800 -1.601224 6.889576
0.995614 -1.604958 7.250234
0.934633 -1.519606 7.651242
0.952096 -1.543828 7.944271
0.887556 -1.453470 8.412757
0.852377 -1.404211 8.682663
0.745568 -1.254887 9.065068
0.022025 -0.287325 0.865552
0.703906 -1.442160 -0.080203
0.830221 -1.655594 0.543874
0.794199 -1.594385 0.921240
0.729418 -1.484414 1.431580
0.775149 -1.561796 1.475480
1.142858 -2.182750 3.880646
1.189853 -2.262278 3.919022
1.125668 -2.153246 4.540037
1.006359 -1.951064 4.900098
1.005950 -1.950371 4.902401
0.911455 -1.790270 5.134896
0.655507 -1.356662 5.708308
0.640799 -1.331496 6.142286
0.825203 -1.643532 6.326183
0.786450 -1.577546 6.953358
0.807515 -1.613064 7.181261
0.786120 -1.576503 7.739963
0.818406 -1.631056 7.899201
0.793547 -1.588852 8.100588
0.738538 -1.495448 8.568597
0.673615 -1.385478 8.682907
0.678649 -1.682070 0.170602
0.713139 -1.752577 0.462164
0.626239 -1.573943 1.106683
0.638495 -1.598945 1.283815
0.638478 -1.598562 1.767599
0.614073 -1.548257 2.142656
1.001343 -2.341192 3.669501
0.997666 -2.333441 3.966550
0.953246 -2.241967 4.522272
0.880816 -2.093347 4.685486
0.768997 -1.863774 5.113534
0.650487 -1.620432 5.613349
0.576164 -1.468136 5.487167
0.526543 -1.365896 6.188398
0.677089 -1.674385 6.437551
0.695039 -1.710768 7.024582
0.690459 -1.701073 7.449917
0.717684 -1.756779 7.609236
0.730836 -1.783537 7.899925
0.695683 -1.711224 8.232543
0.606410 -1.527866 8.677453
0.526009 -1.362744 9.059827
0.479538 -1.594836 -0.199819
0.507545 -1.666270 1.004545
0.517070 -1.690765 1.183846
0.494139 -1.631091 1.562007
0.582368 -1.859052 1.994655
0.730180 -2.240423 3.337010
0.777787 -2.363448 3.545293
0.704499 -2.173322 4.069686
0.762720 -2.323876 4.208437
0.702127 -2.166661 4.667371
0.609963 -1.927767 5.096552
0.567385 -1.817541 5.133459
0.493142 -1.625136 5.436770
0.547110 -1.763745 6.655594
0.522071 -1.698398 7.282376
0.525566 -1.707128 7.642684
0.560215 -1.796777 7.670481
0.513169 -1.674556 8.204128
0.496238 -1.630562 8.406776
0.413542 -1.416037 8.989866
0.337704 -1.219739 9.019726
0.427829 -1.931048 0.066525
0.397171 -1.824926 0.512056
0.385923 -1.785824 0.825093
0.366924 -1.719942 1.204087
0.384418 -1.779274 2.037259
0.359755 -1.694078 2.240884
0.562221 -2.390032 3.628173
0.580589 -2.453192 3.733997
0.519190 -2.241338 4.027358
0.510944 -2.212515 4.393164
0.510399 -2.210302 4.692886
0.432923 -1.942829 5.189483
0.373465 -1.737984 5.196269
0.326787 -1.575817 6.399541
0.354881 -1.671758 7.149980
0.398698 -1.822501 7.336841
0.392406 -1.800275 7.827745
0.401354 -1.830773 8.118728
0.375495 -1.741235 8.518814
0.339882 -1.618418 8.632389
0.277215 -1.401863 9.216374
0.195072 -1.118937 9.159708
-0.016426 -0.567738 0.941716
0.235655 -1.832622 0.326560
0.238823 -1.847824 0.749781
0.231450 -1.810360 1.062013
0.224759 -1.775924 1.614453
0.236983 -1.836650 1.965549
0.356199 -2.431724 3.622087
0.311017 -2.203751 4.517015
0.296991 -2.133106 4.717612
0.224218 -1.767483 5.184338
0.196751 -1.629601 5.289987
0.210833 -1.697227 7.145300
0.228041 -1.782780 7.599129
0.230669 -1.795377 7.959298
0.231138 -1.797047 8.384539
0.225069 -1.766396 8.521407
0.194454 -1.612501 8.767623
0.045209 -1.569493 -0.011298
0.086986 -1.946521 0.348056
0.072050 -1.809898 0.857990
0.058047 -1.681728 1.368583
0.064738 -1.741270 1.720320
0.064965 -1.742631 1.963253
0.159761 -2.596741 3.264144
0.137041 -2.389657 3.785565
0.094343 -2.001106 4.544777
0.084042 -1.907124 4.811659
0.064321 -1.727135 5.345015
0.021637 -1.338263 6.260969
0.068198 -1.757588 6.967113
0.070234 -1.773961 7.685477
0.075420 -1.820246 7.911633
0.075702 -1.821587 8.335581
0.070690 -1.775651 8.537488
0.053516 -1.619530 8.785090
0.024300 -1.354303 9.081981
-0.082802 -1.821731 0.602377
-0.082166 -1.845443 0.782897
-0.084450 -1.746238 1.226411
-0.083628 -1.774545 1.644536
-0.084920 -1.716790 2.020144
-0.066981 -2.433366 3.410998
-0.066560 -2.447558 3.645420
-0.075948 -2.053494 4.402013
-0.079839 -1.888254 4.866427
-0.082516 -1.774352 5.200419
-0.092354 -1.358975 6.181007
-0.094092 -1.279626 6.817911
-0.084812 -1.652698 7.353455
-0.081680 -1.776821 7.672249
-0.080849 -1.807062 7.964480
-0.081014 -1.794004 8.454511
-0.081719 -1.763430 8.589894
-0.086114 -1.578572 8.971106
-0.091559 -1.354435 9.067254
-0.221301 -1.652874 -0.204244
-0.236809 -1.929894 0.356310
-0.227051 -1.760757 0.933690
-0.224909 -1.724648 1.245887
-0.231540 -1.842988 1.466313
-0.269087 -2.515642 3.175620
-0.268187 -2.501424 3.476171
-0.235904 -1.937952 4.688300
-0.229268 -1.822600 5.020581
-0.225374 -1.754930 5.221173
-0.213698 -1.550387 5.524772
-0.189011 -1.116495 5.907953
-0.183586 -1.020519 5.880350
-0.200292 -1.319762 6.632486
-0.215603 -1.593031 7.143181
-0.227878 -1.811744 7.487720
-0.231348 -1.873914 7.646703
-0.230181 -1.856014 8.135536
-0.224810 -1.763368 8.534894
-0.213396 -1.564248 8.981549
-0.403527 -1.928093 0.304999
-0.379280 -1.759304 0.882349
-0.365240 -1.661811 1.327746
-0.364990 -1.661143 1.813870
-0.480897 -2.477197 3.191558
-0.467833 -2.386669 3.687030
-0.368690 -1.692871 4.412956
-0.385189 -1.809865 4.981241
-0.351853 -1.576202 5.053926
-0.316298 -1.327789 5.496049
-0.304045 -1.242453 5.768804
-0.297052 -1.194527 6.273781
-0.331948 -1.439786 6.495686
-0.370023 -1.707994 7.008128
-0.384423 -1.809860 7.395047
-0.374536 -1.741103 7.663430
-0.367381 -1.692309 8.288267
-0.370263 -1.713321 8.645954
-0.354297 -1.601435 8.694127
-0.552435 -1.813783 0.229336
-0.535109 -1.739784 0.609371
-0.504635 -1.609409 1.122290
-0.524638 -1.695519 1.169317
-0.662956 -2.293397 3.260718
-0.609721 -2.065222 3.853250
-0.586696 -1.966551 4.120632
-0.565102 -1.873624 4.090253
-0.531675 -1.730391 4.491929
-0.489104 -1.548014 5.028896
-0.468446 -1.459531 5.300948
-0.398557 -1.158869 5.279513
-0.487718 -1.544918 7.096763
-0.518991 -1.679797 7.352951
-0.513545 -1.657055 7.847710
-0.520574 -1.687700 8.141839
-0.524918 -1.706880 8.498845
-0.508073 -1.634886 8.833505
-0.495175 -1.579777 9.102274
-0.268493 -0.416081 1.107014
-0.727078 -1.829715 0.084307
-0.682963 -1.694150 0.596162
-0.651147 -1.596454 1.042211
-0.668171 -1.649331 1.396846
-0.649069 -1.590790 1.774875
-0.817256 -2.110909 3.035618
-0.840916 -2.184244 3.376458
-0.813501 -2.100178 3.874289
-0.761033 -1.938490 4.039707
-0.708835 -1.777637 4.206884
-0.671166 -1.661773 4.542469
-0.641761 -1.571336 4.812778
-0.570013 -1.350385 5.186061
-0.515911 -1.184038 5.728738
-0.477167 -1.064935 6.138846
-0.576624 -1.372071 6.458497
-0.700844 -1.755691 6.866833
-0.696515 -1.742773 7.294693
-0.699242 -1.751551 7.655232
-0.658520 -1.626475 8.190110
-0.673851 -1.673997 8.416410
-0.659599 -1.630241 8.619997
-0.602464 -1.454375 9.003220
-0.741065 -1.426683 -0.085942
-0.814663 -1.601321 0.430160
-0.833782 -1.646867 0.785744
-0.782989 -1.527041 1.296030
-0.782607 -1.526528 1.780853
-1.077492 -2.225614 3.052592
-1.061340 -2.187673 3.417850
-1.007836 -2.061522 4.043165
-0.951788 -1.928922 4.141560
-0.831051 -1.643321 4.404916
-0.757663 -1.470027 4.939521
-0.657068 -1.232007 5.079137
-0.568009 -1.021488 5.455832
-0.517941 -0.903295 5.866002
-0.679926 -1.287035 6.216181
-0.806277 -1.586681 6.891872
-0.852590 -1.696574 7.212768
-0.869277 -1.736258 7.439620
-0.816604 -1.612000 7.971995
-0.841642 -1.671397 8.130881
-0.787986 -1.544866 8.730866
-0.738457 -1.427712 8.845851
-0.678240 -1.285367 9.095999
-0.847979 -1.348608 0.166309
-0.922613 -1.491921 0.746281
-0.874316 -1.399906 1.439133
-0.845978 -1.345897 1.818338
-1.180124 -1.986516 2.922130
-1.166540 -1.960910 3.524003
-1.161696 -1.951838 3.824516
-0.970100 -1.585504 4.653387
-0.807497 -1.274403 5.057224
-0.677781 -1.026146 5.266309
-0.745089 -1.155173 5.465819
-0.834307 -1.326512 6.191226
-0.921595 -1.493950 6.612097
-0.983960 -1.613548 6.868642
-0.969571 -1.586329 7.361155
-0.996203 -1.637722 7.942777
-1.003456 -1.651567 7.879536
-0.930398 -1.512116 8.544751
-0.916363 -1.485332 8.680484
-0.818467 -1.298217 9.196312
-0.675792 -1.025009 9.207374
-1.033263 -1.385971 0.342089
-1.010731 -1.350759 0.655569
-1.055353 -1.421024 0.944845
-1.003024 -1.339082 1.389662
-1.035112 -1.389694 1.741877
-1.363356 -1.906425 3.638726
-1.335230 -1.862321 3.772480
-0.948022 -1.254715 4.868750
-0.796765 -1.017235 5.076637
-0.736614 -0.922946 5.418003
-0.741271 -0.930438 5.721370
-0.910263 -1.196301 6.407186
-1.136756 -1.552286 6.748028
-1.148186 -1.570413 7.041616
-1.170630 -1.605802 7.268193
-1.139701 -1.557580 7.889601
-1.113308 -1.516238 8.090291
-1.035346 -1.393875 8.268526
-0.986256 -1.316997 8.670419
-0.955021 -1.268089 8.939782
-0.220028 -0.078160 1.004283
-1.032698 -1.138517 0.054810
-1.169376 -1.317165 0.502265
-1.180426 -1.331808 0.924611
-1.083932 -1.206144 1.502717
-1.103140 -1.231434 1.921349
-1.140075 -1.279705 2.031580
-1.438609 -1.669999 3.180734
-1.470903 -1.712365 3.585501
-1.362457 -1.571040 4.047667
-1.175815 -1.327381 4.011681
-0.899207 -0.966648 4.683284
-0.927747 -1.003992 4.853959
-0.844645 -0.895723 5.262084
-0.880899 -0.943291 5.731637
-1.096203 -1.224629 6.283542
-1.304952 -1.497256 6.532968
-1.235298 -1.406537 6.932749
-1.254876 -1.432429 7.583403
-1.302930 -1.495207 7.677647
-1.233045 -1.404219 8.141742
-1.167492 -1.318888 8.607540
-1.131897 -1.272561 8.875102
-0.133229 0.042386 1.314056
-1.269356 -1.204625 0.525626
-1.324758 -1.265588 0.814477
-1.237409 -1.169923 1.324626
-1.135882 -1.058723 1.902165
-1.177003 -1.103922 2.011782
-1.203039 -1.132701 2.427124
-1.401261 -1.350610 3.020144
-1.498580 -1.457666 3.464118
-1.377473 -1.324916 3.928094
-1.197850 -1.127905 4.360817
-1.069575 -0.987180 4.597483
-1.006237 -0.917766 4.868945
-0.959643 -0.866705 5.073738
-0.998052 -0.909094 5.542858
-1.193766 -1.124323 6.296048
-1.451376 -1.407214 6.412740
-1.388548 -1.338554 7.102509
-1.446976 -1.402914 7.552509
-1.390058 -1.340578 7.884956
-1.356922 -1.304290 8.085896
-1.314272 -1.257588 8.353452
-1.253468 -1.191018 8.754506
-1.233742 -1.169423 8.890184
-1.143098 -0.880134 -0.201665
-1.347712 -1.068958 0.359498
-1.266771 -0.994652 1.049410
-1.308043 -1.032843 1.403719
-1.307058 -1.032040 1.648385
-1.242916 -0.973112 2.092671
-1.251293 -0.981038 2.575472
-1.441068 -1.156126 2.997820
-1.459433 -1.173255 3.472898
-1.377656 -1.098129 4.042558
-1.289610 -1.016995 4.077675
-1.234667 -0.966443 4.281403
-1.094474 -0.837464 4.821366
-1.010090 -0.759835 5.161797
-1.224445 -0.957567 5.557950
-1.497284 -1.209238 6.043910
-1.521060 -1.231404 6.632965
-1.633849 -1.335438 6.823206
-1.597480 -1.302155 7.378929
-1.521499 -1.232297 7.777647
-1.449395 -1.166012 8.177692
-1.403296 -1.123640 8.446216
-1.348265 -1.073062 8.781787
-1.285921 -1.015775 9.184851
-1.168813 -0.755354 0.123718
-1.494010 -1.010695 0.415646
-1.386460 -0.926491 0.928247
-1.405248 -0.941405 1.349592
-1.403769 -0.940341 1.594516
-1.288811 -0.850349 2.172607
-1.364762 -0.910071 2.455519
-1.460269 -0.985330 3.210842
-1.584370 -1.082785 3.355080
-1.554626 -1.059589 3.726051
-1.435283 -0.966085 4.127983
-1.208792 -0.788530 4.632616
-1.116749 -0.716427 4.972864
-1.154781 -0.746344 5.143243
-1.284171 -0.848211 5.940267
-1.583906 -1.083501 6.061981
-1.685089 -1.163159 6.679295
-1.672292 -1.153285 7.105258
-1.705244 -1.179238 7.332686
-1.636613 -1.125507 7.665797
-1.520955 -1.034974 8.264636
-1.532541 -1.044042 8.202269
-1.459741 -0.987067 8.604166
-1.292333 -0.855886 9.120508
-1.259159 -0.670183 -0.169400
-1.519602 -0.840489 0.326243
-1.403542 -0.764872 0.841070
-1.394447 -0.759208 1.577844
-1.394025 -0.759024 1.823819
-1.352080 -0.731858 2.442938
-1.488961 -0.821413 2.830104
-1.541463 -0.855950 3.478608
-1.631480 -0.914853 3.754491
-1.484075 -0.818744 4.223900
-1.204392 -0.636183 4.562778
-1.144178 -0.596929 4.769685
-1.126972 -0.585830 5.143071
-1.309153 -0.704942 5.442249
-1.601050 -0.895816 5.997058
-1.675873 -0.944972 6.748286
-1.851713 -1.059827 6.741402
-1.765088 -1.003527 7.494877
-1.749865 -0.993609 7.564605
-1.625115 -0.912347 8.162949
-1.611183 -0.903273 8.233061
-1.571692 -0.877554 8.435848
-1.427059 -0.783198 8.750679
-0.136662 0.070903 1.002961
-1.313513 -0.560987 0.049686
-1.562109 -0.694738 0.608759
-1.555156 -0.691091 0.855919
-1.468040 -0.644449 1.302567
-1.386615 -0.600865 1.749278
-1.391827 -0.603838 2.235365
-1.452615 -0.636619 2.585129
-1.445410 -0.632944 3.132881
-1.596871 -0.714448 3.513909
-1.647670 -0.741883 3.921713
-1.498078 -0.661579 4.090443
-1.306713 -0.558882 4.395188
-1.243936 -0.525338 4.903133
-1.182748 -0.492540 5.109584
-1.447800 -0.635180 5.804683
-1.693464 -0.767318 6.258903
-1.775386 -0.811467 6.650242
-1.813988 -0.832414 7.235999
-1.836518 -0.844622 7.529350
-1.820982 -0.836300 7.597296
-1.663237 -0.751815 8.326516
-1.649281 -0.744342 8.394903
-1.459064 -0.642337 8.907943
-1.372497 -0.595824 8.889306
-0.410321 -0.038263 0.814157
-1.447391 -0.484687 -0.146252
-1.651580 -0.572802 0.302872
-1.524620 -0.518285 0.816027
-1.631247 -0.564294 1.038053
-1.431764 -0.478521 1.508449
-1.458910 -0.490276 1.686508
-1.521828 -0.517582 2.277901
-1.484643 -0.501773 2.892770
-1.628698 -0.563879 3.037929
-1.714342 -0.600971 3.616537
-1.728865 -0.607308 3.854368
-1.550192 -0.530419 4.088358
-1.350610 -0.444650 4.694001
-1.285869 -0.416831 4.898925
-1.140938 -0.354559 5.374637
-1.372956 -0.454689 5.902678
-1.665253 -0.580838 6.583288
-1.843259 -0.657662 6.999321
-1.947805 -0.702686 6.963369
-1.889170 -0.677640 7.584939
-1.900974 -0.682847 7.941964
-1.798936 -0.639050 8.407015
-1.708789 -0.600209 8.387648
-1.473671 -0.499001 8.613129
-1.553565 -0.383404 -0.071073
-1.712114 -0.436357 0.264977
-1.516587 -0.371486 1.155123
-1.543046 -0.380443 1.574451
-1.432431 -0.343746 2.085316
-1.873448 -0.490873 2.523419
-1.828895 -0.476147 2.894378
-1.612407 -0.404094 3.190611
-1.792732 -0.464395 3.803120
-1.809542 -0.470076 4.038955
-1.535789 -0.379005 4.538671
-1.400943 -0.334098 4.641270
-1.205595 -0.269193 5.249410
-1.253572 -0.285239 5.417242
-1.383985 -0.328889 5.980323
-1.798951 -0.467281 6.260714
-1.873126 -0.492271 7.073090
-2.004852 -0.536256 7.324980
-1.922548 -0.508935 7.656009
-1.843694 -0.482765 7.987968
-1.797878 -0.467561 8.188299
-1.753318 -0.452777 8.388943
-1.482917 -0.362776 8.746965
-1.229580 -0.278442 9.043730
-0.395904 0.033469 1.090362
-1.538053 -0.247340 0.237592
-1.664077 -0.278564 0.886609
-1.597859 -0.262469 1.507931
-1.508625 -0.240574 1.712132
-1.720321 -0.292834 2.210237
-1.904368 -0.338231 2.529354
-1.742479 -0.298519 2.928875
-1.791858 -0.310803 3.337567
-1.815676 -0.316915 4.110100
-1.788513 -0.310349 4.477939
-1.535829 -0.248207 4.612842
-1.330710 -0.197825 4.917864
-1.356209 -0.204177 5.153757
-1.320444 -0.195516 5.590742
-1.609043 -0.266667 5.980413
-1.863948 -0.329566 6.496301
-1.963054 -0.354196 7.240120
-2.005212 -0.364644 7.465557
-1.922416 -0.344375 7.797244
-1.843161 -0.324978 8.129847
-1.812169 -0.317394 8.264378
-1.586446 -0.262031 8.843243
-1.314838 -0.195305 9.207219
-0.364567 0.071790 0.668151
-1.702007 -0.137144 0.160126
-1.651978 -0.129499 0.718037
-1.703716 -0.137701 1.073919
-1.640578 -0.127874 1.210804
-1.702416 -0.137806 2.045097
-2.139203 -0.206330 2.790532
-1.887304 -0.167235 3.691420
-2.020408 -0.188110 3.898643
-1.825365 -0.157786 4.430803
-1.684014 -0.135720 4.533573
-1.497048 -0.106565 4.770795
-1.311877 -0.077691 5.010514
-1.345949 -0.083189 5.547593
-1.538593 -0.113537 6.272746
-1.821164 -0.157857 6.720829
-1.991788 -0.184571 6.844724
-1.926387 -0.174544 7.468001
-1.987383 -0.184131 7.628194
-1.920767 -0.173802 7.895279
-1.810338 -0.156685 8.361741
-1.582302 -0.121219 8.942392
-1.498999 -0.108168 8.857895
-1.747745 0.010236 0.079585
-1.663461 0.015705 0.704498
-1.746599 0.010026 0.994418
-1.620426 0.018421 1.265012
-2.302339 -0.027861 2.683760
-2.337559 -0.030283 2.857178
-2.068467 -0.012404 3.520101
-1.933589 -0.003537 4.153193
-1.883412 -0.000207 4.289555
-1.716243 0.010882 4.758181
-1.434365 0.029764 4.964697
-1.277628 0.040150 5.440176
-1.190787 0.045901 5.714760
-1.243005 0.042337 5.883819
-1.849487 0.001216 7.013972
-1.987739 -0.008156 7.266133
-1.930780 -0.004522 7.886504
-1.850524 0.000768 8.218569
-1.759072 0.006789 8.617921
-1.617638 0.016239 8.797605
-1.696439 0.155948 -0.054584
-1.699240 0.155785 0.615518
-1.755020 0.156685 0.729929
-1.623306 0.154314 1.243115
-2.313211 0.165368 2.901746
-1.991604 0.159892 3.157836
-1.884231 0.158006 3.426369
-2.052840 0.160623 4.102128
-2.023874 0.160021 4.470149
-1.904444 0.158006 4.506579
-1.645581 0.153526 4.942646
-1.531914 0.151513 5.281078
-1.348162 0.148354 5.523132
-1.187377 0.145601 5.699956
-1.445051 0.149759 6.225618
-1.769978 0.154998 6.902766
-1.836087 0.155944 7.423773
-1.846811 0.156010 7.784270
-1.909898 0.157018 7.945100
-1.942292 0.157470 8.237193
-1.767468 0.154439 8.550199
-1.581704 0.151202 8.932996
-1.658070 0.300289 0.659732
-2.224528 0.358658 2.293076
-2.384953 0.375214 2.676136
-2.285921 0.364762 3.173836
-2.008357 0.335944 3.063651
-1.746627 0.308527 3.728265
-1.949387 0.329507 4.036639
-1.992403 0.333924 4.206785
-1.755606 0.309099 4.871476
-1.569993 0.289729 5.108965
-1.524519 0.284959 5.246055
-1.277945 0.259187 5.688952
-1.045000 0.234947 5.768278
-1.244319 0.255438 6.495683
-1.687795 0.301338 7.129704
-1.861146 0.319319 7.251526
-1.756840 0.308350 7.652538
-1.851223 0.318020 8.101665
-1.855086 0.318288 8.524832
-1.727707 0.305010 8.638945
-1.405894 0.271379 9.202208
-1.562362 0.420412 -0.106283
-1.780833 0.460924 0.343124
-1.707784 0.447209 0.722923
-1.639330 0.434349 1.102521
-2.332039 0.562822 2.458793
-2.365899 0.569068 2.631456
-2.097907 0.518988 3.287197
-2.187883 0.535719 3.327637
-2.093507 0.517901 4.126446
-1.973319 0.495430 4.458060
-1.763935 0.456370 4.757960
-1.491608 0.405532 5.261735
-1.426052 0.393267 5.465820
-1.165275 0.344576 5.977827
-0.876431 0.290734 6.263693
-1.558531 0.417392 7.121274
-1.627610 0.430081 7.641923
-1.752478 0.453216 7.959298
-1.739471 0.450639 8.449845
-1.738773 0.450508 8.452956
-1.609897 0.426333 9.054625
-1.293313 0.367396 9.131432
-1.656958 0.590025 0.281066
-1.733293 0.611024 0.573119
-1.664150 0.591794 0.952888
-1.629153 0.582020 1.265887
-2.252245 0.753801 2.514203
-2.347228 0.779958 2.792402
-2.010405 0.686776 3.111740
-1.781825 0.623415 3.709509
-2.001546 0.684054 3.953220
-1.971808 0.675716 4.321350
-1.787860 0.624807 4.554367
-1.608860 0.575168 5.088548
-1.430637 0.525839 5.327360
-1.376920 0.510831 5.830334
-1.171659 0.454105 5.841860
-0.903035 0.379682 6.427392
-1.385096 0.512754 6.864290
-1.627582 0.579693 7.080850
-1.662044 0.589004 7.733216
-1.769914 0.618688 8.115884
-1.817743 0.631832 8.340660
-1.608591 0.573868 8.852742
-1.392006 0.513985 8.948219
-1.700832 0.767996 0.289307
-1.714947 0.773101 0.712547
-1.562381 0.716205 1.290312
-2.323250 0.998442 2.918393
-2.171024 0.941734 3.312079
-1.772171 0.793503 3.298046
-1.847500 0.821385 3.639393
-2.055422 0.898480 4.179944
-1.875288 0.831454 4.411780
-1.588609 0.724719 4.977869
-1.456136 0.675449 5.083137
-1.351148 0.636316 5.421826
-1.101550 0.543379 5.934509
-0.882399 0.461904 6.016489
-1.057310 0.526766 6.445027
-1.508803 0.694399 6.947206
-1.621149 0.736045 7.268889
-1.811502 0.806654 7.678678
-1.765565 0.789373 8.299624
-1.630587 0.739148 8.478880
-1.469325 0.679108 8.793173
-1.232223 0.590911 9.023081
-1.623368 0.911709 0.074821
-1.546931 0.875206 0.698017
-1.569008 0.885624 0.878202
-1.452370 0.830075 1.390183
-2.182651 1.176275 2.778210
-2.322798 1.242755 2.924874
-2.056919 1.116471 3.111438
-1.781813 0.985701 3.602352
-1.857350 1.021442 3.941422
-1.764590 0.977211 4.506425
-1.678502 0.936250 4.774478
-1.550233 0.875321 4.878219
-1.361300 0.785524 5.183360
-0.999599 0.613367 6.474653
-1.227606 0.721405 7.058564
-1.591669 0.894220 7.100951
-1.567029 0.882351 7.594981
-1.681083 0.936385 7.912830
-1.539354 0.868871 8.579515
-1.538515 0.868471 8.583666
-1.282743 0.746924 8.945862
-1.551216 1.052853 0.049219
-1.477811 1.009786 0.672084
-1.390315 0.958561 1.117868
-1.439312 0.987028 1.471845
-2.100946 1.372525 3.225470
-1.670646 1.121138 3.943929
-1.542245 1.046056 4.344112
-1.601504 1.080494 4.746086
-1.439390 0.985798 4.982283
-1.285409 0.895738 5.519548
-1.027937 0.745373 5.799128
-0.843766 0.637885 5.811817
-0.934643 0.690667 6.511962
-1.184831 0.836516 6.960992
-1.425280 0.976659 7.469027
-1.576830 1.065061 7.589344
-1.532830 1.039156 8.212877
-1.532038 1.038692 8.216758
-1.380983 0.950421 8.530336
-0.833302 0.630580 9.107088
-0.138802 0.251664 1.110608
-1.351503 1.097158 0.317673
-1.359366 1.102383 0.986889
-1.280186 1.047028 1.431840
-2.074213 1.599840 2.960172
-1.651928 1.305139 3.979387
-1.607202 1.273687 4.709321
-1.490712 1.192461 4.811659
-1.337220 1.085394 5.048002
-1.227326 1.008649 5.451665
-0.904011 0.783220 5.700484
-0.784680 0.699869 6.179038
-1.003000 0.851828 6.699877
-1.242788 1.018778 7.145268
-1.328617 1.078448 7.533216
-1.431827 1.150258 7.851559
-1.457888 1.168310 8.143811
-1.431489 1.149859 8.279909
-1.276488 1.041685 8.660259
-0.976192 0.832289 8.936402
-0.608523 0.575967 9.131966
-1.294638 1.242338 0.209734
-1.203366 1.166051 1.145969
-1.177290 1.144238 1.458410
-1.909974 1.752813 3.286859
-1.527016 1.434040 4.007103
-1.485709 1.399390 4.736829
-1.484802 1.398634 4.740172
-1.271638 1.221156 5.240115
-1.113871 1.089828 5.545670
-0.827676 0.851746 5.727716
-0.820933 0.845987 6.098898
-1.127993 1.101178 6.512797
-1.188210 1.151069 6.971163
-1.267014 1.216446 7.359440
-1.362403 1.295644 7.678236
-1.373214 1.304488 8.036535
-1.277523 1.224691 8.570175
-1.190499 1.152300 8.618327
-0.866155 0.882344 9.163806
-0.168937 0.346288 0.876007
-0.992932 1.162762 -0.151483
-1.191031 1.358696 0.409426
-1.138893 1.306895 0.789386
-1.134363 1.302300 1.035975
-1.152299 1.319876 1.456787
-1.762786 1.923665 3.245725
-1.680499 1.841928 3.804627
-1.625982 1.787850 4.003448
-1.570623 1.732809 4.498150
-1.552745 1.715073 4.567428
-1.302455 1.467030 4.964176
-1.218113 1.383487 5.001944
-0.987341 1.154799 5.342270
-0.827032 0.995875 5.719252
-1.010462 1.177298 6.243475
-1.104635 1.270445 6.501352
-1.173718 1.338688 6.889798
-1.233702 1.397893 7.341238
-1.182998 1.347375 8.029794
-1.138027 1.302721 8.296580
-1.137855 1.302551 8.297619
-1.004196 1.170018 8.676894
-0.824176 0.991639 8.904772
-0.496299 0.666820 9.165665
-0.932370 1.294735 0.161351
-0.954038 1.319839 1.011083
-1.049898 1.432644 1.166464
-0.969564 1.337798 1.677809
-1.603466 2.083516 3.197304
-1.628186 2.112542 3.367998
-1.560054 2.032187 3.630072
-1.537678 2.005660 3.993867
-1.426403 1.874405 4.452337
-1.379607 1.819205 4.651811
-1.213650 1.623572 5.081630
-0.990108 1.360143 5.485934
-0.899863 1.253823 5.592707
-0.879731 1.229905 6.028143
-1.025886 1.401869 6.318864
-1.038550 1.416463 6.976197
-1.019717 1.394047 7.471365
-1.059635 1.440973 7.633090
-1.037295 1.414601 7.769812
-0.963720 1.327734 8.239758
-0.885460 1.235317 8.778352
-0.721923 1.042633 9.007330
-0.867823 1.436197 -0.003860
-0.889684 1.466522 0.597062
-0.849105 1.409425 0.975122
-0.934509 1.528950 1.369878
-0.846321 1.405128 1.704381
-1.401404 2.182514 3.283578
-1.394280 2.172365 3.581320
-1.305648 2.047890 3.971967
-1.345111 2.103162 4.074357
-1.260248 1.983971 4.466078
-1.150504 1.829982 4.695328
-1.044490 1.681063 5.223230
-0.853190 1.412835 5.262634
-0.728880 1.238186 5.933624
-0.836856 1.389342 6.356776
-0.914229 1.497682 6.614433
-0.926112 1.514184 6.909251
-0.908922 1.489816 7.402276
-0.915487 1.498826 7.761246
-0.924488 1.511252 8.119007
-0.840442 1.393322 8.297613
-0.756998 1.276234 8.477816
-0.632642 1.101602 8.996781
