1.058511 1.827871 1.518311
1.121175 1.924071 1.844668
1.070491 1.846333 1.983622
1.031830 1.787100 2.453254
0.985431 1.715948 2.661034
1.003633 1.743945 3.059902
0.966687 1.687320 3.402412
0.970520 1.693213 3.470932
1.048780 1.813353 3.858463
1.021440 1.771478 4.268630
0.922926 1.620360 4.429619
0.868045 1.536280 5.125748
0.876097 1.548756 5.815208
0.938382 1.644423 6.415501
1.014222 1.760813 6.596339
1.138127 1.951018 7.169268
1.191652 2.033136 7.149340
1.233550 2.097475 7.477721
1.206739 2.056379 7.699198
1.117630 1.919833 8.655609
1.320199 1.870187 0.101241
1.320603 1.870787 0.629179
1.261417 1.795080 0.897199
1.266423 1.801539 1.229798
1.212135 1.732112 1.564856
1.219575 1.741675 1.830955
1.233389 1.759417 2.228465
1.189037 1.702717 2.633265
1.205778 1.724195 2.965511
1.148198 1.650514 3.043130
1.132706 1.630803 3.783073
1.203514 1.721444 3.906319
1.223670 1.747282 4.172448
1.123262 1.618822 4.465344
1.030600 1.500287 4.827897
1.406868 1.676757 0.196177
1.542885 1.823090 0.265826
1.407498 1.677491 0.597363
1.415128 1.685783 1.191850
1.353100 1.619093 1.461732
1.360735 1.627345 1.728642
1.369978 1.637326 1.995443
1.318846 1.582377 2.400446
1.335662 1.600514 2.733665
1.359097 1.625781 3.132417
1.295701 1.557593 3.210294
1.338412 1.603624 3.806480
1.365695 1.633021 4.138266
1.266803 1.526696 4.562989
1.199621 1.454426 4.579432
1.694296 1.683559 0.205182
1.546758 1.550065 0.600698
1.551365 1.554287 0.996962
1.555144 1.557733 1.196209
1.569869 1.571130 1.723479
1.505822 1.513193 1.993644
1.530919 1.535978 2.521956
1.550143 1.553421 2.852685
1.480564 1.490451 2.929239
1.439053 1.452939 3.402372
1.459994 1.471929 3.668495
1.482672 1.492490 3.934360
1.439888 1.453808 4.278682
1.326616 1.351326 4.638759
2.521765 2.433460 7.230484
2.567695 2.475068 7.483845
2.507880 2.420937 7.573341
1.753200 1.470836 0.389628
1.758834 1.475185 0.980925
1.686401 1.420226 1.313637
1.690128 1.423072 1.447199
1.715410 1.442349 2.105407
1.632967 1.379742 2.047863
1.649476 1.392318 2.378958
1.589486 1.346808 2.717706
1.626566 1.375027 3.246810
1.647972 1.391312 3.512191
1.598186 1.353551 3.854603
1.644145 1.388503 4.317601
1.493525 1.274148 4.412370
1.380899 1.188681 4.840620
2.695292 2.186984 7.089358
2.793135 2.261338 7.592957
2.729003 2.212653 7.682024
2.034524 1.433289 0.500171
1.871271 1.328925 0.960988
1.870189 1.328225 0.897085
1.882479 1.336147 1.422007
1.889119 1.340416 1.619733
1.827975 1.301368 2.150217
1.854491 1.318381 2.610350
1.770591 1.264719 2.619485
1.709363 1.225597 2.958051
1.662519 1.195689 3.430464
1.680324 1.207100 3.629867
1.712354 1.227624 3.960854
1.694132 1.216039 4.568185
1.535380 1.114512 4.663883
1.594377 1.152299 5.129041
2.855790 1.959322 7.056692
2.868511 1.967465 7.121034
2.959069 2.025436 7.561653
1.979298 1.158588 0.875613
1.978301 1.158061 0.810429
1.996278 1.167522 1.530329
1.996287 1.167527 1.530584
2.012556 1.176061 1.923106
1.952902 1.144982 2.453018
1.873001 1.103292 2.591769
1.917609 1.126640 3.182852
1.846584 1.089590 3.389934
1.864960 1.099203 3.587419
1.919520 1.127738 4.112911
1.854213 1.093673 4.322995
1.694302 1.010224 4.481879
1.693564 1.009912 5.158239
1.712550 1.019837 5.290733
2.875079 1.626839 7.249486
2.875132 1.626866 7.249733
2.157313 1.025476 0.470949
2.157331 1.025483 0.474771
2.166991 1.029604 1.130813
2.174647 1.032843 1.395430
2.193109 1.040635 1.855433
2.111074 1.006247 2.060441
2.030097 0.972302 2.262607
2.038139 0.975688 2.393396
1.978579 0.950755 2.859866
2.005701 0.962165 3.187720
1.978263 0.950726 3.854274
1.992697 0.956794 3.985293
2.000097 0.959904 4.050648
1.908041 0.921370 4.800228
1.835117 0.890797 4.946675
2.586821 1.206323 7.084595
2.676645 1.243998 7.061959
2.745962 1.273106 7.381311
2.774313 1.285054 7.915801
2.642436 1.229763 8.158239
2.496151 1.168423 8.338460
2.427161 0.898368 0.339112
2.523563 0.929436 0.600393
2.332710 0.867975 0.540296
2.241513 0.838642 0.870208
2.262280 0.845402 1.590466
2.262403 0.845442 1.593521
2.175984 0.817635 1.796974
2.109997 0.796441 2.329414
2.153217 0.810418 2.921755
2.182161 0.819771 3.251773
2.087711 0.789359 3.264573
2.113528 0.797699 3.529821
2.054315 0.778667 3.871970
1.998598 0.760760 4.214076
1.982843 0.755748 4.821310
1.927457 0.737942 5.101284
2.566561 0.943930 7.009296
2.594867 0.953057 7.139441
2.727934 0.995964 7.719037
2.682750 0.981437 7.937487
2.671890 0.977975 8.285425
2.400113 0.665655 0.712979
2.407610 0.667416 1.105267
2.322756 0.647956 1.501357
2.337108 0.651287 1.829476
2.358937 0.656342 2.222518
2.270200 0.635964 2.361780
2.309480 0.645042 2.886125
2.212568 0.622774 2.896965
2.267655 0.635491 3.487577
2.326168 0.648988 4.011794
2.237658 0.628657 4.091725
2.157602 0.610275 4.237644
2.065260 0.589130 4.990400
1.969297 0.567080 5.008018
2.467920 0.681826 6.681940
2.618432 0.716436 6.920361
2.750431 0.746826 7.500726
2.671361 0.728665 7.589835
2.832929 0.765856 8.233060
2.696383 0.734503 8.479306
2.743382 0.497912 0.455410
2.652600 0.485208 1.038747
2.557028 0.471787 1.172477
2.570610 0.473734 1.562777
2.477399 0.460645 1.698625
2.402883 0.450216 2.160975
2.429349 0.453974 2.553236
2.340682 0.441524 2.692988
2.275475 0.432398 3.095235
2.314117 0.437868 3.489107
2.342794 0.441924 3.751983
2.291757 0.434789 4.157598
2.219332 0.424630 4.368708
2.206104 0.422829 4.974589
2.010658 0.395360 5.006987
2.392774 0.449223 6.569856
2.531057 0.468678 6.745768
2.670347 0.488274 6.920109
2.804649 0.507208 7.501228
2.756170 0.500415 7.719823
2.888892 0.519121 8.235062
2.732822 0.497201 8.417708
2.441650 0.456315 8.850904
2.774865 0.274371 0.493875
2.676807 0.268631 0.690191
2.687740 0.269323 1.208704
2.596893 0.264013 1.472744
2.518281 0.259440 1.933242
2.422299 0.253810 2.005809
2.466167 0.256449 2.658674
2.482228 0.257411 2.855751
2.400178 0.252612 3.061843
2.438716 0.254913 3.454693
2.368163 0.250796 3.728282
2.292177 0.246353 3.937951
2.369057 0.250926 4.527970
2.229527 0.242771 4.951545
2.085051 0.234321 5.313668
2.128909 0.236975 6.127301
2.319036 0.248184 6.568636
2.584254 0.263789 6.854106
2.754845 0.273838 7.157052
2.800596 0.276544 7.352119
2.750684 0.273633 7.570715
2.751788 0.273738 7.983666
2.697926 0.270629 8.553353
2.332025 0.249155 8.727961
2.887805 0.031627 0.417133
2.989034 0.028856 0.612076
2.791706 0.034315 0.810620
2.695666 0.036981 1.009493
2.712271 0.036574 1.529370
2.624221 0.039027 1.795392
2.546437 0.041209 2.192852
2.573666 0.040496 2.585033
2.506499 0.042386 2.985722
2.506771 0.042379 2.988767
2.565138 0.040827 3.576005
2.602730 0.039822 3.903065
2.511762 0.042337 3.983050
2.454761 0.043942 4.323961
2.430718 0.044656 4.862080
2.154996 0.052275 5.041766
2.110161 0.053544 5.389808
2.267706 0.049284 6.252758
2.516808 0.042484 6.952736
2.644169 0.038984 7.063447
2.735617 0.036500 7.453914
2.736346 0.036480 7.456936
2.689439 0.037834 8.089525
2.715981 0.037149 8.570491
2.331682 0.047754 8.680998
2.979356 -0.225067 0.394844
2.880604 -0.213885 0.527374
2.785268 -0.203071 0.853855
2.697549 -0.193106 1.311572
2.704762 -0.193902 1.509206
2.634602 -0.185910 2.099676
2.556770 -0.177075 2.434081
2.587086 -0.180465 2.827040
2.616356 -0.183744 3.154849
2.557355 -0.177032 3.557767
2.586788 -0.180336 3.819315
2.488370 -0.169203 3.833289
2.536849 -0.174648 4.225262
2.464732 -0.166471 4.435799
2.365049 -0.155131 5.119223
2.190412 -0.135363 5.284539
2.214204 -0.137935 6.511672
2.394803 -0.158325 6.885604
2.565032 -0.177549 7.191010
2.610863 -0.182713 7.387635
2.625760 -0.184352 7.866832
2.648351 -0.186860 8.347227
2.948381 -0.484250 0.409326
2.951979 -0.484941 0.795339
2.857694 -0.465808 0.991838
2.864583 -0.467179 1.250811
2.781146 -0.450226 1.642345
2.699244 -0.433591 1.971811
2.608888 -0.415260 2.109277
2.536723 -0.400591 2.507031
2.546530 -0.402566 2.639220
2.512125 -0.395520 3.364166
2.512379 -0.395572 3.366701
2.576857 -0.408585 3.952644
2.569464 -0.407093 3.890416
2.555970 -0.404292 4.553797
2.477736 -0.388418 4.700417
2.256845 -0.343588 5.205382
2.247707 -0.341582 6.773588
2.414282 -0.375321 7.079809
2.519111 -0.396527 7.536052
2.550538 -0.402885 7.667005
2.474621 -0.387445 8.172010
2.302371 -0.352515 8.289627
2.011890 -0.293585 8.724229
2.898222 -0.733447 0.651526
2.807426 -0.706806 0.975055
2.812171 -0.708178 1.169168
2.734848 -0.685465 1.688305
2.636262 -0.656580 1.630181
2.559398 -0.634015 2.024632
2.479086 -0.610452 2.291691
2.496783 -0.615612 2.552872
2.426353 -0.594939 2.887233
2.365683 -0.577119 3.288608
2.493999 -0.614691 3.604880
2.759970 -0.692573 4.227907
2.690287 -0.672131 4.436074
2.622015 -0.652103 4.645371
2.394710 -0.585446 5.081288
1.897099 -0.439457 6.679484
2.317908 -0.562719 7.273760
2.347400 -0.571348 7.404679
2.392609 -0.584577 7.600549
2.361737 -0.575501 7.885600
2.257203 -0.544829 8.262560
2.734309 -0.929080 0.298623
2.827699 -0.964874 0.363382
2.736378 -0.929834 0.684962
2.743170 -0.932398 1.070488
2.657008 -0.899342 1.331101
2.590902 -0.873934 1.980374
2.501169 -0.839529 2.051417
2.520468 -0.846894 2.375494
2.470483 -0.827672 2.966449
2.301398 -0.762834 3.180464
2.418686 -0.807768 3.431333
2.837167 -0.968145 3.838214
2.744541 -0.932637 3.850878
2.739172 -0.930504 4.570129
2.682636 -0.908804 4.842395
2.405861 -0.802702 4.888641
1.819398 -0.577726 6.492933
1.962246 -0.632459 6.737830
2.029423 -0.658176 7.067939
2.143799 -0.701966 7.593960
2.416165 -0.806338 7.937619
2.325891 -0.771730 7.963181
2.291555 -0.758502 8.601694
2.004842 -0.648594 8.616744
2.736896 -1.204197 0.694471
2.646938 -1.160554 0.696236
2.565230 -1.120864 1.148420
2.482828 -1.080859 1.409891
2.402520 -1.041868 1.673027
2.431545 -1.055888 2.255791
2.807624 -1.238203 3.579902
2.814131 -1.241353 3.644139
2.766300 -1.218105 4.039318
2.602792 -1.138762 4.193529
2.578687 -1.127011 4.722118
2.347712 -1.014920 5.026522
1.717177 -0.708883 6.234847
1.914953 -0.804774 6.810712
2.054827 -0.872608 7.052775
2.007476 -0.849612 7.272343
2.120838 -0.904554 7.797265
2.180668 -0.933553 8.059136
2.132972 -0.910352 8.634014
1.906209 -0.800314 8.846635
2.535799 -1.383402 0.538398
2.449362 -1.331846 0.413427
2.368777 -1.283709 0.933331
2.381901 -1.291481 1.452745
2.388914 -1.295643 1.649334
2.317255 -1.252853 1.980409
2.751790 -1.511955 3.306145
2.781421 -1.529598 3.625900
2.702559 -1.482539 3.702884
2.664892 -1.460015 4.163485
2.532574 -1.381032 4.512504
2.421093 -1.314467 4.994271
1.589167 -0.817970 6.394345
1.864739 -0.982319 6.951217
1.974016 -1.047502 7.063020
1.995943 -1.060523 7.612130
1.940575 -1.027472 7.769144
1.929193 -1.020641 8.124081
1.838510 -0.966495 8.506345
2.326385 -1.536443 0.268619
2.166959 -1.421704 0.788611
2.167872 -1.422353 0.855421
2.185270 -1.434783 1.569858
2.187610 -1.436458 1.636616
2.610563 -1.740498 3.284284
2.681252 -1.791362 3.149378
2.650421 -1.769115 3.733059
2.582338 -1.720126 3.874061
2.440887 -1.618352 4.092447
2.337520 -1.543935 4.635191
2.162117 -1.417698 5.198984
1.509057 -0.947805 6.367569
1.564284 -0.987491 6.701282
1.610646 -1.020808 6.967962
1.617127 -1.025412 7.455299
1.760839 -1.128750 7.763569
1.893404 -1.224077 8.003315
1.777982 -1.141023 8.251815
1.659928 -1.056033 8.859823
2.109898 -1.666163 0.489152
2.034066 -1.601009 0.493506
1.964008 -1.540751 1.017932
1.968035 -1.544185 1.216711
1.981167 -1.555410 1.675285
2.515182 -2.014039 3.124362
2.510862 -2.010335 3.064661
2.492147 -1.994165 3.776952
2.353581 -1.875093 3.932051
2.323254 -1.848978 4.396236
2.133691 -1.686063 4.764092
1.909103 -1.493097 4.812457
1.605424 -1.232027 6.039459
1.337132 -1.001482 6.318129
1.473513 -1.118609 6.701801
1.516837 -1.155798 6.968480
1.573427 -1.204376 7.300785
1.534996 -1.171329 7.523359
1.733292 -1.341620 8.159995
1.647186 -1.267644 8.120587
1.889374 -1.768854 0.393783
1.751204 -1.627835 0.722691
1.753523 -1.630174 0.920652
1.690902 -1.566228 1.317505
2.261014 -2.147664 3.089210
2.278861 -2.165837 3.345886
2.164268 -2.048872 3.688651
2.089796 -1.972896 3.638148
1.983255 -1.864136 4.050139
1.880762 -1.759507 4.466709
1.142493 -1.006038 6.073254
1.344022 -1.211596 6.505040
1.363450 -1.231401 6.640309
1.397179 -1.265719 7.327882
1.362018 -1.229814 7.552143
1.407400 -1.276080 7.819957
1.582605 -1.454761 8.391627
1.485486 -1.355637 8.644011
1.740310 -1.918474 0.680544
1.614375 -1.767030 0.880399
1.623573 -1.778010 1.403833
1.630396 -1.786174 1.666328
2.024406 -2.259661 3.251759
1.850890 -2.050995 3.541170
1.733108 -1.909361 3.694270
1.625852 -1.780362 3.979460
1.485713 -1.611776 4.609422
1.327339 -1.421303 4.984797
1.176608 -1.239927 5.987532
1.138171 -1.193680 6.208236
1.252002 -1.330484 6.590473
1.278906 -1.362801 6.791527
1.253586 -1.332314 7.080208
1.239893 -1.315798 7.436600
1.322567 -1.415118 7.969298
1.439209 -1.555312 8.276243
1.372865 -1.475488 8.659750
1.076810 -1.119506 8.861393
1.455493 -1.893689 0.413362
1.401902 -1.816716 0.941050
1.401209 -1.815732 0.879447
1.356787 -1.751878 1.607137
1.804337 -2.393751 2.863345
1.750669 -2.316743 2.937596
1.556003 -2.037358 3.558780
1.317308 -1.694789 4.275991
1.111313 -1.399201 4.595892
0.969139 -1.195061 5.597661
0.947020 -1.163268 5.952334
1.118211 -1.408787 6.451002
1.165786 -1.476973 6.851141
1.199237 -1.524920 7.117795
1.205232 -1.533438 7.605346
1.223791 -1.560041 7.739202
1.300704 -1.670296 8.268530
1.200369 -1.526330 8.387234
1.065680 -1.333048 8.666176
1.238735 -1.925475 0.584696
1.193427 -1.846805 1.113386
1.195341 -1.850098 1.247233
1.454256 -2.298723 3.122673
1.302126 -2.034919 3.088320
1.120631 -1.719950 4.329191
0.922647 -1.376615 4.383282
0.861731 -1.270870 4.948571
0.849690 -1.249897 5.435633
0.652706 -0.908292 5.502757
0.737246 -1.054818 5.894261
0.915900 -1.364568 6.177421
0.984540 -1.483563 6.360029
0.969633 -1.457644 6.714500
1.012933 -1.532653 7.115247
1.010250 -1.527920 7.537868
1.075702 -1.641317 8.069875
1.127889 -1.731739 8.467718
1.025917 -1.934131 0.551705
0.986014 -1.848589 0.949280
0.988054 -1.852912 1.148425
0.991630 -1.860510 1.413380
1.186575 -2.277729 2.508551
1.113167 -2.120450 2.850971
0.958812 -1.789608 4.154938
0.809716 -1.470237 4.540902
0.750645 -1.343640 4.972682
0.770450 -1.385848 5.865287
0.749984 -1.341955 6.153206
0.819304 -1.490329 6.470181
0.848609 -1.553008 6.805040
0.902198 -1.667743 6.918500
0.918502 -1.702516 7.538623
0.897837 -1.658211 7.762450
0.884973 -1.630598 8.053650
0.929095 -1.724993 8.452905
0.788905 -1.424711 8.758880
0.822062 -1.920480 0.173618
0.789494 -1.831390 0.902555
0.793054 -1.840992 1.301371
0.794661 -1.845342 1.435824
0.797440 -1.852869 1.636300
0.955268 -2.283354 2.602528
0.894033 -2.116149 2.881886
0.760638 -1.751768 3.993840
0.685408 -1.546268 4.633752
0.580077 -1.258798 4.610550
0.562741 -1.211208 5.592954
0.630007 -1.394649 6.116250
0.677217 -1.523445 6.300645
0.714925 -1.626211 6.836507
0.750589 -1.723418 7.304042
0.777543 -1.796887 7.636626
0.760970 -1.751594 7.860351
0.801941 -1.863284 8.324684
0.753918 -1.732146 8.576245
0.633902 -1.404524 8.816592
0.608469 -1.788287 0.339981
0.609521 -1.791936 0.804995
0.611432 -1.798747 1.137308
0.767922 -2.365655 2.755194
0.745878 -2.285639 2.959734
0.666457 -1.997617 2.986861
0.595152 -1.738589 4.222881
0.480435 -1.322386 4.759303
0.455829 -1.232899 5.467078
0.484354 -1.336122 6.075049
0.520694 -1.467839 6.258788
0.527709 -1.493229 6.393611
0.553388 -1.586181 6.862597
0.572909 -1.656852 7.196880
0.576009 -1.667915 7.686622
0.584689 -1.699345 7.820520
0.595108 -1.736929 8.377882
0.562907 -1.620038 8.696926
0.417752 -1.637005 0.239946
0.418597 -1.641227 0.844401
0.419083 -1.643770 0.979198
0.419679 -1.646897 1.113982
0.486241 -2.003853 2.430586
0.533626 -2.258087 3.139166
0.406850 -1.576368 4.156057
0.353982 -1.292243 4.262111
0.322603 -1.123518 4.492463
0.334877 -1.188886 5.596766
0.372990 -1.393361 6.188129
0.377784 -1.419053 6.323984
0.405580 -1.568270 6.574064
0.426495 -1.680371 7.109674
0.440458 -1.755217 7.443873
0.434343 -1.722208 7.734478
0.407917 -1.580086 7.983802
0.436635 -1.734078 8.585548
0.397284 -1.522455 8.933664
0.275276 -1.667154 0.475687
0.265786 -1.570150 0.746694
0.266628 -1.578337 1.151086
0.276788 -1.681772 1.284460
0.301957 -1.937237 2.411951
0.334125 -2.264793 2.786794
0.327864 -2.200572 3.191051
0.311049 -2.028873 3.476334
0.265425 -1.563462 3.800962
0.232307 -1.225334 4.322887
0.227144 -1.172348 4.677516
0.222508 -1.124115 5.666065
0.235657 -1.257972 5.854624
0.251393 -1.418070 6.176299
0.268780 -1.594935 6.562040
0.277096 -1.679314 6.965338
0.284430 -1.753750 7.300933
0.270024 -1.606651 7.548692
0.275111 -1.657889 8.176465
0.282001 -1.727862 8.445617
0.257301 -1.475851 8.659517
0.129497 -1.584403 0.244380
0.128363 -1.484558 0.448855
0.128545 -1.494686 1.123867
0.128520 -1.493090 1.059841
0.136730 -2.188721 2.833962
0.136734 -2.188977 2.837040
0.134653 -2.007166 3.055000
0.129316 -1.535315 4.261240
0.124391 -1.104585 4.804605
0.125100 -1.157862 5.774325
0.126382 -1.268423 5.825551
0.128733 -1.467442 6.347622
0.130055 -1.577418 6.885318
0.128758 -1.465513 6.839780
0.129815 -1.553609 7.243413
0.129431 -1.517984 7.534925
0.131400 -1.682796 8.205155
0.132449 -1.770786 8.539270
0.127998 -1.384778 8.644048
0.008298 -1.390223 0.243860
0.015503 -1.293861 0.788333
0.007489 -1.402360 1.194904
0.007482 -1.402464 1.198590
0.006044 -1.422546 1.741203
0.020591 -1.226659 1.821855
-0.005187 -1.574999 2.615880
-0.042481 -2.077498 2.648198
-0.037978 -2.017436 3.122079
-0.008621 -1.623204 4.117382
0.040864 -0.956880 4.412222
0.049888 -0.836053 4.991545
0.053281 -0.790812 5.353901
0.050769 -0.824938 5.563720
0.031805 -1.080837 5.875375
0.017985 -1.267631 6.336028
0.016962 -1.281508 6.407394
0.009843 -1.378038 6.881541
0.004423 -1.451499 7.219658
-0.001270 -1.528648 7.556948
-0.000048 -1.512653 7.917323
-0.000422 -1.518243 8.346066
0.095191 -0.107182 -0.235050
-0.096225 -1.286897 0.331573
-0.080485 -1.190126 0.673223
-0.097162 -1.293041 0.944971
-0.099617 -1.308490 1.488168
-0.086463 -1.227693 1.901005
-0.105496 -1.345165 2.235930
-0.174631 -1.771392 2.679787
-0.208278 -1.978776 2.798944
-0.215923 -2.026198 3.329680
-0.187334 -1.850184 3.551016
-0.146798 -1.600693 3.986938
-0.081929 -1.201002 3.968923
-0.048236 -0.993839 4.690042
-0.019661 -0.817880 4.857468
0.007125 -0.652984 5.095608
0.000226 -0.695660 5.373977
-0.058185 -1.055771 5.738344
-0.094031 -1.277028 6.401581
-0.098390 -1.303966 6.539206
-0.111891 -1.387395 6.946596
-0.119005 -1.431351 7.151048
-0.118198 -1.426632 7.579573
-0.107813 -1.362745 7.739833
-0.129348 -1.495753 8.280751
-0.118582 -1.429735 8.806143
-0.056426 -0.694426 -0.040178
-0.175377 -1.177949 0.374268
-0.152028 -1.083207 0.716353
-0.175927 -1.180322 0.716686
-0.177763 -1.187946 1.125297
-0.180882 -1.200784 1.533768
-0.183679 -1.212262 1.806501
-0.265781 -1.546173 2.531586
-0.337314 -1.836840 2.511642
-0.346133 -1.872863 2.977508
-0.358294 -1.922492 3.508935
-0.292203 -1.654027 3.742238
-0.202803 -1.290852 3.991079
-0.139635 -1.034294 4.300775
-0.084054 -0.808651 4.821522
-0.098787 -0.868685 5.234809
-0.106672 -0.900806 5.441941
-0.123351 -0.968749 5.853927
-0.152760 -1.088299 5.974290
-0.191440 -1.245604 6.296895
-0.220915 -1.365621 6.906566
-0.197621 -1.270977 6.928981
-0.218963 -1.357862 7.335830
-0.226161 -1.387339 7.899697
-0.215070 -1.342365 8.127711
-0.204378 -1.299010 8.356664
-0.142457 -1.047625 8.936659
0.075060 -0.124654 -0.404877
-0.243379 -1.063924 0.372302
-0.211569 -0.970184 0.580245
-0.246081 -1.072099 1.058762
-0.251702 -1.088838 1.605140
-0.252647 -1.091644 1.675272
-0.227120 -1.016496 2.090937
-0.302607 -1.239256 2.623400
-0.467746 -1.726280 2.788194
-0.441181 -1.648006 2.998555
-0.385154 -1.482876 3.286597
-0.334641 -1.334046 3.712834
-0.251500 -1.088985 4.087918
-0.213595 -0.977402 4.729246
-0.150087 -0.790133 4.759272
-0.067694 -0.547262 5.080490
-0.092279 -0.619907 5.566884
-0.234006 -1.037905 5.776404
-0.270394 -1.145392 6.390588
-0.310609 -1.264015 6.508838
-0.292489 -1.210650 6.733856
-0.315653 -1.279059 7.074230
-0.323854 -1.303414 7.638861
-0.324430 -1.305242 8.069706
-0.330046 -1.321821 8.139308
-0.251510 -1.090423 8.784757
-0.094918 -0.492604 -0.148167
-0.254389 -0.855867 0.202955
-0.294529 -0.947332 0.410867
-0.298250 -0.955969 1.096316
-0.301449 -0.963322 1.372010
-0.342610 -1.057076 1.439347
-0.315236 -0.994900 2.127687
-0.358701 -1.093920 2.260471
-0.532429 -1.489673 2.707483
-0.586129 -1.612064 3.102793
-0.429948 -1.256633 4.168721
-0.241081 -0.826572 4.438017
-0.216257 -0.770109 4.727873
-0.192509 -0.716095 5.019129
-0.169844 -0.664548 5.311761
-0.251327 -0.850262 5.915751
-0.335527 -1.042026 5.950630
-0.366320 -1.112252 6.360357
-0.404953 -1.200348 6.836738
-0.422500 -1.240359 7.041496
-0.401354 -1.192255 7.267796
-0.413030 -1.218981 7.833717
-0.401022 -1.191705 8.130224
-0.383077 -1.150892 8.360050
-0.225162 -0.791371 8.830891
0.053710 -0.133702 -0.298703
-0.183419 -0.569051 -0.010536
-0.374056 -0.919095 0.473551
-0.327405 -0.833513 0.749905
-0.382088 -0.934017 1.364812
-0.431044 -1.023896 1.431375
-0.436250 -1.033508 1.705289
-0.302912 -0.788830 2.132243
-0.420750 -1.005278 2.803877
-0.672851 -1.468109 3.100865
-0.634312 -1.397407 3.313070
-0.545580 -1.234558 3.469295
-0.420329 -1.004713 3.842063
-0.249749 -0.691664 4.233241
-0.237399 -0.669107 4.799330
-0.299171 -0.782539 4.993153
-0.140802 -0.491923 5.468936
-0.104526 -0.425363 5.624531
-0.327370 -0.834500 5.970877
-0.392430 -0.953965 6.158431
-0.396555 -0.961652 6.723701
-0.470653 -1.097721 6.975789
-0.520998 -1.190233 7.450419
-0.450566 -1.060993 7.699726
-0.459829 -1.078098 8.199445
-0.430136 -1.023625 8.360639
-0.389439 -0.949010 8.821077
0.042930 -0.136532 -0.213649
-0.175551 -0.466845 0.141790
-0.340790 -0.716642 0.282834
-0.342443 -0.719226 0.765755
-0.403333 -0.811349 1.245638
-0.405739 -0.815011 1.384450
-0.471812 -0.914969 1.860527
-0.473750 -0.917910 1.930591
-0.442182 -0.870313 2.621293
-0.612973 -1.128497 2.736510
-0.683531 -1.235210 3.067584
-0.638958 -1.167871 3.280971
-0.544174 -1.024648 3.573632
-0.299723 -0.655234 4.110033
-0.273970 -0.616381 4.538088
-0.185797 -0.483153 4.843908
-0.165550 -0.452624 5.276784
-0.196548 -0.499541 5.625445
-0.385925 -0.785839 5.852307
-0.420393 -0.838000 6.196552
-0.456941 -0.893306 6.540091
-0.495567 -0.951752 6.882882
-0.606716 -1.119842 7.337597
-0.542657 -1.023079 7.722546
-0.597638 -1.106258 8.130224
-0.544238 -1.025545 8.155414
-0.505709 -0.967396 8.682435
-0.212682 -0.451043 0.158592
-0.397719 -0.686813 0.229682
-0.399065 -0.688603 0.711534
-0.469187 -0.778042 1.327484
-0.475329 -0.785911 1.602121
-0.538796 -0.866786 1.667077
-0.551299 -0.882780 2.077088
-0.432968 -0.732036 2.226304
-0.511582 -0.832263 2.631167
-0.658591 -1.019640 3.092169
-0.691349 -1.061463 3.634909
-0.502772 -0.821188 3.599201
-0.352024 -0.629197 4.113800
-0.328876 -0.599781 4.609757
-0.212431 -0.451432 4.706824
-0.140667 -0.360088 5.292709
-0.236258 -0.481933 5.624904
-0.455540 -0.761370 5.919230
-0.502481 -0.821243 6.330637
-0.552750 -0.885355 6.741011
-0.579181 -0.919064 6.946188
-0.704132 -1.078337 7.400493
-0.613031 -0.962302 7.649828
-0.653331 -1.013692 7.922177
-0.667552 -1.031888 8.422009
-0.570316 -0.908027 8.609559
-0.051251 -0.217390 -0.394955
-0.252703 -0.432702 -0.106436
-0.456379 -0.650448 0.584297
-0.388051 -0.577432 0.584584
-0.398471 -0.588674 1.342218
-0.538254 -0.738064 1.472167
-0.618555 -0.823931 1.877311
-0.637194 -0.843916 2.353992
-0.585408 -0.788627 2.701615
-0.588970 -0.792442 2.769384
-0.740458 -0.954358 3.024628
-0.698376 -0.909448 3.440687
-0.508885 -0.706991 3.675747
-0.478456 -0.674544 4.166786
-0.379165 -0.568503 4.604638
-0.284043 -0.466918 5.046941
-0.148817 -0.322419 5.075821
-0.268272 -0.450135 5.546394
-0.451292 -0.645764 5.926298
-0.561373 -0.763443 6.250520
-0.606721 -0.811949 6.591545
-0.644809 -0.852689 6.863725
-0.684516 -0.895158 7.135409
-0.669851 -0.879537 7.496832
-0.758501 -0.974345 8.039478
-0.763106 -0.979327 8.470176
0.006019 -0.144169 -0.315439
-0.214921 -0.343303 -0.167593
-0.509275 -0.608633 0.253574
-0.436307 -0.542927 0.669678
-0.438511 -0.544940 0.879171
-0.599630 -0.690222 1.494630
-0.601656 -0.692057 1.565757
-0.467439 -0.571155 1.989555
-0.563241 -0.657554 2.466336
-0.808278 -0.878435 2.855058
-0.830265 -0.898294 3.195972
-0.696998 -0.778221 3.420821
-0.570375 -0.664145 3.716714
-0.550806 -0.646591 4.347461
-0.423799 -0.532161 4.581738
-0.298078 -0.418890 4.818448
-0.181385 -0.313765 5.127274
-0.230324 -0.357924 5.546857
-0.448033 -0.554193 6.068463
-0.530708 -0.628708 6.121118
-0.642363 -0.729367 6.378422
-0.641302 -0.728475 6.878353
-0.768618 -0.843256 7.199932
-0.789327 -0.861993 7.767642
-0.754204 -0.830369 7.996932
-0.772422 -0.846852 8.499269
-0.480473 -0.503048 0.071845
-0.559807 -0.563100 0.145391
-0.481417 -0.503839 0.700377
-0.483968 -0.505795 0.911213
-0.572028 -0.572492 1.325581
-0.580066 -0.578608 1.604313
-0.510431 -0.525941 1.887893
-0.702878 -0.671673 2.565779
-0.878629 -0.804719 2.826965
-0.892485 -0.815231 3.034429
-0.838468 -0.774391 3.387069
-0.641315 -0.625241 3.900327
-0.581723 -0.580167 4.121731
-0.437165 -0.470780 4.286269
-0.354563 -0.408351 5.007432
-0.197081 -0.289167 5.039062
-0.285447 -0.356130 5.737456
-0.461956 -0.489731 5.844393
-0.631841 -0.618379 6.447463
-0.753906 -0.710792 6.703725
-0.710103 -0.677668 6.931195
-0.859403 -0.790711 7.320932
-0.844564 -0.779524 7.685396
-0.793344 -0.740778 7.847029
-0.783409 -0.733303 8.213869
-0.270182 -0.301574 -0.158894
-0.605729 -0.513011 0.194516
-0.606583 -0.513596 0.610604
-0.523329 -0.461162 0.753155
-0.615012 -0.518970 1.167802
-0.634277 -0.531177 1.789633
-0.555596 -0.481625 1.935768
-0.744784 -0.600860 2.339648
-0.921506 -0.712211 2.466360
-1.116374 -0.835024 2.860952
-1.068268 -0.804772 3.345868
-0.821647 -0.649410 3.446916
-0.704067 -0.575399 4.018834
-0.663762 -0.550055 4.446052
-0.536288 -0.469789 4.820593
-0.479762 -0.434276 5.690452
-0.552786 -0.480336 6.176894
-0.669238 -0.553724 6.366874
-0.762914 -0.612803 6.916785
-0.921188 -0.712561 7.306609
-0.891809 -0.694086 7.603098
-0.782593 -0.625315 7.924341
-0.758172 -0.609964 8.223958
-0.818024 -0.647703 8.499361
-0.553271 -0.480949 8.878774
-0.383795 -0.322888 -0.140309
-0.647772 -0.459037 0.485511
-0.559285 -0.413430 0.557924
-0.654633 -0.462634 1.041134
-0.665448 -0.468254 1.456239
-0.681126 -0.476381 1.871148
-0.868354 -0.572920 2.068832
-1.077107 -0.680590 2.602254
-1.081783 -0.683008 2.672823
-1.134104 -0.710053 3.351671
-0.963409 -0.622069 3.442014
-0.812193 -0.544149 3.738271
-0.670748 -0.471273 4.106443
-0.525169 -0.396260 4.409515
-0.487470 -0.376872 4.840358
-0.289071 -0.274655 5.373473
-0.154414 -0.205272 5.687675
-0.493297 -0.380015 6.125501
-0.702785 -0.488026 6.298303
-0.775199 -0.525400 6.712233
-0.839339 -0.558502 7.056819
-0.866281 -0.572406 7.196185
-0.891243 -0.585336 7.766689
-0.894663 -0.587146 8.202162
-0.887363 -0.583422 8.570443
-0.630172 -0.450848 8.649719
-0.503500 -0.330308 -0.299834
-0.682479 -0.404983 0.255184
-0.684895 -0.406040 0.737571
-0.689348 -0.407925 1.013759
-0.700197 -0.412491 1.427265
-0.707526 -0.415569 1.634622
-0.808309 -0.457607 1.837103
-1.098109 -0.578452 2.094995
-1.218540 -0.628709 2.563047
-1.053945 -0.560226 3.880422
-0.816851 -0.461420 4.258093
-0.758316 -0.437046 4.546210
-0.592915 -0.368108 4.712103
-0.581981 -0.363675 5.919563
-0.628381 -0.383048 6.196528
-0.640506 -0.388111 6.266708
-0.844394 -0.473175 6.865807
-0.898442 -0.495736 7.140242
-0.864703 -0.481701 7.436309
-0.848530 -0.474997 7.801886
-0.868156 -0.483231 8.305338
-0.884611 -0.490098 8.374934
-0.574152 -0.360738 9.054033
-0.524072 -0.284231 0.371991
-0.715076 -0.345292 0.512624
-0.624811 -0.316485 0.930329
-0.728092 -0.349529 1.271649
-0.837615 -0.384575 1.679120
-0.758333 -0.359271 2.026371
-0.952131 -0.421216 2.083480
-1.356684 -0.550554 2.464415
-1.380639 -0.558244 2.800276
-1.218362 -0.506415 3.154041
-1.047005 -0.451670 3.375919
-0.905519 -0.406500 3.873540
-0.739099 -0.353333 4.101883
-0.636065 -0.320474 4.815479
-0.499025 -0.276777 5.828336
-0.557955 -0.295647 6.173810
-0.769686 -0.363328 6.274457
-0.859665 -0.392135 6.753647
-0.956600 -0.423165 7.231339
-1.030069 -0.446681 7.571493
-0.952407 -0.421868 7.662068
-0.953933 -0.422400 8.094356
-0.961155 -0.424751 8.527852
-0.754654 -0.358787 8.878620
-0.937144 -0.327219 0.115851
-0.839023 -0.304922 0.391074
-0.744072 -0.283354 0.736766
-0.750324 -0.284810 1.082195
-0.857718 -0.309277 1.424031
-0.762756 -0.287680 1.498089
-0.982220 -0.337663 2.038203
-1.405163 -0.433939 2.556351
-1.415081 -0.436209 2.692641
-1.195232 -0.386274 3.533102
-0.867388 -0.311744 4.123654
-0.795731 -0.295462 4.342905
-0.772476 -0.290227 4.906818
-0.612352 -0.253884 5.784018
-0.614417 -0.254410 6.355319
-0.762786 -0.288191 6.612866
-0.941310 -0.328846 7.004822
-0.999600 -0.342135 7.278995
-0.949894 -0.330849 7.506983
-0.949749 -0.330858 7.940872
-0.878293 -0.314654 8.469364
-0.689879 -0.271792 8.520987
-0.384513 -0.202355 8.901326
-0.962061 -0.244745 0.104648
-0.862234 -0.231014 0.311331
-0.766633 -0.217891 0.794208
-0.770386 -0.218428 1.002219
-0.876507 -0.233074 1.275863
-0.786998 -0.220770 1.555495
-1.010944 -0.251673 2.095198
-1.441577 -0.311046 2.612553
-1.545510 -0.325369 2.673985
-1.335865 -0.296584 3.648279
-0.964579 -0.245461 3.897812
-0.834895 -0.227652 4.471498
-0.676000 -0.205792 4.775373
-0.521307 -0.184575 5.723672
-0.594257 -0.194664 6.140076
-0.769809 -0.218886 6.536125
-0.811022 -0.224584 6.743454
-0.927037 -0.240619 7.292717
-0.957752 -0.244863 7.430707
-0.956561 -0.244741 7.864595
-0.848114 -0.229840 8.255912
-0.762531 -0.218096 8.719268
-0.398438 -0.167956 8.893179
-0.680205 -0.146599 0.049224
-0.878740 -0.156926 0.327654
-0.783770 -0.152052 0.880099
-0.886391 -0.157389 1.017991
-1.321493 -0.180053 1.963211
-1.545034 -0.191689 2.357713
-1.596865 -0.194443 3.030276
-1.423070 -0.185454 3.319850
-1.244916 -0.176233 3.545003
-1.198799 -0.173887 4.033028
-0.909869 -0.158908 4.139694
-0.675258 -0.146787 4.661743
-0.603689 -0.143157 5.528017
-0.515899 -0.138666 6.187916
-0.738511 -0.150225 6.291976
-0.805930 -0.153756 6.638349
-0.823792 -0.154738 7.210723
-0.951737 -0.161387 7.326894
-0.998361 -0.163826 7.532576
-1.066228 -0.167415 8.238608
-0.943428 -0.161075 8.562330
-0.746347 -0.150891 8.983892
-0.688856 -0.090341 0.240423
-0.888702 -0.084294 0.379300
-0.790443 -0.087300 0.655701
-0.997363 -0.081065 1.064583
-1.012364 -0.080656 1.543679
-0.718458 -0.089583 1.694476
-1.667450 -0.060887 2.527290
-1.599415 -0.062989 2.937705
-1.430872 -0.068134 3.292765
-1.245342 -0.073775 3.448721
-1.197520 -0.075272 3.935275
-0.916020 -0.083825 4.108148
-0.671187 -0.091293 4.559645
-0.665521 -0.091587 5.836038
-0.505791 -0.096454 6.079877
-0.682193 -0.091143 6.477652
-0.849339 -0.086106 6.803214
-0.765969 -0.088643 6.893529
-0.901271 -0.084600 7.512508
-0.852001 -0.086116 7.742084
-0.935080 -0.083630 8.085893
-0.942963 -0.083433 8.522267
-0.726597 -0.090028 8.875277
-0.694991 -0.030569 0.068613
-0.994018 0.004373 0.686403
-0.894712 -0.007251 0.688363
-1.009323 0.006098 1.370677
-1.357446 0.046750 2.376189
-1.683850 0.084920 2.757909
-1.590269 0.073958 2.833599
-1.539658 0.067981 3.379636
-1.384694 0.049801 3.805030
-1.096382 0.016043 3.907470
-0.940063 -0.002290 4.273324
-0.689609 -0.031644 4.656626
-0.675518 -0.033410 5.862447
-0.479995 -0.056300 5.897766
-0.692414 -0.031494 6.502970
-0.719652 -0.028320 6.641606
-0.849072 -0.013230 7.261110
-0.879613 -0.009669 7.399047
-0.829709 -0.015532 7.627906
-0.927541 -0.004121 8.039926
-0.970229 0.000821 8.612524
-0.682391 -0.032880 8.690075
-0.891711 0.068265 -0.002016
-1.086065 0.107842 0.275784
-0.894009 0.068652 0.826964
-1.001145 0.090443 1.238438
-1.329184 0.157208 2.050792
-1.647392 0.222012 2.438035
-1.764524 0.245854 2.700327
-1.809987 0.255066 3.235252
-1.543945 0.200824 3.534987
-1.161454 0.122873 3.647377
-1.020572 0.094116 4.149471
-0.887655 0.066981 4.656762
-0.849423 0.059149 5.085348
-0.676894 0.023976 5.256262
-0.129387 -0.087621 5.562462
-0.224311 -0.068333 6.126227
-0.526475 -0.006763 6.145142
-0.754892 0.039716 6.819635
-0.755489 0.039837 6.822591
-0.887129 0.066601 7.443479
-0.823066 0.053530 7.605918
-0.808223 0.050470 7.975303
-0.962135 0.081771 8.594905
-0.714681 0.031326 8.812319
-0.880830 0.144809 0.351470
-1.072606 0.201584 0.355285
-0.886029 0.146292 0.907498
-0.984708 0.175492 1.046183
-1.311300 0.272077 2.064772
-1.714213 0.391327 2.379375
-1.753396 0.402874 2.915797
-1.455843 0.314691 3.836363
-1.018942 0.185307 4.236855
-0.795253 0.119032 4.758199
-0.574068 0.053439 5.862941
-0.503616 0.032566 6.021633
-0.659715 0.078746 6.352085
-0.711831 0.094147 6.630573
-0.794137 0.118472 7.046039
-0.743901 0.103577 7.276202
-0.897160 0.148879 7.965329
-0.962897 0.168313 8.241573
-0.955482 0.166081 8.610922
-0.695651 0.089143 8.759291
-1.145334 0.330164 0.064177
-1.051587 0.293323 0.474403
-0.964109 0.258935 0.955512
-1.074393 0.302162 1.568477
-0.992760 0.270089 1.848005
-0.906409 0.236178 1.992376
-1.783029 0.580218 2.613776
-1.732093 0.560167 3.156066
-1.663825 0.533341 3.434570
-1.406029 0.432123 3.669372
-1.050186 0.292424 3.851370
-0.911278 0.237852 4.287217
-0.704088 0.156462 4.879258
-0.562337 0.100721 5.832122
-0.552872 0.096954 6.335920
-0.553111 0.097048 6.337272
-0.720399 0.162673 6.733604
-0.738409 0.169683 7.306306
-0.691118 0.151096 7.536161
-0.856925 0.216148 7.858304
-0.861334 0.217834 8.294725
-0.730709 0.166532 8.551906
-0.564568 0.101265 9.044967
-1.112338 0.425862 0.217631
-1.024537 0.382407 0.696147
-1.031369 0.385740 1.106874
-1.132626 0.435752 1.513640
-1.050752 0.395255 1.723883
-1.155739 0.447120 2.060595
-1.621752 0.677459 2.368187
-1.752518 0.742039 2.960935
-1.668638 0.700565 3.038420
-0.930026 0.335262 4.643628
-0.663919 0.203708 4.687059
-0.575770 0.159992 5.984275
-0.499092 0.122077 6.073647
-0.557442 0.150885 6.422443
-0.670744 0.206828 7.046454
-0.684428 0.213585 7.117784
-0.693912 0.218220 7.624157
-0.767519 0.254570 7.970473
-0.813534 0.277295 8.178786
-0.903574 0.412814 0.019827
-1.159683 0.566525 0.428529
-0.988476 0.463732 0.497269
-0.991702 0.465631 0.837586
-1.091209 0.525302 1.446367
-1.382273 0.699954 2.240887
-1.752375 0.922098 2.679115
-1.775961 0.936221 3.009584
-1.425977 0.726004 3.925484
-0.951017 0.440813 4.336456
-0.719224 0.301627 4.581015
-0.514983 0.178887 5.676324
-0.430678 0.128208 6.266339
-0.548793 0.199097 6.455688
-0.656100 0.263506 6.574591
-0.669975 0.271772 7.146038
-0.708844 0.295084 7.352524
-0.818152 0.360646 7.901660
-0.749095 0.319177 7.993814
-0.641283 0.254415 8.317263
-0.484820 0.160427 8.807630
-1.027449 0.606142 -0.032027
-1.107312 0.663856 0.513068
-0.948489 0.548911 0.855398
-1.040874 0.615685 1.397101
-1.120031 0.672962 1.326850
-1.054493 0.625490 1.805442
-1.762353 1.137480 2.890904
-1.534512 0.972616 3.116596
-1.146568 0.691813 4.256309
-0.781636 0.427745 4.662917
-0.661349 0.340676 5.035531
-0.598279 0.295028 5.189158
-0.304764 0.082645 5.460273
-0.311888 0.087723 6.105977
-0.513089 0.233257 6.348360
-0.670139 0.346824 6.812915
-0.602489 0.297870 6.902881
-0.674619 0.350006 7.317056
-0.764300 0.414830 7.798600
-0.698954 0.367543 7.891295
-0.767531 0.417116 8.235296
-0.604117 0.298840 8.654779
-1.121916 0.821285 0.449259
-1.048686 0.758048 0.789918
-1.051543 0.760488 0.994891
-1.058551 0.766492 1.335035
-1.517398 1.162238 3.054145
-1.134580 0.831764 3.989064
-0.797779 0.541059 4.459750
-0.766046 0.513622 4.885189
-0.566720 0.341499 5.776739
-0.483972 0.270024 6.297511
-0.514297 0.296167 6.506489
-0.567012 0.341613 6.853286
-0.526065 0.306250 7.082389
-0.607260 0.376256 7.566845
-0.729920 0.482073 7.820289
-0.746284 0.496130 8.325231
-1.047539 0.914231 0.445046
-0.980714 0.845697 0.853314
-0.980739 0.845723 0.855427
-0.990600 0.855752 1.398404
-1.605147 1.485310 2.760089
-1.486014 1.363184 3.108664
-1.355812 1.229740 3.261989
-1.256282 1.127672 3.817877
-1.151705 1.020450 4.245517
-1.007364 0.872544 4.205396
-0.913075 0.775855 4.706400
-0.650271 0.506525 4.900382
-0.449854 0.301047 5.652781
-0.345746 0.194321 5.965330
-0.458815 0.310142 6.295347
-0.477342 0.329107 6.434606
-0.535246 0.388386 6.850051
-0.576001 0.430111 7.126664
-0.605734 0.460491 7.769080
-0.685205 0.541921 7.815470
-0.712397 0.569707 8.388360
-0.965541 1.000582 0.179607
-0.903016 0.924372 0.654666
-0.909750 0.932490 1.197722
-0.909788 0.932536 1.199835
-1.416249 1.549003 2.906084
-1.305055 1.413558 3.190289
-1.272175 1.373446 3.666650
-1.244049 1.339125 4.145274
-1.118277 1.185966 4.172257
-1.044611 1.096165 4.804370
-0.743615 0.729605 5.014928
-0.394538 0.304472 5.383859
-0.313491 0.205711 5.835860
-0.440266 0.360006 6.375672
-0.457493 0.380962 6.516215
-0.492747 0.423849 6.793967
-0.538940 0.480047 7.140118
-0.515750 0.451762 7.438680
-0.659513 0.626745 7.966934
-0.674738 0.645208 8.471769
-0.876255 1.079272 0.265980
-0.878404 1.082307 0.807110
-0.936404 1.166719 0.941753
-0.946719 1.181632 1.548066
-1.003335 1.264054 1.545923
-0.907335 1.124194 2.161685
-1.338918 1.752345 2.977817
-1.342333 1.757306 3.045236
-1.296542 1.690608 3.253492
-1.259495 1.636617 3.594840
-1.238415 1.605838 4.136113
-1.161433 1.493686 4.627620
-1.009898 1.273042 4.872299
-0.797591 0.963938 5.068317
-0.492905 0.520308 5.505616
-0.358881 0.325130 5.903460
-0.402009 0.387845 6.321315
-0.417215 0.409957 6.461634
-0.472637 0.490558 6.947072
-0.532268 0.577284 7.430954
-0.486134 0.510107 7.523777
-0.531946 0.576741 7.869815
-0.634818 0.726445 8.190591
-0.834483 1.234491 0.204223
-0.835405 1.236011 0.676156
-0.837551 1.239709 0.946477
-0.840875 1.245466 1.216750
-0.897675 1.344652 1.617026
-0.909340 1.364947 2.086848
-0.812186 1.195145 2.167205
-1.212839 1.895078 3.443309
-1.163520 1.808886 3.455178
-1.139827 1.767389 3.928443
-1.115445 1.724700 4.337952
-0.986025 1.498465 4.645276
-0.584691 0.796964 5.321834
-0.337174 0.364278 5.973939
-0.288420 0.279072 5.993062
-0.451220 0.563454 6.649947
-0.423671 0.515265 6.878355
-0.452872 0.566242 7.155723
-0.514707 0.674199 7.707251
-0.564274 0.760742 8.119822
-0.581529 0.790870 8.258118
-0.550999 0.737485 8.421249
-0.432371 0.530043 9.075855
-0.810698 1.484271 0.664223
-0.771045 1.398660 1.004618
-0.772478 1.401720 1.142978
-0.775089 1.407304 1.348264
-0.823902 1.512505 1.746202
-0.792623 1.444927 2.220041
-1.077010 2.058143 3.167002
-1.085166 2.075691 3.364084
-1.049097 1.997856 3.506276
-1.013311 1.920631 3.649281
-0.998031 1.887549 4.188124
-0.921924 1.723348 4.346976
-0.824542 1.513176 4.854762
-0.347895 0.484649 6.522699
-0.400741 0.598613 6.642413
-0.436796 0.676290 7.056237
-0.488381 0.787436 7.605829
-0.447518 0.699286 7.629515
-0.544113 0.907526 8.154260
-0.532788 0.883030 8.452750
-0.505622 0.824309 8.983531
-0.715201 1.640040 0.266994
-0.648126 1.455589 0.806339
-0.649479 1.459247 1.011157
-0.687716 1.564196 1.413211
-0.694733 1.583345 1.883989
-0.780855 1.819755 2.679631
-0.900964 2.149613 3.248965
-0.910246 2.175043 3.514105
-0.881213 2.095229 3.658004
-0.855041 2.023259 3.868379
-0.804111 1.883202 4.290279
-0.761874 1.766991 4.849247
-0.284870 0.455963 6.206864
-0.355367 0.649514 6.742747
-0.375134 0.703751 7.020274
-0.406257 0.789148 7.434380
-0.422613 0.834030 7.642177
-0.439439 0.880204 7.849654
-0.480244 0.992187 8.329279
-0.596237 1.792431 0.280912
-0.544508 1.599639 0.484554
-0.546933 1.608448 1.088955
-0.546957 1.608537 1.092605
-0.525103 1.526943 1.567359
-0.582815 1.741779 2.028134
-0.556985 1.645546 2.037366
-0.538945 1.578158 2.514503
-0.627660 1.908480 3.025583
-0.742538 2.336309 3.449607
-0.692878 2.151264 3.539546
-0.672868 2.076636 3.750900
-0.659604 2.027069 4.160883
-0.643047 1.965282 4.440994
-0.575859 1.714852 4.751283
-0.280895 0.615334 6.415689
-0.306098 0.709050 6.899439
-0.372058 0.954698 7.133314
-0.421245 1.137804 7.521039
-0.408531 1.090354 7.749075
-0.400602 1.060704 8.046064
-0.393405 1.033781 8.344163
-0.341611 0.840661 8.763347
-0.440865 1.837494 0.527029
-0.406281 1.643548 0.798250
-0.425116 1.748910 1.132188
-0.409045 1.658705 1.404611
-0.413253 1.681992 1.941022
-0.450348 1.889759 2.131953
-0.417536 1.705769 2.346590
-0.438421 1.822663 2.608333
-0.502198 2.179670 3.313493
-0.499016 2.161435 4.048854
-0.505018 2.194923 4.313936
-0.470258 2.000118 4.343105
-0.452347 1.899371 5.035217
-0.386719 1.531493 5.233523
-0.227733 0.640217 5.880769
-0.206606 0.521578 6.334297
-0.260440 0.822971 6.849558
-0.312144 1.112736 6.791493
-0.307849 1.088469 7.155061
-0.309814 1.099208 7.654341
-0.318435 1.147407 7.859378
-0.313245 1.118159 8.156209
-0.297870 1.031753 8.615678
-0.282187 1.766933 0.220207
-0.291949 1.867713 0.618997
-0.283007 1.774636 1.019415
-0.283167 1.776224 1.086196
-0.285525 1.799998 1.751421
-0.285526 1.800010 1.751681
-0.297593 1.924602 2.210824
-0.292199 1.868103 2.814597
-0.303415 1.984146 3.004939
-0.326837 2.226440 3.446637
-0.319338 2.148513 3.654414
-0.320051 2.155844 3.720367
-0.315892 2.112262 4.192749
-0.308891 2.039496 4.403647
-0.285812 1.799877 4.843216
-0.251795 1.447005 5.171314
-0.223748 1.155659 5.845667
-0.177666 0.677928 6.002241
-0.182572 0.728494 6.277998
-0.209185 1.003927 6.650976
-0.224028 1.157505 6.903159
-0.224714 1.164116 7.399950
-0.235492 1.275340 7.874400
-0.245284 1.376418 8.279711
-0.239378 1.315047 8.440051
-0.233181 1.250299 8.965737
-0.130745 2.084591 0.277851
-0.128901 1.885352 0.543091
-0.129077 1.897367 1.206454
-0.129186 1.906232 1.471854
-0.129249 1.911539 1.604652
-0.128532 1.831071 2.007892
-0.129643 1.946730 2.267448
-0.129121 1.885619 2.805012
-0.128427 1.808858 3.079458
-0.130693 2.046484 3.457781
-0.130837 2.060472 3.589947
-0.131220 2.097921 3.919697
-0.130621 2.031291 4.195935
-0.130139 1.976315 4.539744
-0.126914 1.628594 4.929783
-0.123957 1.307951 5.463118
-0.120966 0.984216 5.939039
-0.117912 0.654469 6.355319
-0.120553 0.932118 6.729067
-0.122664 1.156185 6.825187
-0.123090 1.199455 7.029046
-0.124440 1.337143 7.638334
-0.126147 1.515886 7.951678
-0.125404 1.435660 8.043322
-0.124781 1.363954 8.565286
-0.123155 1.185712 9.050631
0.041753 1.991103 0.731895
0.041991 1.994453 0.932245
0.042612 2.002929 1.264722
0.036761 1.927693 1.866291
0.029911 1.838983 2.072770
0.031835 1.864480 2.472233
0.040226 1.973618 2.598519
0.034595 1.900904 2.938665
0.021615 1.732767 3.290339
0.030781 1.852057 3.480990
0.042947 2.010716 4.000685
0.046143 2.052636 4.331768
0.034416 1.900782 4.690818
0.020709 1.722966 4.853720
-0.004048 1.402089 5.385693
-0.024168 1.141105 5.639255
-0.051693 0.783956 5.913947
-0.042845 0.899650 6.532559
-0.022486 1.164444 6.834737
-0.011660 1.305279 7.018261
0.012591 1.620863 7.513413
0.012545 1.620803 7.939378
0.010295 1.591943 8.232711
-0.003225 1.416497 8.351034
-0.018605 1.217265 8.767038
0.241338 2.175273 0.402928
0.225310 2.076823 0.471134
0.226925 2.087144 1.131959
0.229014 2.100220 1.529111
0.213407 2.004358 1.601214
0.199879 1.921435 1.938733
0.186958 1.842238 2.278250
0.188384 1.851082 2.413113
0.210966 1.990159 2.937320
0.200888 1.928473 3.345515
0.204184 1.948852 3.546157
0.208899 1.977982 3.812770
0.199364 1.919594 4.157149
0.193421 1.883362 4.635909
0.171158 1.746816 5.065647
0.126967 1.475377 5.247733
0.070715 1.129912 5.584562
0.038847 0.934446 6.184260
0.035861 0.916354 6.615470
0.092066 1.261860 6.829071
0.155626 1.652674 7.237632
0.178685 1.794477 7.416856
0.186287 1.841311 7.617788
0.173640 1.763906 8.132892
0.142578 1.573062 8.184042
0.121882 1.446298 8.867132
0.454875 2.242772 0.374544
0.406016 2.050491 0.639962
0.407642 2.057048 1.036763
0.410551 2.068659 1.433441
0.414743 2.085322 1.829927
0.391001 1.991863 1.902479
0.370102 1.909683 2.174105
0.381783 1.955935 2.837158
0.384574 1.966976 2.970873
0.366052 1.894153 3.246179
0.374352 1.926965 3.578722
0.387460 1.978758 4.042998
0.375703 1.932628 4.453975
0.351364 1.836798 4.469026
0.324200 1.730085 5.097911
0.253897 1.453315 5.213073
0.176178 1.147509 5.753368
0.118642 0.921118 6.148982
0.162254 1.092991 6.541071
0.258756 1.473128 6.955034
0.331036 1.757706 6.893443
0.352896 1.843936 7.293676
0.368218 1.904371 7.560350
0.385075 1.971010 8.247552
0.322379 1.724231 8.458369
0.254489 1.457114 8.966955
0.646388 2.195433 0.438715
0.581975 2.010483 0.838116
0.582382 2.011672 0.907337
0.587231 2.025760 1.437556
0.592890 2.042135 1.835839
0.561222 1.951172 1.910215
0.539073 1.887691 2.448392
0.540693 1.892368 2.517907
0.558839 1.944698 3.182181
0.534807 1.875733 3.459815
0.544281 1.903031 3.727803
0.562627 1.955876 4.193615
0.541662 1.895725 4.474387
0.521555 1.838036 4.756586
0.463148 1.670274 4.922217
0.393946 1.471621 5.508012
0.308356 1.225785 5.764482
0.240163 1.030014 6.297435
0.331346 1.292102 6.669058
0.488181 1.742805 6.991662
0.539967 1.891664 7.238524
0.555297 1.935767 7.440184
0.581645 2.011566 7.773348
0.560806 1.951740 7.932753
0.542564 1.899497 8.513113
0.465457 1.678042 8.792770
0.858306 2.228734 0.295384
0.818234 2.137628 0.494705
0.781657 2.054565 1.089282
0.743730 1.968339 1.292487
0.744646 1.970438 1.361423
0.753798 1.991384 1.891102
0.715079 1.903324 1.965395
0.724816 1.925569 2.364379
0.700958 1.871426 2.903247
0.710573 1.893361 3.170575
0.723893 1.923743 3.503646
0.748183 1.979123 4.033891
0.721914 1.919435 4.313215
0.645833 1.746389 4.408876
0.584993 1.608079 4.772432
0.582963 1.603608 5.391400
0.442846 1.284955 5.730078
0.363782 1.105110 5.767694
0.472831 1.353263 6.140803
0.605810 1.655911 6.774346
0.701957 1.874663 6.934469
0.789650 2.074268 7.442094
0.789943 2.074934 7.445169
0.816650 2.135850 8.127641
0.771181 2.032409 8.090210
0.905514 1.882607 0.167184
1.001662 2.057954 0.172059
0.907891 1.887090 0.899617
0.909269 1.889629 1.035219
0.912802 1.896126 1.299947
0.917452 1.904658 1.564599
0.875196 1.827651 1.834139
0.885951 1.847344 2.231421
0.848887 1.779818 2.569841
0.856299 1.793375 2.769507
0.822140 1.731147 3.110318
0.854851 1.790936 3.773518
0.866076 1.811445 3.973074
0.826225 1.738800 4.118855
0.808224 1.706067 4.597310
0.736497 1.575330 4.959972
0.666846 1.448382 5.326409
0.604969 1.335624 5.763830
0.569312 1.270627 5.917397
0.700266 1.509521 6.284464
0.846666 1.776609 6.777709
0.989590 2.037344 7.196648
1.011654 2.077621 7.394280
1.026760 2.105196 7.526290
1.051112 2.149731 8.139417
1.021331 2.095451 8.296775
0.861349 1.803752 8.599363
1.119988 1.881215 0.097164
1.230890 2.047723 0.558347
1.121209 1.883163 0.759983
1.124855 1.888691 1.091333
1.128035 1.893498 1.291332
1.084593 1.828398 1.824272
1.099320 1.850579 2.287795
1.054262 1.783008 2.561167
1.051724 1.779188 2.498328
1.013752 1.722276 2.904280
0.982462 1.675402 3.378620
1.049152 1.775515 3.568567
1.014814 1.724044 3.911907
0.977929 1.668741 4.190781
0.968531 1.654743 4.802663
0.861783 1.494768 6.073770
1.006537 1.712049 6.369772
1.090934 1.838745 6.615616
1.225253 2.040426 7.251332
1.259656 2.092100 7.514099
1.268663 2.105627 7.581230
1.269307 2.106666 7.998012
1.190567 1.988545 8.246215
1.036086 1.756805 8.747175
1.274584 1.779829 0.129484
1.336497 1.857634 0.262819
1.274224 1.779418 0.395746
1.217376 1.708099 1.056575
1.219567 1.710872 1.190102
1.228253 1.721846 1.586971
1.240188 1.736902 1.983622
1.196080 1.681559 2.452739
1.211725 1.701267 2.784112
1.156626 1.632065 2.926221
1.187856 1.671383 3.456235
1.183764 1.666232 3.392062
1.230013 1.724439 4.052919
1.168345 1.646964 4.066990
1.071580 1.525449 4.425471
1.038988 1.484556 4.772322
1.421776 1.663867 0.260049
1.559207 1.809075 0.327491
1.425740 1.668148 0.920281
1.425764 1.668174 0.922076
1.437828 1.681002 1.514613
1.375001 1.614653 1.717844
1.394921 1.635772 2.245931
1.407308 1.648897 2.510662
1.345610 1.583732 2.651545
1.299951 1.535549 3.057580
1.317244 1.553857 3.323493
1.367273 1.606806 3.984516
1.378596 1.618787 4.117960
1.328111 1.565479 4.330222
1.230046 1.461931 4.756327
1.638160 1.597866 0.324945
1.564118 1.532388 0.588385
1.568626 1.536428 0.983114
1.572342 1.539741 1.180824
1.594209 1.559181 1.903333
1.602453 1.566501 2.100798
1.530687 1.503013 2.173238
1.543654 1.514520 2.436985
1.500115 1.476067 2.971942
1.463711 1.443926 3.509572
1.479861 1.458241 3.708147
1.485506 1.463244 3.774822
1.453382 1.434883 4.249298
1.345581 1.339557 4.673984
1.360089 1.352411 4.807321
2.508158 2.368477 6.998215
2.552715 2.407933 7.250351
2.562016 2.416222 7.714634
2.562158 2.416347 7.715369
1.838535 1.524359 0.319337
1.761376 1.466283 0.777708
1.769680 1.472595 1.235989
1.688320 1.411291 1.173645
1.701465 1.421250 1.633277
1.711499 1.428841 1.895904
1.640498 1.375373 2.098736
1.668885 1.396823 2.624874
