-1.105085 0.306374 1.836289
-0.959773 0.282877 2.178665
-0.791394 0.255645 2.588947
-1.232443 0.326476 3.085700
-1.461697 0.363125 3.871772
-1.384259 0.350501 4.376295
-1.477029 0.365421 4.410521
-1.244102 0.327813 4.781282
-0.877836 0.268709 5.261599
-2.718248 0.853573 -0.096645
-2.770347 0.867369 0.015675
-2.522954 0.801597 0.292560
-2.184894 0.711690 0.768693
-1.974608 0.655789 0.988958
-1.738544 0.593101 1.036897
-0.970670 0.389062 1.570887
-0.852799 0.357340 2.890332
-1.339102 0.486333 3.249068
-1.385473 0.498413 3.962371
-1.380697 0.497046 4.266171
-1.264786 0.466163 4.603279
-1.016936 0.400217 5.045410
-0.789546 0.339822 5.120089
-2.729398 1.075044 -0.466641
-2.765641 1.087410 -0.114804
-2.669276 1.054155 0.078904
-2.304711 0.928409 0.615451
-1.721727 0.727494 0.968849
-1.402089 0.617318 1.218893
-1.228001 0.557303 1.380765
-0.854840 0.428643 1.775996
-1.240464 0.560829 3.690461
-1.275069 0.572590 4.165923
-1.294553 0.579222 4.403586
-1.049063 0.494521 4.845105
-0.958855 0.463460 4.815058
-0.629095 0.349742 5.232194
-0.143989 0.182558 5.529188
-2.647527 1.310965 -0.081901
-2.463410 1.229358 0.304907
-2.290854 1.152948 0.455553
-1.919709 0.988585 0.825338
-1.609475 0.851218 1.071337
-1.385698 0.752176 1.122216
-1.105124 0.627871 1.553544
-1.021839 0.590945 1.759016
-0.916308 0.543795 3.074385
-1.236833 0.685371 3.833485
-1.316575 0.720541 4.173986
-1.271214 0.700421 4.310728
-1.075136 0.613549 4.616722
-0.840331 0.509492 5.062284
-0.563941 0.387089 5.345546
0.000174 0.137474 5.306282
-2.531715 1.535397 -0.094367
-2.501123 1.518577 -0.028268
-2.161331 1.331832 0.507118
-1.968780 1.226040 0.724859
-1.754219 1.108225 0.770408
-1.347514 0.884751 1.283526
-1.106518 0.752396 1.403917
-0.812982 0.591145 1.663392
-0.651418 0.502008 2.879437
-1.023291 0.705973 3.441148
-1.200489 0.803147 3.752678
-1.172369 0.787575 4.125751
-1.065518 0.728790 4.464790
-0.881993 0.627812 5.076448
-0.655936 0.503650 5.221161
-2.529992 1.836218 -0.402605
-2.275293 1.666571 0.174257
-2.191724 1.610906 0.369715
-2.034795 1.506457 0.521028
-1.697472 1.281924 0.891965
-1.441325 1.111463 1.072632
-1.160283 0.924415 1.324615
-1.007162 0.822494 1.487910
-0.856796 0.722314 1.896684
-0.787741 0.676208 2.346415
-0.687819 0.609425 3.176981
-1.087471 0.875121 3.599534
-1.157926 0.921860 3.941676
-0.994608 0.813014 4.482713
-0.934883 0.773207 4.688294
-0.699411 0.616488 4.898535
-0.275773 0.334451 5.497290
0.079121 0.098361 5.521885
-2.291939 1.988082 -0.231798
-2.030186 1.779391 0.409943
-1.934242 1.702983 0.430797
-1.692131 1.510121 0.602915
-1.400965 1.278143 0.911466
-1.088011 1.028784 1.294242
-0.944488 0.914433 1.456039
-0.636721 0.669199 1.851698
-0.551019 0.600426 3.171384
-0.947248 0.915800 3.525331
-1.086535 1.026563 3.902135
-0.951669 0.918980 4.374179
-0.876964 0.859383 4.645766
-0.712125 0.727998 4.954274
-0.383438 0.466138 5.273674
-2.011980 2.126520 -0.031013
-1.868082 1.986953 0.355642
-1.774126 1.895822 0.615031
-1.529875 1.659106 0.853136
-1.396656 1.529985 1.007964
-1.198941 1.338403 1.122123
-0.891835 1.040704 1.574925
-0.470744 0.632291 2.697088
-0.668768 0.823833 3.360362
-0.880978 1.029254 3.707816
-0.857822 1.006659 4.081119
-0.855059 1.003849 4.386290
-0.736594 0.888881 4.860986
-0.470836 0.631223 5.345372
-0.180919 0.350395 5.294591
0.256097 -0.073075 5.568847
-2.040369 2.489587 -0.364015
-1.971712 2.412187 -0.172185
-1.800661 2.219453 0.101664
-1.545069 1.931400 0.638256
-1.463611 1.839667 0.660695
-1.175289 1.514804 1.100545
-0.992819 1.309287 1.216014
-0.769976 1.058243 1.469207
-0.629019 0.899414 1.700219
-0.534486 0.792316 3.082347
-0.790933 1.080896 3.468476
-0.796832 1.087281 4.011644
-0.777969 1.065865 4.383657
-0.730347 1.012146 4.587159
-0.590177 0.854169 4.894737
-0.403702 0.644095 5.106104
-0.047964 0.243358 5.470274
-1.891618 2.766453 -0.398219
-1.789656 2.628716 -0.080984
-1.656688 2.449204 0.128174
-1.485660 2.218270 0.468826
-1.335934 2.016110 0.749366
-1.078321 1.668303 1.188028
-0.914826 1.447652 1.303827
-0.679089 1.129515 1.448666
-0.481966 0.863288 1.952073
-0.372766 0.715444 2.919315
-0.580246 0.994977 3.681965
-0.732221 1.199933 3.855799
-0.699809 1.155972 4.294709
-0.656821 1.097863 4.497739
-0.530665 0.927491 4.804440
-0.349720 0.683210 5.083318
-1.697402 2.919180 -0.444684
-1.634633 2.819799 -0.017163
-1.545207 2.678384 0.301307
-1.358379 2.383054 0.769107
-1.244930 2.203899 0.746672
-1.030082 1.864376 1.117666
-0.899605 1.658287 1.165900
-0.606344 1.194864 1.643830
-0.492058 1.014381 1.632095
-0.343587 0.779215 2.805624
-0.478439 0.991757 3.534436
-0.600918 1.185043 3.777277
-0.570133 1.135989 4.521470
-0.544696 1.095736 4.657915
-0.407969 0.879545 5.102486
-0.294067 0.699657 5.109857
-1.402996 3.071397 -0.444438
-1.395674 3.056682 -0.205341
-1.289614 2.845642 0.239549
-1.259466 2.785651 0.369096
-1.131460 2.531080 0.709868
-1.033447 2.336189 0.926002
-0.771838 1.816034 1.453364
-0.594198 1.462982 1.597161
-0.443523 1.163599 1.611585
-0.322544 0.922238 3.028016
-0.502763 1.279876 3.654183
-0.433027 1.140822 4.365927
-0.464406 1.203096 4.468480
-0.390891 1.056699 4.943614
-0.254771 0.786049 5.223301
-0.096369 0.471240 5.339986
-1.173740 3.170132 -0.451318
-1.221992 3.286412 -0.054947
-1.132783 3.070469 0.387188
-1.070547 2.919809 0.705735
-0.509828 1.563974 1.693959
-0.204798 0.825480 3.355624
-0.370213 1.224765 3.909519
-0.396266 1.287638 4.013748
-0.358086 1.194902 4.589271
-0.339929 1.150912 4.726612
-0.206175 0.827344 5.141471
-0.062933 0.481035 5.326460
-0.913005 3.283921 -0.294273
-0.935339 3.353684 -0.009181
-0.891757 3.216470 0.478980
-0.889169 3.208108 0.715320
-0.287327 1.319259 1.620679
-0.299647 1.355841 3.618710
-0.267165 1.253355 4.194401
-0.280862 1.296144 4.364965
-0.230737 1.138418 4.839812
-0.138496 0.848779 5.118753
-0.060281 0.603278 5.265051
-0.596808 3.513450 -0.369870
-0.602493 3.540027 0.210801
-0.587307 3.466083 0.570539
-0.592273 3.489817 0.742138
-0.136910 1.284514 3.876307
-0.135861 1.278975 4.181485
-0.130626 1.253099 4.553385
-0.102471 1.116415 4.960307
-0.054792 0.885905 5.034075
0.001868 0.611777 5.247540
-0.399155 3.795004 -0.206106
-0.391173 3.736412 0.324666
-0.384507 3.687288 0.853563
-0.005258 0.955830 3.082080
-0.025668 1.101534 3.532580
-0.050338 1.278017 3.910837
-0.059300 1.341517 4.318384
-0.046137 1.246275 4.590062
-0.020247 1.059604 4.830458
0.027666 0.714213 5.248034
0.076194 0.365076 5.366241
0.154013 -0.194663 5.500575
-0.057060 3.660187 -0.130321
-0.062086 3.756962 0.323454
-0.065853 3.828412 0.835118
-0.071695 3.942849 1.050582
0.074251 1.036101 3.418796
0.056683 1.382901 3.630532
0.061896 1.276024 4.205474
0.059561 1.321234 4.375232
0.067733 1.156365 4.849340
0.084052 0.830820 5.196017
0.102858 0.457022 5.381116
0.265500 3.748995 0.109310
0.266630 3.784617 0.684750
0.271620 3.923486 1.071544
0.272359 3.946976 1.471939
0.174036 1.289011 3.020862
0.173874 1.289304 3.568790
0.173139 1.274560 4.181221
0.172918 1.271150 4.487722
0.169337 1.176197 4.760980
0.163222 1.011576 4.935399
0.147641 0.590994 5.255891
0.588880 3.748274 0.468016
0.621106 4.010877 0.609459
0.623110 4.028216 1.010414
0.592642 3.782147 1.734999
0.618121 3.989552 1.762166
0.256780 1.052410 3.029267
0.297185 1.382544 3.551747
0.289168 1.319223 4.296813
0.271530 1.176746 4.704412
0.260100 1.084435 4.978064
0.228531 0.827916 5.122227
0.197029 0.571945 5.269363
0.875075 3.714519 -0.206590
0.893629 3.807750 0.247365
0.894607 3.813637 0.882214
0.917043 3.925847 1.098000
0.892097 3.802595 1.804417
0.359924 1.151613 3.259922
0.369252 1.199264 3.976510
0.381927 1.263106 4.383657
0.390925 1.308242 4.553313
0.340178 1.055929 4.995558
0.289392 0.802953 5.138798
0.207007 0.392713 5.462342
1.216079 3.687262 -0.119818
1.243021 3.779478 0.333283
1.246798 3.792787 0.736285
1.226967 3.725675 1.092032
1.208375 3.662784 1.447543
0.398610 0.908034 2.990752
0.465954 1.137815 3.476789
0.501770 1.260304 3.988498
0.526874 1.346137 4.326984
0.479993 1.187078 4.799207
0.440206 1.051758 4.903350
0.354680 0.760933 5.182110
0.242943 0.380858 5.436343
1.488911 3.479699 0.060110
1.536421 3.602298 0.450827
1.507610 3.528665 1.039168
1.484628 3.469633 1.165048
0.595298 1.183088 3.507428
0.650405 1.325285 3.951892
0.630802 1.275220 4.390989
0.596227 1.186480 4.661170
0.495374 0.927391 5.171749
0.418312 0.729087 5.178901
0.259057 0.319607 5.571830
1.824043 3.403236 0.129091
1.789742 3.334085 0.487393
1.743355 3.240522 0.907759
0.765238 1.263333 3.666450
0.759467 1.252088 4.274556
0.748437 1.229818 4.343505
0.705858 1.143855 4.614328
0.570236 0.869629 4.889688
0.406238 0.538138 5.376728
2.023412 3.149599 -0.073569
2.044667 3.185513 0.271102
1.993830 3.100236 0.459175
0.945274 1.339706 1.705944
0.836151 1.156401 1.693177
0.829409 1.146047 3.274525
0.762253 1.033449 3.613063
0.879329 1.230255 3.855549
0.851052 1.183025 4.294213
0.753858 1.020097 4.834540
0.705131 0.938230 4.804091
0.537905 0.657548 5.151095
0.312741 0.279573 5.544447
0.105907 -0.067882 5.498273
2.231028 2.808621 0.006111
2.145219 2.692600 0.493736
1.214652 1.432207 1.662440
0.979575 1.113605 1.567351
0.652536 0.671119 2.861535
0.895539 1.000583 3.185000
0.978409 1.113277 3.936176
1.003943 1.147969 4.107790
0.987153 1.125413 4.479603
0.819799 0.898901 4.988428
0.626765 0.637505 5.336849
0.443501 0.389154 5.317066
0.234070 0.105419 5.438104
2.485416 2.700971 -0.356447
2.344143 2.536606 0.256246
2.300357 2.485632 0.384571
2.156801 2.318412 0.593991
1.436140 1.478769 1.263452
1.099282 1.086341 1.672132
1.040343 1.017744 1.876036
1.019332 0.994049 3.526553
1.041181 1.019745 4.002989
1.083281 1.069011 4.409474
1.036176 1.014206 4.613475
0.839555 0.785312 5.191274
0.715217 0.640362 5.131784
2.741869 2.468419 -0.390488
2.594269 2.326160 -0.014323
2.426673 2.164636 0.427649
2.268662 2.012258 0.637290
2.134601 1.882964 0.785533
1.846074 1.604716 1.150854
1.517212 1.287504 1.417295
1.255416 1.035029 1.734090
0.993335 0.782176 1.815598
0.876796 0.670115 2.710777
1.179542 0.962487 3.272951
1.214232 0.996271 3.984174
1.245701 1.026711 4.154048
1.107344 0.893440 4.691377
1.040516 0.829074 4.962072
0.738275 0.537571 5.276538
0.516510 0.323576 5.254813
0.147285 -0.032569 5.553926
2.864230 2.180383 -0.435015
2.772665 2.105580 -0.008937
2.642708 1.999298 0.308325
2.471568 1.859251 0.518548
2.232365 1.663455 0.686790
2.018899 1.488707 0.792979
1.684513 1.215083 1.230056
1.496012 1.060756 1.278941
1.143852 0.772611 1.798996
0.925057 0.593832 2.721384
1.199348 0.818612 3.179563
1.307560 0.907521 3.927785
1.303211 0.904084 4.231273
1.264680 0.872711 4.667727
1.173106 0.797743 4.703449
0.919537 0.590255 5.045941
0.561451 0.297233 5.502627
0.339572 0.115519 5.414579
2.891188 1.850030 -0.338193
3.034380 1.949382 -0.240053
2.794571 1.783182 0.091116
2.504398 1.582102 0.554750
2.377029 1.493794 0.639911
2.097562 1.300052 0.876066
1.793908 1.089561 1.183588
1.492695 0.880767 1.498335
1.193125 0.673022 1.576503
0.940549 0.498311 2.807883
1.309527 0.754415 3.301205
1.447328 0.850250 3.980032
1.483379 0.875318 4.149028
1.403323 0.819895 4.416585
1.249296 0.713270 4.953156
0.940932 0.499463 5.129263
0.711437 0.340371 5.341622
0.308404 0.060923 5.568437
3.076404 1.641455 -0.018974
2.855300 1.512983 0.250185
2.636323 1.385750 0.523102
2.474841 1.291903 0.671243
2.208879 1.137311 0.841855
1.889544 0.951733 1.147925
1.520416 0.737251 1.594256
1.362381 0.645326 1.513160
1.118209 0.503764 2.672701
1.355287 0.641861 3.331039
1.565962 0.764540 3.809763
1.581680 0.773765 4.045153
1.414099 0.676513 4.579144
1.293665 0.606628 4.982011
1.070923 0.477157 5.121669
0.709430 0.267068 5.439170
3.203316 1.327467 -0.402167
2.986608 1.228322 0.039369
2.895416 1.186602 0.230130
2.554512 1.030497 0.522712
2.297741 0.912959 0.866435
1.934223 0.746519 1.238018
1.741144 0.658042 1.219939
1.463971 0.531101 1.403078
1.717696 0.648108 3.566815
1.771842 0.673057 3.970198
1.551447 0.572299 4.635085
1.551197 0.572185 4.635866
1.191515 0.407560 5.176041
0.938095 0.291513 5.386325
0.599070 0.136231 5.571023
3.197138 1.047749 -0.001891
2.987920 0.970361 0.206342
2.863541 0.924399 0.462843
2.717935 0.870520 0.547516
2.279744 0.708458 1.042327
1.963644 0.591512 1.286068
1.792745 0.528213 1.203645
1.477467 0.411574 1.455089
1.243980 0.325579 2.790771
1.639167 0.472074 3.351630
1.803372 0.532993 3.728378
1.681316 0.488017 4.362577
1.701779 0.495671 4.597968
1.546739 0.438329 4.766967
1.198368 0.309513 5.242018
0.827433 0.172268 5.491801
0.538295 0.065216 5.472194
3.320245 0.791528 -0.303109
3.027583 0.710275 0.267319
2.994855 0.701189 0.332833
2.689262 0.616284 0.736970
2.332253 0.517038 1.039022
2.007620 0.426782 1.282469
1.713912 0.345112 1.465094
1.392241 0.255683 1.719158
1.331538 0.239174 2.890823
1.853896 0.384702 3.419909
1.884681 0.393422 3.890916
1.855167 0.385329 4.258544
1.603037 0.315310 4.691879
1.488905 0.283562 4.727879
1.179335 0.197628 5.371465
0.932374 0.128954 5.516577
3.304178 0.493788 0.042378
3.172689 0.469058 0.296636
2.955846 0.428208 0.506661
2.646647 0.369994 0.912429
2.469338 0.336510 0.826150
1.984774 0.245258 1.395663
1.805637 0.211430 1.313384
1.388095 0.132788 1.766945
1.953465 0.240023 3.502515
1.986143 0.246339 3.971988
1.912629 0.232531 4.171774
1.770135 0.205771 4.570992
1.539807 0.162428 4.939806
1.264108 0.110472 5.146763
0.896122 0.041093 5.327239
3.313588 0.182702 -0.128080
3.112298 0.163946 0.254176
2.795043 0.134320 0.658207
2.640716 0.119875 0.745053
2.302612 0.088242 0.984429
1.935506 0.053913 1.295535
1.692146 0.031182 1.588273
1.449038 0.008803 2.918678
1.844385 0.046076 3.543519
2.045654 0.065049 3.852612
2.014379 0.062231 4.219908
1.941159 0.055428 4.420629
1.682681 0.031324 4.854398
1.452402 0.009846 5.226424
1.101641 -0.023014 5.338590
0.613063 -0.068763 5.562673
3.246098 -0.075293 -0.415630
3.474736 -0.071544 -0.208245
3.239290 -0.075199 0.233393
2.921344 -0.080197 0.633573
2.703470 -0.083640 0.846508
2.334579 -0.089489 1.148917
2.060437 -0.093872 1.260882
1.665300 -0.100119 1.641876
1.545983 -0.101957 1.910005
1.308298 -0.105694 2.207100
1.295169 -0.105733 2.757303
1.955071 -0.094942 3.258843
2.078232 -0.092799 3.764996
2.095879 -0.092441 3.998890
2.042873 -0.093160 4.429261
1.853693 -0.096136 4.660631
1.598181 -0.100117 5.094615
1.180103 -0.106756 5.405309
0.894235 -0.111390 5.314428
3.248389 -0.347808 -0.031471
3.214484 -0.345492 0.032454
3.081432 -0.336398 0.286668
2.759112 -0.314362 0.926094
2.579666 -0.302233 0.838614
2.211501 -0.277197 1.142402
1.907221 -0.256528 1.321085
1.575192 -0.233881 1.812074
1.395336 -0.221646 1.973618
1.434538 -0.224171 2.389092
1.848364 -0.252028 2.953839
2.100823 -0.268905 3.667731
2.186108 -0.274577 4.002569
2.015723 -0.262890 4.462947
1.898254 -0.254829 4.793583
1.667519 -0.239083 5.160068
1.433521 -0.223208 5.231406
0.987797 -0.192989 5.310757
0.424909 -0.154818 5.434718
3.148864 -0.614959 -0.133904
3.190061 -0.621206 0.214632
2.995128 -0.591001 0.597019
2.779096 -0.557594 0.809563
2.533621 -0.519621 1.089410
2.290848 -0.482065 1.372704
2.080746 -0.449646 1.355101
1.750324 -0.398574 1.603305
1.454261 -0.352747 2.031368
1.374349 -0.340274 2.475133
1.747609 -0.397753 2.869222
2.113068 -0.453935 3.557014
2.195950 -0.466619 3.893186
1.977824 -0.432768 4.485584
1.861361 -0.414689 4.817341
1.748501 -0.397166 5.150370
1.494548 -0.357930 5.288921
1.147032 -0.304264 5.399755
3.089933 -0.867538 -0.135881
3.130342 -0.877057 0.212905
2.969816 -0.838693 0.531950
2.905902 -0.823418 0.661416
2.514275 -0.729958 1.023802
2.274486 -0.672714 1.307059
2.037287 -0.616086 1.594003
1.830028 -0.566692 1.578989
1.477573 -0.482582 1.898507
1.521034 -0.492730 2.554336
1.915124 -0.586553 2.882017
2.209085 -0.656429 3.466377
2.240381 -0.663738 3.933097
2.028370 -0.613111 4.227430
1.887792 -0.579477 4.624883
1.818979 -0.563011 4.825606
1.437049 -0.471806 5.363199
1.137406 -0.400394 5.340276
3.065093 -1.148309 -0.463495
3.068261 -1.149220 -0.049229
2.961333 -1.113707 0.380245
2.836322 -1.072269 0.637787
2.713480 -1.031548 0.896483
2.392273 -0.925217 1.133862
2.187695 -0.857471 1.354123
1.956071 -0.780756 1.642734
1.668293 -0.685499 1.828099
1.473494 -0.620906 2.297727
1.787101 -0.724392 3.064007
2.076976 -0.820087 3.647560
2.156842 -0.846395 3.984545
2.108571 -0.830383 4.118670
2.036807 -0.806480 4.613927
1.879925 -0.754530 4.780296
1.590984 -0.658861 5.048781
1.325135 -0.570852 5.255529
0.789217 -0.393534 5.375030
3.095866 -1.465779 -0.325193
3.070313 -1.454665 0.148972
2.947878 -1.402097 0.403468
2.745519 -1.315287 0.613919
2.457466 -1.191678 1.019734
2.174566 -1.070276 1.431701
2.035153 -1.010406 1.760023
1.673860 -0.855494 1.902444
1.477690 -0.771413 1.890363
1.577560 -0.813962 2.649857
2.095636 -1.035868 3.118058
2.096708 -1.036145 3.651455
2.111523 -1.042416 3.885754
2.016587 -1.001531 4.445491
1.863941 -0.936045 4.610672
1.690882 -0.861786 4.843689
1.411706 -0.742029 5.113923
1.027143 -0.577084 5.426467
2.943647 -1.714085 -0.290346
2.900563 -1.691006 0.011140
2.802371 -1.638498 0.438509
2.715446 -1.592082 0.630884
2.466870 -1.459421 0.970963
2.251782 -1.344720 1.014219
2.113887 -1.271079 1.340375
1.818771 -1.113638 1.584773
1.499211 -0.943136 1.901220
1.513788 -0.950652 2.620291
1.905494 -1.159333 3.116316
2.161783 -1.295862 3.464530
2.107701 -1.266873 3.892816
1.997740 -1.208125 4.220599
1.828914 -1.117921 4.746307
1.623894 -1.008475 5.111248
1.396838 -0.887360 5.249352
1.131981 -0.746041 5.524973
0.653728 -0.491017 5.580607
2.710597 -1.907546 -0.120447
2.773132 -1.947943 0.165182
2.661354 -1.875449 0.419999
2.551467 -1.804180 0.675981
2.368253 -1.685432 0.888741
2.058499 -1.484693 1.189978
1.878303 -1.367809 1.647596
1.676274 -1.236847 1.936474
1.549402 -1.154637 2.030516
1.635472 -1.210190 2.548402
1.883860 -1.370851 3.137155
1.920660 -1.394424 3.837424
1.977000 -1.430877 3.941261
1.872785 -1.363254 4.269502
1.751906 -1.284813 4.664601
1.575033 -1.170141 4.963144
1.377331 -1.042063 5.033711
0.613877 -0.547376 5.564820
2.665424 -2.233654 -0.212163
2.497155 -2.102596 0.403221
2.444847 -2.061879 0.531895
2.196695 -1.868803 0.934711
2.026007 -1.736022 1.150017
1.809384 -1.567573 1.260284
1.664554 -1.454823 1.654110
1.546863 -1.363197 1.984507
1.437699 -1.278105 2.554130
1.619935 -1.419585 3.039721
1.869516 -1.613500 3.323751
1.740396 -1.512846 4.013339
1.794028 -1.554499 4.116271
1.716589 -1.494193 4.379386
1.457284 -1.292357 5.004919
1.271539 -1.147928 5.075290
1.085819 -1.003518 5.147548
0.738752 -0.733551 5.529961
2.371727 -2.359019 -0.386904
2.424710 -2.407720 -0.100137
2.365824 -2.353301 0.264014
2.197438 -2.197944 0.709455
1.990895 -2.007469 1.050544
1.877880 -1.903289 1.138185
1.697319 -1.736782 1.421547
1.519152 -1.572479 1.707314
1.477471 -1.533912 2.077687
1.439100 -1.498395 2.447657
1.499920 -1.554194 3.025121
1.674858 -1.715195 3.503429
1.680959 -1.720591 4.032908
1.749254 -1.783510 4.070052
1.503203 -1.556510 4.688926
1.365498 -1.429516 4.920359
1.262135 -1.334224 5.021616
1.008044 -1.099907 5.426539
0.749910 -0.861990 5.538683
2.145527 -2.583897 0.009173
2.115005 -2.549713 0.310296
1.989308 -2.409450 0.456543
1.817500 -2.217585 0.968963
1.673275 -2.056625 1.184772
1.469405 -1.829047 1.598453
1.369423 -1.717379 1.927619
1.352184 -1.698008 2.232774
1.313320 -1.654599 2.366549
1.367233 -1.714458 2.945257
1.569632 -1.939927 3.527057
1.558756 -1.927518 4.120714
1.477341 -1.836559 4.448011
1.430122 -1.783939 4.350562
1.210506 -1.538700 4.975778
1.131689 -1.450776 5.011779
0.915357 -1.209334 5.350379
0.680680 -0.947538 5.462447
2.012117 -2.804427 -0.164146
1.902013 -2.662073 0.389161
1.901073 -2.660860 0.392121
1.649039 -2.335349 0.985970
1.573881 -2.238359 1.009183
1.366550 -1.970590 1.486559
1.291571 -1.873830 1.512616
1.295670 -1.878753 2.226981
1.186256 -1.737491 2.386560
1.212717 -1.771425 2.796168
1.478569 -2.114056 3.585108
1.499207 -2.140448 4.048643
1.483394 -2.120009 4.116274
1.293019 -1.874081 4.669412
1.162856 -1.706127 4.669745
0.979009 -1.468617 5.234146
0.821816 -1.265715 5.373665
0.664943 -1.063225 5.516138
1.683889 -2.868271 -0.141867
1.724045 -2.930864 0.143570
1.516974 -2.606930 0.669626
1.413867 -2.445562 1.055553
1.281232 -2.238107 1.336616
1.150021 -2.032874 1.621365
1.069461 -1.906777 1.950645
1.105084 -1.962250 2.295885
1.024381 -1.836066 2.389639
1.327534 -2.308967 3.918593
1.361493 -2.361810 4.314492
1.236024 -2.165852 4.081701
1.093717 -1.943197 4.505261
0.979382 -1.764333 4.802423
0.818901 -1.513191 5.368659
0.716025 -1.352443 5.308792
1.365534 -2.849819 -0.043364
1.432248 -2.975639 0.115009
1.324342 -2.771663 0.559757
1.204996 -2.546044 1.072084
1.147934 -2.438321 1.094148
0.990503 -2.140840 1.570970
0.962103 -2.087144 1.702893
1.179485 -2.496149 3.670708
1.230863 -2.592949 3.937982
1.084144 -2.315641 4.483253
0.973733 -2.107190 4.546027
0.819859 -1.816522 4.873990
0.764659 -1.712305 4.908818
0.571724 -1.347720 5.513503
0.417556 -1.056688 5.558811
1.099090 -2.895079 -0.136962
1.133528 -2.975591 -0.088653
1.098950 -2.894234 0.512592
1.035653 -2.745928 0.832326
0.962917 -2.575680 0.981558
0.830076 -2.264587 1.456838
0.758558 -2.097182 1.611681
0.737726 -2.047971 2.218694
0.762297 -2.105357 2.325510
1.035909 -2.743956 4.052419
0.989339 -2.635006 4.081650
0.848887 -2.306184 4.464183
0.682317 -1.916345 4.756116
0.591270 -1.703094 5.121339
0.481662 -1.446560 5.326053
0.873267 -3.037936 -0.256922
0.847957 -2.961264 0.107869
0.824061 -2.888856 0.472550
0.803606 -2.827059 0.600634
0.733603 -2.615556 1.049891
0.675809 -2.441161 1.200600
0.608710 -2.238408 1.656002
0.618564 -2.267947 1.828443
0.572133 -2.124913 4.885007
0.389423 -1.573588 5.352018
0.597355 -3.029767 0.092975
0.602483 -3.050862 0.267319
0.549287 -2.828998 0.714503
0.491211 -2.587062 0.992536
0.469268 -2.495528 1.187449
0.398550 -2.200504 1.839170
0.420659 -2.292092 2.117898
0.239024 -1.532393 5.246055
0.169032 -1.240897 5.521415
0.318130 -3.131409 -0.442002
0.304873 -3.037204 0.161023
0.290874 -2.938715 0.352944
0.280628 -2.866124 0.718502
0.249522 -2.647224 1.168903
0.206557 -2.345327 1.580639
0.189711 -2.226739 1.842491
0.207216 -2.348888 2.055789
0.090775 -1.525967 5.313761
0.044242 -1.199896 5.356134
0.052308 -3.036930 -0.025193
0.049715 -2.991572 0.277442
0.036352 -2.763729 0.726931
0.030541 -2.663387 1.159334
0.028664 -2.631363 1.226102
0.010758 -2.327044 1.639954
-0.005100 -2.057591 1.994015
-0.027400 -1.664221 5.220448
-0.043823 -1.386004 5.428242
-0.189502 -3.017538 -0.422983
-0.190185 -3.056194 -0.071915
-0.187060 -2.911418 0.422555
-0.184302 -2.780884 0.680772
-0.184084 -2.773942 0.919823
-0.178270 -2.495758 1.265385
-0.175023 -2.342470 1.592345
-0.170607 -2.134164 2.052311
-0.157756 -1.555905 5.206866
-0.444073 -2.984567 -0.411788
-0.437365 -2.922791 0.131166
-0.448867 -3.032161 0.353445
-0.418058 -2.742698 0.931362
-0.388650 -2.465785 1.277792
-0.375587 -2.343099 1.540447
-0.356356 -2.161809 1.697335
-0.353280 -2.133647 2.003380
-0.281254 -1.462187 5.116121
-0.281814 -1.468381 5.416590
-0.689088 -2.921203 -0.170594
-0.696741 -2.961764 0.179912
-0.665518 -2.799212 0.501499
-0.640971 -2.671432 0.760569
-0.610950 -2.515167 1.085371
-0.564451 -2.273158 1.607108
-0.541489 -2.153267 1.633148
-0.524938 -2.067545 2.069997
-0.492291 -1.897684 2.467450
-0.415767 -1.502577 5.221494
-0.379995 -1.315629 5.160065
-0.275272 -0.769333 5.582213
-0.935991 -2.871223 0.007885
-0.941498 -2.891102 0.183890
-0.870673 -2.638659 0.697575
-0.868732 -2.632004 0.936882
-0.801990 -2.393879 1.218055
-0.719654 -2.100197 1.633659
-0.694883 -2.011650 1.594259
-0.680114 -1.959592 2.203940
-0.601510 -1.679258 2.629367
-0.608309 -1.706062 4.788787
-0.545697 -1.482797 5.158294
-0.482371 -1.256631 5.231067
-0.324324 -0.692188 5.418795
-1.187753 -2.787297 -0.434672
-1.213348 -2.855409 -0.147879
-1.185091 -2.780821 0.217958
-1.092792 -2.536589 0.730946
-1.058863 -2.446812 0.925269
-0.960690 -2.186858 1.271720
-0.885447 -1.987791 1.730092
-0.821635 -1.818764 1.887443
-0.782160 -1.714559 2.391180
-0.765014 -1.669434 2.762487
-0.899136 -2.025346 3.151841
-1.058251 -2.447601 3.637242
-0.877475 -1.969309 4.711208
-0.778039 -1.705875 4.909852
-0.645574 -1.354854 5.080778
-0.490103 -0.943030 5.461173
-1.412436 -2.669423 0.007636
-1.388938 -2.620475 0.547771
-1.388502 -2.619561 0.549765
-1.239776 -2.307610 1.020775
-1.172603 -2.166797 1.346460
-1.041839 -1.892349 1.524815
-1.002621 -1.810144 1.723861
-0.886900 -1.567414 2.081565
-0.867791 -1.527736 2.693450
-1.024946 -1.858234 3.384580
-1.158636 -2.139379 3.960800
-1.206802 -2.240712 4.228450
-1.033587 -1.877159 4.452152
-0.942159 -1.685178 4.451850
-0.891195 -1.578405 4.784900
-0.760327 -1.303807 5.055392
-0.552108 -0.866965 5.572214
-1.612373 -2.523962 -0.158644
-1.656138 -2.599397 -0.109662
-1.599483 -2.502055 0.320787
-1.533422 -2.388399 0.578549
-1.373996 -2.114129 1.224887
-1.312670 -2.008485 1.248849
-1.129172 -1.692530 1.558988
-1.068593 -1.588325 1.824936
-0.965749 -1.411427 2.291297
-1.005739 -1.480690 2.874926
-1.170659 -1.765157 3.394839
-1.245805 -1.894900 3.833958
-1.276940 -1.948791 4.233331
-1.158032 -1.743964 4.296705
-1.062295 -1.579164 4.528274
-0.921360 -1.336661 5.028896
-0.733086 -1.012394 5.204538
-0.523370 -0.651273 5.522821
-1.823728 -2.355532 -0.340584
-1.865924 -2.415296 -0.053032
-1.858355 -2.404733 0.186624
-1.688263 -2.164766 0.764587
-1.669197 -2.137868 0.831171
-1.419690 -1.785636 1.265127
-1.348414 -1.685090 1.529169
-1.243078 -1.536372 1.687191
-1.087277 -1.316474 2.046397
-1.061272 -1.280071 2.660161
-1.295822 -1.611587 2.986283
-1.363926 -1.708072 3.494806
-1.382743 -1.734908 3.962427
-1.283270 -1.594636 4.424119
-1.187203 -1.459017 4.590549
-1.132849 -1.382378 4.857992
-0.957353 -1.134610 5.129476
-2.074396 -2.158857 -0.156652
-2.058256 -2.140787 0.320538
-1.971314 -2.042348 0.578048
-1.885871 -1.945611 0.836702
-1.742368 -1.783035 1.053013
-1.539099 -1.552800 1.468239
-1.378855 -1.371280 1.757318
-1.220422 -1.191815 2.050037
-1.200667 -1.169453 2.118449
-1.294248 -1.275866 2.808322
-1.528440 -1.541568 3.263127
-1.435884 -1.436943 3.892727
-1.415599 -1.414122 4.259035
-1.383175 -1.377428 4.392772
-1.319925 -1.305852 4.659078
-1.165520 -1.130988 5.027071
-0.902802 -0.833280 5.270006
-0.515008 -0.393756 5.460374
-2.297880 -2.092852 -0.369380
-2.277424 -2.072835 0.109359
-2.182019 -1.978608 0.367658
-2.083647 -1.881552 0.864166
-1.951257 -1.750706 1.016740
-1.711825 -1.514050 1.256455
-1.559784 -1.363802 1.477768
-1.324652 -1.131508 1.967149
-1.176299 -0.984910 2.195612
-1.291339 -1.098838 2.581574
-1.568827 -1.373508 3.208729
-1.710332 -1.513571 3.518391
-1.530585 -1.336120 4.175656
-1.495542 -1.301526 4.309000
-1.393705 -1.201001 4.707211
-1.293162 -1.101623 4.808617
-1.013795 -0.825610 5.349524
-0.680645 -0.496242 5.500892
-2.353344 -1.831671 0.079828
-2.369261 -1.845263 0.256031
-2.219076 -1.717860 0.642167
-2.169244 -1.675588 0.773125
-1.792419 -1.355756 1.337101
-1.675812 -1.256752 1.428468
-1.421125 -1.040531 1.678265
-1.212890 -0.863712 1.799534
-1.132435 -0.795686 2.551552
-1.470961 -1.083425 3.048558
-1.692505 -1.271741 3.397403
-1.697399 -1.276118 3.931164
-1.566097 -1.164784 4.393546
-1.494044 -1.103571 4.360926
-1.332828 -0.966886 4.960619
-1.170756 -0.829229 4.964697
-2.640925 -1.696857 -0.003737
-2.496892 -1.596035 0.552507
-2.396832 -1.525853 0.572541
-2.140087 -1.345909 0.980367
-1.915095 -1.188126 1.090040
-1.664127 -1.012238 1.508795
-1.417922 -0.839695 1.933591
-1.195562 -0.683762 2.055828
-1.235309 -0.711895 2.711661
-1.644715 -0.999221 3.073557
-1.785424 -1.098069 3.450257
-1.771369 -1.088439 4.048951
-1.710824 -1.046045 4.247192
-1.554794 -0.936682 4.478198
-1.306194 -0.762514 5.045973
-1.041331 -0.576850 5.388121
-0.771539 -0.387616 5.433532
-2.760063 -1.497755 -0.005966
-2.608722 -1.407696 0.550762
-2.475804 -1.328452 0.635401
-2.261057 -1.200475 0.914882
-1.970972 -1.027550 1.155179
-1.630146 -0.824414 1.533609
-1.242313 -0.593294 2.057142
-1.325276 -0.642877 2.339298
-1.587581 -0.799625 3.170887
-1.860693 -0.962617 3.453080
-1.765308 -0.905934 4.017573
-1.701294 -0.867828 4.217472
-1.617895 -0.818185 4.484157
-1.396168 -0.686101 4.918379
-1.174608 -0.554009 5.056874
-0.695654 -0.268506 5.478859
-2.787193 -1.212502 -0.241992
-2.764081 -1.201439 0.235125
-2.674559 -1.158008 0.428297
-2.528435 -1.087119 0.750526
-2.304531 -0.978423 1.030983
-2.001588 -0.831309 1.272599
-1.782522 -0.724882 1.321343
-1.373815 -0.526474 1.839870
-1.237682 -0.460361 1.936037
-1.138261 -0.412232 2.449792
-1.536751 -0.606031 2.949037
-1.703492 -0.687264 3.564227
-1.712068 -0.691619 4.101041
-1.686867 -0.679502 4.468613
-1.664896 -0.668850 4.536766
-1.392469 -0.536677 5.106171
-1.221348 -0.453509 5.044491
-0.778477 -0.238395 5.261298
-2.913630 -0.890525 -0.465750
-2.949202 -0.903165 -0.113882
-2.811525 -0.854858 0.381127
-2.603345 -0.781636 0.595057
-2.421658 -0.717799 0.985174
-2.045102 -0.585350 1.358434
-1.729401 -0.474204 1.367026
-1.385061 -0.353080 1.687930
-1.099110 -0.252469 1.880256
-0.906626 -0.184861 2.359522
-1.246791 -0.304857 3.064081
-1.672801 -0.455005 3.554680
-1.775544 -0.491269 3.828481
-1.768819 -0.489002 4.131584
-1.586728 -0.425071 4.666343
-1.452751 -0.377936 4.770010
-1.191610 -0.286166 5.279513
-2.975648 -0.690587 -0.058002
-2.845708 -0.654739 0.199025
-2.569255 -0.578404 0.540875
-2.475171 -0.552451 0.736808
-2.027819 -0.428911 1.239302
-1.733728 -0.347647 1.421491
-1.469563 -0.274638 1.540904
-1.148160 -0.185846 1.798700
-1.691901 -0.336694 3.302766
-1.860189 -0.383352 3.679536
-1.714086 -0.343081 4.079417
-1.527430 -0.291641 4.614932
-1.459336 -0.272877 4.817922
-1.166233 -0.191916 5.092837
-2.910637 -0.444041 -0.062948
-2.778335 -0.418034 0.195051
-2.521417 -0.367536 0.712534
-2.457850 -0.355043 0.844135
-2.034421 -0.271685 1.282469
-1.735318 -0.212761 1.465094
-1.407740 -0.148245 1.719158
-1.168882 -0.101161 1.775416
-0.962326 -0.060504 2.009581
-1.064184 -0.080759 2.536451
-1.630131 -0.192587 3.242962
-1.701148 -0.206797 3.886405
-1.743330 -0.215170 4.056573
-1.646618 -0.196185 4.324874
-1.438380 -0.155314 4.929030
-1.207117 -0.109733 5.001902
-2.893914 -0.157026 -0.401229
-2.967192 -0.164339 -0.114804
-2.767352 -0.144764 0.269770
-2.508817 -0.119446 0.786398
-2.324452 -0.101323 0.938058
-1.958113 -0.065314 1.246271
-1.564599 -0.026574 1.386620
-1.172729 0.011925 1.776474
-1.055383 0.023405 2.048425
-0.905839 0.038113 2.146077
-1.563799 -0.027143 3.440185
-1.621812 -0.032989 3.846403
-1.591515 -0.030119 4.215614
-1.589153 -0.029981 4.517267
-1.332899 -0.004863 4.954702
-1.027093 0.025285 4.927159
-2.828864 0.065253 -0.059597
-2.916950 0.063300 -0.012292
-2.750259 0.066867 0.308924
-2.337871 0.075752 0.912339
-2.121935 0.080434 1.131511
-1.816845 0.087091 1.311312
-1.361009 0.097035 1.588596
-1.147929 0.101728 1.575420
-1.586213 0.091431 3.653024
-1.647133 0.089963 4.058138
-1.549087 0.092037 4.326076
-1.453389 0.094058 4.594862
-1.242462 0.098604 4.899706
-0.844476 0.107284 5.145748
-0.309397 0.118944 5.508334
-2.883945 0.312775 -0.194400
-2.803415 0.307493 0.174507
-2.638318 0.296801 0.498290
-2.323815 0.276496 0.910048
-2.049682 0.258876 1.019781
-0.763618 0.175675 3.253320
-1.228576 0.206018 1.610529
-0.926654 0.186590 1.801577
-0.901315 0.184866 2.114063
-1.601439 0.229318 3.577632
-1.568078 0.227062 3.947099
-1.515065 0.223524 4.382799
-1.233408 0.205297 4.887831
-1.093303 0.196277 4.991317
-0.769951 0.175425 5.338408
-0.155382 0.136015 5.295252
-2.858632 0.549399 0.000441
-2.758669 0.534630 0.194299
-2.411091 0.483343 0.667155
-2.163901 0.446885 0.950989
-2.011652 0.424457 1.040851
-1.588307 0.362107 1.246503
-1.286174 0.317597 1.433395
-1.045799 0.282136 1.733112
-0.990316 0.273852 2.114845
-0.847954 0.252798 2.457991
-1.563738 0.357742 3.613102
-1.550029 0.355532 4.219789
-1.360725 0.327606 4.456092
-1.198296 0.303558 4.930063
-0.898347 0.259340 5.208799
-2.789390 0.766350 0.035161
-2.626858 0.729209 0.357652
-2.411906 0.680156 0.572651
-2.105853 0.610280 0.986540
-1.776820 0.535221 1.232097
-1.479201 0.467341 1.416403
-1.211874 0.406384 1.537459
-0.915670 0.338823 1.729655
-1.542883 0.481156 3.581804
-1.413384 0.451440 4.221113
-1.433844 0.456026 4.458139
-1.181459 0.398371 4.898387
-1.021894 0.361954 5.071938
-0.656114 0.278542 5.254210
-0.126363 0.157804 5.312732
-2.736291 1.010686 -0.011044
-2.639638 0.979650 0.183525
-2.544216 0.949007 0.378764
-2.218044 0.844407 0.615159
-1.803461 0.711409 1.055120
-1.366277 0.571222 1.330377
-1.249308 0.533730 1.358672
-0.988571 0.450055 1.726214
-0.851972 0.405824 3.113257
-1.283744 0.544025 3.603737
-1.430027 0.590755 4.047396
-1.246617 0.531903 4.283399
-1.110032 0.488000 4.690143
-1.043354 0.466566 4.895141
-0.642608 0.338042 5.212331
-0.104243 0.165480 5.339776
-2.657690 1.242501 -0.042991
-2.533373 1.190750 0.215100
-2.328725 1.105631 0.429282
-2.066306 0.996459 0.776597
-1.840461 0.902588 0.822312
-0.611742 0.391180 3.127054
-1.047070 0.572650 1.483091
-0.768412 0.456342 2.968777
-1.209546 0.639521 3.393782
-1.279688 0.668451 4.039956
-1.231253 0.648174 4.479205
-1.121534 0.602564 4.515405
-0.929180 0.522419 5.127140
-0.624120 0.395629 5.172080
-0.278161 0.251794 5.358639
-2.563167 1.472174 -0.297468
-2.640464 1.512220 -0.248207
-2.489607 1.433916 0.072903
-2.175899 1.271151 0.544557
-1.981229 1.170175 0.762320
-1.652100 0.999475 1.071635
-1.380137 0.858449 1.254584
-1.028491 0.676049 1.644321
-0.812045 0.563843 1.701439
-0.708486 0.509700 3.022185
-1.133266 0.729718 3.446376
-1.118351 0.721772 4.057954
-1.179198 0.753272 4.161721
-1.029477 0.675503 4.635732
-0.906205 0.611465 5.044349
-0.592758 0.448962 5.157593
-2.597314 1.794796 -0.459585
-2.452003 1.702713 -0.140216
-2.226072 1.559534 0.373737
-1.985675 1.407263 0.718397
-1.698903 1.225680 0.959177
-1.389690 1.029958 1.030259
-1.156851 0.882556 1.147580
-0.898279 0.718749 1.579921
-0.899312 0.719312 1.825169
-0.853069 0.689904 2.205457
-0.505343 0.469659 2.677358
-0.625344 0.545437 3.132854
-1.045283 0.810963 3.792545
-1.098302 0.844367 4.200072
-0.996235 0.779645 4.538613
-0.916751 0.729240 4.810705
-0.721203 0.605340 5.188539
-0.460844 0.440572 5.165949
0.054020 0.114624 5.434054
-2.371454 1.957513 -0.308082
-2.155723 1.793796 0.205074
-2.102223 1.753194 0.335795
-1.777812 1.507159 0.701681
-0.827186 0.785763 2.884271
-1.115737 1.005102 1.284819
-0.969198 0.893968 1.447349
-0.750448 0.728115 1.571153
-0.557174 0.581089 2.923598
-0.895922 0.837626 3.484712
-1.092010 0.986063 3.965253
-0.936178 0.867736 4.505913
-0.916653 0.852909 4.575812
-0.805325 0.768366 4.984425
-0.453104 0.501244 5.372157
-2.196962 2.158703 -0.105690
-2.072124 2.045671 0.215003
-1.956451 1.941026 0.299384
-1.816682 1.814563 0.449489
-1.559116 1.581431 0.927725
-1.285463 1.333822 1.239083
-1.014253 1.088521 1.315188
-0.810451 0.904161 1.436576
-0.766223 0.864003 1.817757
-0.752110 0.850668 3.168361
-0.874821 0.961351 3.854700
-0.921851 1.003710 4.262625
-0.850165 0.938766 4.534393
-0.797430 0.890989 4.739300
-0.641713 0.750035 5.048975
-0.314529 0.453981 5.439260
0.056064 0.118869 5.361649
-2.114812 2.448514 -0.184303
-1.961959 2.284941 0.023560
-1.832706 2.146635 0.169999
-1.549101 1.843041 0.771714
-1.443019 1.729543 0.862072
-1.147841 1.413642 1.306908
-0.876839 1.123735 1.452804
-0.648036 0.878908 1.712950
-0.691724 0.925470 2.067946
-0.656756 0.887528 3.248924
-0.804845 1.045657 3.801760
-0.847235 1.090805 4.211633
-0.780482 1.019286 4.485086
-0.683918 0.915822 4.894876
-0.506870 0.726401 5.039682
-0.255507 0.457338 5.532692
0.086309 0.091795 5.458474
-1.967037 2.676768 -0.133989
-1.724401 2.371578 0.393602
-1.566994 2.173621 0.672272
-1.450587 2.027253 0.824883
-1.298208 1.835733 0.870498
-1.029418 1.497715 1.314679
-0.801562 1.211325 1.392743
-0.498683 0.830513 1.747230
-0.396178 0.701236 2.654242
-0.550656 0.895002 3.387183
-0.687456 1.066644 3.937997
-0.638945 1.005422 4.448116
-0.653024 1.022994 4.686973
-0.580909 0.932194 5.028702
-0.406285 0.712633 5.242030
-0.127282 0.361961 5.330138
0.238292 -0.097565 5.535673
-1.674499 2.752713 0.053203
-1.618421 2.668133 0.246490
-1.495773 2.483267 0.458766
-1.373947 2.299638 0.673783
-1.150973 1.963561 1.043335
-0.931251 1.632515 1.181150
-0.711597 1.301566 1.324877
-0.509249 0.996582 1.650909
-0.303709 0.686329 2.792236
-0.500515 0.982518 3.252636
-0.592852 1.121217 3.939843
-0.576242 1.095983 4.315226
-0.601298 1.133628 4.486667
-0.510725 0.996927 4.963222
-0.318797 0.707587 5.381540
-0.083188 0.352676 5.402085
-1.534187 3.061943 -0.324212
-1.414749 2.843769 0.356238
-1.371351 2.764686 0.312972
-1.215950 2.480980 0.954698
-1.053629 2.184922 1.193486
-0.922711 1.946349 1.067181
-0.716900 1.571034 1.272642
-0.453787 1.091078 1.756106
-0.468858 1.118437 1.934394
-0.487260 1.151190 3.148745
-0.545895 1.257740 3.664697
-0.598969 1.354311 3.939581
-0.516177 1.203077 4.413151
-0.481491 1.139712 4.618570
-0.358061 0.914416 5.064413
-0.166891 0.565759 5.317606
0.059040 0.153796 5.478937
-1.225080 3.129809 -0.415925
-1.267453 3.226845 -0.192324
-1.235156 3.152466 0.171077
-1.156161 2.970939 0.551926
-0.628470 1.759637 1.442258
-0.398186 1.231089 1.748105
-0.362598 1.148467 2.993738
-0.410446 1.257831 3.510850
-0.404342 1.243347 4.122726
-0.402908 1.239816 4.428693
-0.337235 1.088779 4.904409
-0.299046 1.001190 4.874811
-0.168820 0.702158 5.224678
-1.030023 3.398643 -0.347160
-1.031933 3.403817 0.062247
-0.996311 3.299476 0.486137
-0.954309 3.176686 0.739201
-0.253630 1.131337 1.807169
-0.213423 1.012456 3.429425
-0.285150 1.221199 3.978621
-0.322017 1.328497 4.251057
-0.290762 1.237044 4.522261
-0.260280 1.147845 4.794303
-0.154443 0.838718 5.140936
-0.011898 0.422446 5.533875
0.157171 -0.070828 5.528391
-0.709272 3.493635 0.047109
-0.727078 3.567280 0.330668
-0.732257 3.588581 0.504167
-0.679694 3.369465 0.944328
-0.204617 1.391593 3.024413
-0.145420 1.144986 3.395341
-0.186750 1.316302 3.775171
-0.195703 1.352886 4.251057
-0.162111 1.212685 4.658443
-0.124546 1.055872 5.135635
-0.031807 0.669980 5.388020
0.035296 0.391124 5.300017
-0.445531 3.591415 -0.053378
-0.466275 3.720284 0.338733
-0.483859 3.829752 0.557514
-0.462700 3.696552 1.038910
-0.021158 0.932154 3.419185
-0.075984 1.274399 3.632835
-0.096570 1.402046 4.144916
-0.077398 1.281540 4.484822
-0.062452 1.187585 4.758336
-0.014329 0.886259 5.037813
0.055349 0.449986 5.430927
-0.152485 3.736176 -0.274165
-0.162130 3.863039 0.119427
-0.155897 3.777510 0.710427
-0.164434 3.890357 0.927805
0.058792 0.906240 3.204993
0.022703 1.385374 3.626591
0.019900 1.420731 4.102391
0.027166 1.322765 4.373916
0.035982 1.203869 4.713926
0.058740 0.899439 4.992165
0.084556 0.553655 5.413892
0.148401 3.897388 0.056901
0.148404 3.931596 0.631352
0.148564 3.981168 0.971141
0.132937 1.208319 3.236670
0.133266 1.289595 3.580646
0.133772 1.399614 3.855011
0.132591 1.225436 4.632035
0.132441 1.201478 4.701241
0.130786 0.923929 5.214664
0.129498 0.688836 5.291809
0.126923 0.219397 5.450099
0.477447 3.739191 -0.121341
0.477089 3.737520 0.518412
0.483845 3.811540 1.029496
0.488758 3.865266 1.368340
0.491230 3.893054 1.766798
0.238916 1.197791 3.221877
0.243110 1.245085 3.939052
0.244474 1.261515 4.481659
0.239959 1.213660 4.618834
0.233343 1.143552 4.823405
0.196636 0.752593 5.375913
0.170023 0.467482 5.286435
0.124239 -0.021704 5.517492
0.835832 3.860030 -0.033738
0.829846 3.828532 0.663894
0.821852 3.785757 1.188547
0.842817 3.900713 1.402392
0.842441 3.899056 1.632437
0.349247 1.206129 3.134496
0.358896 1.259580 3.545873
0.368569 1.313691 4.258156
0.372378 1.334922 4.494968
0.351120 1.219324 4.833222
0.309408 0.992008 5.209471
0.253991 0.689083 5.186300
1.125165 3.732479 0.060279
1.117337 3.703913 0.757772
1.122410 3.723468 1.158610
1.160274 3.865932 1.310836
0.419709 1.085650 3.369933
0.484827 1.330557 3.546498
0.487227 1.340236 4.088221
0.473863 1.290554 4.526501
0.449594 1.199690 4.797098
0.377153 0.927736 5.005337
0.288020 0.593315 5.424056
0.197568 0.253573 5.543412
1.447028 3.532427 0.000065
1.503854 3.685830 0.329193
1.453403 3.550543 1.040619
1.420570 3.462251 1.228336
0.550431 1.120085 3.708806
0.630303 1.335500 3.950582
0.628345 1.330501 4.255166
0.553891 1.130449 4.862764
0.504763 0.998177 4.967992
0.407061 0.735132 5.179703
0.269042 0.363500 5.434718
1.681030 3.278925 0.035231
1.671347 3.258658 0.504653
1.718858 3.359963 0.723270
0.715347 1.225510 3.263501
0.714951 1.224668 3.265863
0.767311 1.336515 3.778660
0.712348 1.219979 4.419072
0.701821 1.197619 4.488662
0.601523 0.984376 4.863369
0.472220 0.709317 5.143075
0.322116 0.389852 5.259670
0.103790 -0.074709 5.561433
1.951921 3.174172 -0.041778
1.940125 3.153730 0.427339
1.907433 3.096329 0.553822
0.925302 1.370192 1.675205
0.785811 1.126011 3.381165
0.835331 1.213449 3.960275
0.832595 1.208832 4.265122
0.784709 1.124806 4.535963
0.668433 0.920601 4.910766
0.518352 0.656896 5.190668
2.209200 2.857526 -0.249803
2.199967 2.844798 -0.011206
2.153362 2.780100 0.351964
1.131678 1.358185 1.663733
0.954169 1.110987 1.609005
0.688999 0.742471 2.937016
0.897591 1.033166 3.392731
0.956301 1.115227 3.971279
1.008114 1.187554 4.309615
0.924567 1.071438 4.713422
0.815219 0.919307 4.952242
0.746332 0.823408 4.989726
0.488559 0.464685 5.376728
0.214928 0.083760 5.536281
2.358170 2.677354 -0.168822
2.327825 2.640461 0.131156
2.104387 2.367944 0.591268
2.062799 2.317243 0.720617
1.325309 1.417407 1.524789
1.132807 1.182397 1.467790
1.025855 1.052942 3.684789
1.064573 1.100406 4.091315
1.046892 1.079006 4.461542
0.957465 0.970046 4.865790
0.765098 0.735365 5.141742
0.630212 0.570717 5.148956
2.586754 2.507862 -0.233227
2.599686 2.521399 -0.058251
2.421788 2.336390 0.210396
2.178349 2.083265 0.673607
2.071142 1.971739 0.759012
1.538472 1.417721 1.434115
1.285606 1.154609 1.509766
1.074985 0.935511 1.697638
0.793642 0.643162 2.648558
1.038888 0.898585 3.107162
1.169996 1.035302 3.722739
1.195766 1.062333 4.194478
1.128688 0.992786 4.763990
0.983619 0.841958 5.068731
0.836340 0.688694 5.074060
0.546172 0.386875 5.392591
2.832752 2.258460 -0.269785
2.770780 2.205527 0.091070
2.460268 1.939703 0.440184
2.299929 1.802354 0.413568
2.108697 1.638670 0.690396
1.824608 1.395558 1.231465
1.663403 1.257470 1.212594
1.247847 0.901722 1.685463
1.224816 0.882023 1.753464
1.005834 0.695061 3.218707
1.170547 0.836372 3.767889
1.217963 0.877154 4.173724
1.287306 0.936688 4.509960
1.215776 0.875530 4.778386
1.036815 0.722271 4.848783
0.789292 0.510398 5.193604
2.921914 1.989138 -0.107761
2.893851 1.968540 -0.043203
2.607705 1.758427 0.416399
2.358519 1.575362 0.582554
2.131014 1.408300 0.926507
1.808991 1.171786 1.298210
1.563477 0.991426 1.479767
1.391658 0.865148 1.465184
1.364453 0.846100 3.890736
1.339834 0.828152 4.261557
1.339222 0.827703 4.263646
1.167151 0.701482 4.869471
1.072017 0.631581 4.906041
0.827692 0.452132 5.183742
2.949070 1.638126 -0.018851
2.919684 1.620342 0.045577
2.701294 1.488095 0.316944
2.457460 1.340454 0.656202
2.113122 1.131917 1.021742
1.931503 1.021847 1.001892
1.305674 0.642910 1.876036
1.497510 0.759832 3.695854
1.487019 0.753696 4.300400
1.424957 0.716160 4.502131
1.344137 0.667281 4.771318
1.026426 0.474921 5.248478
0.825528 0.353203 5.324570
0.543165 0.182106 5.372345
3.200130 1.402296 -0.450157
2.953964 1.283705 0.055426
2.745026 1.183055 0.501929
2.634573 1.129771 0.522502
2.213451 0.926766 1.016660
1.909782 0.780340 1.259854
1.717943 0.687777 1.243223
1.443357 0.555447 1.669779
1.101377 0.390760 2.551325
1.393981 0.532116 3.078958
1.624606 0.643635 3.797040
1.596051 0.629987 4.166700
1.636129 0.649383 4.336101
1.443407 0.556505 4.637928
1.253358 0.464919 4.943123
0.874793 0.282383 5.257865
0.557413 0.129298 5.374503
3.192676 1.113434 -0.244175
3.065598 1.063750 0.009985
2.735676 0.934695 0.474506
2.621403 0.889947 0.495355
2.357541 0.786723 0.840082
1.958198 0.630390 1.038281
1.671696 0.518325 1.460940
1.444774 0.429470 1.513683
1.164888 0.320350 2.984225
1.695732 0.528408 3.445399
1.789847 0.565461 4.019046
1.830483 0.581433 4.188295
1.673656 0.520169 4.654281
1.541646 0.468503 4.756534
1.237023 0.349314 5.096931
0.847117 0.196716 5.413760
0.450817 0.041514 5.433093
3.137835 0.811410 -0.404768
3.272436 0.851984 -0.244666
3.046147 0.784005 0.198910
2.865600 0.729700 0.345215
2.654622 0.666254 0.557617
2.177718 0.522867 1.119664
1.971996 0.461007 1.341099
1.680636 0.373353 1.523797
1.447609 0.303217 1.576518
1.849314 0.424751 3.409574
1.879944 0.434127 3.880076
1.827433 0.418460 4.313339
1.646067 0.364035 4.846073
1.555050 0.336624 4.814973
1.264056 0.249110 5.087969
0.863174 0.128528 5.404143
3.261026 0.542608 -0.314776
3.181005 0.526214 0.049003
3.018334 0.492752 0.366860
2.740082 0.435449 0.705854
2.496369 0.385254 0.984921
2.258118 0.336110 1.028795
1.719445 0.225115 1.496257
1.514660 0.183012 1.964121
1.338883 0.146797 2.126557
1.053032 0.087957 2.562205
2.023157 0.288449 3.583580
1.893255 0.261848 4.213598
1.867497 0.256651 4.579176
1.751866 0.232804 4.612756
1.545481 0.190317 4.913937
1.205635 0.120328 5.322307
0.746815 0.025708 5.473763
3.332781 0.264665 -0.383460
3.117366 0.239451 0.235087
3.018160 0.227810 0.428261
2.800271 0.202175 0.639661
2.494698 0.166185 0.809689
2.066071 0.115764 1.246495
1.703319 0.073075 1.560707
1.463877 0.044924 1.855068
1.999934 0.108648 3.414414
1.957699 0.103877 4.080971
1.977649 0.106304 4.314668
1.812700 0.086994 4.778683
1.604999 0.062590 5.080007
1.371739 0.035098 5.151654
1.116553 0.005042 5.292993
0.556242 -0.061011 5.415511
3.217704 -0.000560 0.061356
3.150080 -0.003188 0.189993
2.985039 -0.009600 0.509899
2.708632 -0.020474 0.613911
2.336986 -0.035045 0.916158
2.089569 -0.044718 1.202325
1.724135 -0.059039 1.516001
1.544725 -0.065993 1.917322
1.321882 -0.074541 2.697256
1.861114 -0.053096 3.228852
2.128030 -0.042434 3.640806
2.045369 -0.045540 4.137598
1.972001 -0.048373 4.336313
1.852872 -0.052969 4.667875
1.571112 -0.064024 4.869272
1.201730 -0.078451 5.345033
0.850556 -0.092273 5.458653
3.346924 -0.268349 -0.409778
3.385369 -0.269855 -0.061106
2.997850 -0.253404 0.463839
2.875425 -0.248253 0.484002
2.592395 -0.236251 0.826753
2.251603 -0.221778 1.304932
2.008439 -0.211544 1.353192
1.587268 -0.193627 2.045431
2.066829 -0.213325 3.496470
2.074761 -0.213490 4.031234
1.951747 -0.208216 4.363120
1.926620 -0.207045 4.729572
1.831475 -0.203056 4.698928
1.459087 -0.187258 5.170077
1.224050 -0.177357 5.244658
3.310546 -0.625472 -0.430675
3.215874 -0.611084 0.169977
3.061833 -0.587957 0.251945
2.772481 -0.544383 0.827842
2.620247 -0.521526 0.913939
2.317188 -0.476023 1.087586
2.013908 -0.430410 1.505001
1.713999 -0.385376 1.688387
1.505524 -0.354041 1.916277
1.395862 -0.337433 2.426854
1.753096 -0.390784 3.124731
2.159094 -0.451567 3.444412
2.123523 -0.446116 3.810225
1.996700 -0.426898 4.438002
1.902731 -0.412722 4.703258
1.762953 -0.391729 4.804075
1.468580 -0.347403 5.373665
1.121225 -0.295277 5.485206
3.230256 -0.829037 -0.368205
3.137592 -0.808806 0.233393
3.104072 -0.801536 0.299108
2.824851 -0.741048 0.637567
2.642267 -0.701517 0.787694
2.338184 -0.635629 1.199071
2.069805 -0.577557 1.312043
1.831299 -0.525889 1.601973
1.506080 -0.455481 1.855147
1.604069 -0.476503 2.377655
1.876983 -0.535231 3.272768
2.113023 -0.586120 3.750848
2.172700 -0.598896 4.151854
2.147864 -0.593503 4.219797
1.937601 -0.547940 4.516205
1.845052 -0.527842 4.782739
1.547797 -0.463476 5.051840
1.159838 -0.379504 5.295360
0.608220 -0.260181 5.417601
3.072136 -1.076621 -0.430932
3.206406 -1.117790 -0.270704
2.970514 -1.045147 0.408969
2.992706 -1.051903 0.582853
2.814471 -0.997136 0.729869
2.460668 -0.888419 1.027837
2.225403 -0.816099 1.310365
1.876982 -0.709031 1.620742
1.559596 -0.611509 1.871622
1.502815 -0.594033 2.006566
1.645906 -0.637658 2.935621
2.150734 -0.792545 3.229657
2.178439 -0.800898 3.696785
2.123437 -0.783871 4.125817
2.074264 -0.768634 4.554335
1.872164 -0.706491 4.850814
1.737555 -0.665133 4.951747
1.379052 -0.555014 5.123453
0.349141 -0.238693 5.532791
3.069992 -1.392425 -0.225253
2.964164 -1.349030 0.201799
2.834349 -1.295810 0.692592
2.603644 -1.201430 0.968462
2.375312 -1.108019 1.248037
2.121871 -1.004404 1.358704
1.814149 -0.878478 1.842907
1.560026 -0.774662 1.721878
1.401463 -0.709642 2.363767
1.920400 -0.921564 2.836151
2.199398 -1.035389 3.419373
2.119120 -1.002414 3.913240
2.113514 -1.000021 4.211178
1.979798 -0.945240 4.604973
1.827129 -0.882790 4.770263
