0.107622 0.615065 2.634830
0.070200 0.247589 3.453134
0.103861 0.584246 4.242073
0.177440 1.315595 4.831895
0.202484 1.566837 5.611250
0.208300 1.627632 6.402307
0.234946 1.894723 7.174191
0.272369 2.268529 7.930906
0.280601 2.353223 8.714524
0.301623 2.565248 9.649176
0.331553 2.864799 10.402437
0.399679 3.541869 10.929924
0.817193 7.681295 11.658186
0.839198 7.902158 12.367929
0.852043 8.032331 13.092585
0.865644 8.169975 13.815846
0.883112 8.346544 14.689269
0.904922 8.564819 15.236546
0.930552 8.821537 15.931807
0.953343 9.049509 16.473323
0.938909 8.910959 17.583255
0.904658 8.574382 18.273898
0.894560 8.477536 19.070310
0.889659 8.432792 20.022143
0.871934 8.260525 20.855112
0.869771 8.241614 21.482910
0.963927 9.177101 22.141016
1.067992 10.209237 22.420621
1.138889 10.913806 22.959158
1.105863 10.590189 23.851576
1.055080 10.090947 24.821700
1.058094 10.124624 25.773459
1.022834 9.778359 26.541356
1.009573 9.651133 27.577401
0.976246 9.324089 28.360622
1.064011 10.202831 30.658069
0.466474 2.844285 -0.016063
0.452125 2.749622 0.929037
0.278537 1.575152 1.735826
0.149986 0.706017 2.557927
0.082064 0.248337 3.551041
0.144618 0.674072 4.168330
0.239959 1.322929 5.100659
0.275148 1.563153 5.712036
0.300428 1.737131 6.660098
0.354196 2.103703 7.419766
0.377556 2.263733 8.028825
0.404302 2.447171 8.800250
0.432198 2.638384 9.568683
0.504633 3.131402 10.293560
0.592526 3.729129 10.994608
1.199442 7.845198 11.712762
1.217237 7.967820 12.436965
1.236126 8.097859 13.159844
1.256108 8.235302 13.881324
1.262887 8.283292 14.621752
1.299342 8.532339 15.319770
1.336820 8.788304 16.014132
1.375313 9.051138 16.704767
1.377819 9.070638 17.614943
1.319845 8.680041 18.480081
1.271460 8.353980 19.177153
1.286498 8.457975 19.923098
1.260700 8.285391 20.754300
1.264250 8.311603 21.532322
1.366462 9.006025 22.098898
1.545721 10.222668 22.643504
1.628003 10.781593 23.065683
1.587892 10.512567 24.105639
1.520609 10.058653 24.895574
1.503665 9.946122 25.737237
1.483000 9.808885 26.768540
1.469373 9.718869 27.621254
1.407815 9.303857 28.444672
1.486871 9.841893 29.220869
1.672934 11.110311 31.815508
0.596305 2.819853 0.206363
0.539606 2.530357 0.990872
0.331588 1.463891 1.799135
0.183572 0.705916 2.788727
0.149824 0.533978 3.432349
0.233265 0.964098 4.216174
0.318219 1.401967 4.991235
0.385594 1.749566 5.764853
0.419011 1.923160 6.714140
0.448668 2.076744 7.329385
0.523828 2.464633 8.250819
0.559476 2.649308 9.023427
0.577501 2.743504 9.798761
0.668568 3.212298 10.355089
0.930707 4.559261 10.774686
1.640095 8.204238 11.860082
1.691209 8.467505 12.239487
1.683281 8.428692 13.141185
1.671881 8.371742 13.894509
1.674803 8.387976 14.478700
1.709813 8.569579 15.344295
1.789644 8.980550 15.839617
1.865078 9.369608 16.650525
1.853907 9.313518 17.254685
1.773643 8.903859 18.437048
1.736479 8.714740 19.253025
1.748073 8.775515 19.841423
1.714067 8.602631 20.665773
1.663638 8.345491 21.525334
1.779164 8.939965 22.118237
2.013871 10.146316 22.659621
2.149158 10.842133 23.192232
2.086985 10.524754 24.082344
2.034656 10.257557 24.799949
2.040670 10.290436 25.747575
2.002590 10.096744 26.624240
1.937518 9.764228 27.397028
1.862082 9.379298 28.551483
2.012146 10.150548 28.871522
2.249903 11.373740 29.971786
0.561322 2.109399 -0.163115
0.750517 2.887878 0.617312
0.539533 2.022573 1.410048
0.306901 1.068388 2.224068
0.196031 0.614645 3.208231
0.226017 0.738889 3.836524
0.356188 1.275185 4.774481
0.436382 1.605625 5.381300
0.500224 1.869471 6.322004
0.559739 2.114967 6.926506
0.577112 2.187666 7.711829
0.619927 2.364850 8.485309
0.711583 2.742613 9.231716
0.781521 3.031177 9.984042
0.946929 3.711792 10.674738
2.093596 8.422976 11.298949
2.144942 8.635078 11.999091
2.168283 8.731918 12.563652
2.159722 8.698287 13.465391
2.169880 8.741263 14.199482
2.235757 9.013298 15.041688
2.319099 9.356772 15.707764
2.349621 9.483098 16.266120
2.343891 9.460841 17.019809
2.294314 9.258568 17.825870
2.224120 8.971664 18.664142
2.189063 8.829313 19.633459
2.181767 8.800395 20.252294
2.186469 8.821023 21.023058
2.238349 9.035342 21.735411
2.471948 9.995673 22.197014
2.706055 10.958060 22.640469
2.672523 10.821720 23.461998
2.564825 10.381220 24.571468
2.558927 10.358359 25.372498
2.555256 10.344649 26.176639
2.487888 10.069485 27.095098
2.379550 9.626179 28.098349
2.564956 10.388312 28.421083
2.903245 11.781314 30.432502
2.641048 10.706301 31.609132
0.876136 2.850852 -0.091205
0.821348 2.663767 1.014794
0.490213 1.524552 1.820337
0.245127 0.681697 2.640780
0.197547 0.519008 3.449483
0.289185 0.835488 4.067299
0.440627 1.358138 4.834871
0.538556 1.696504 5.605969
0.583057 1.850886 6.386724
0.661826 2.123504 7.320554
0.706483 2.278177 7.929633
0.735118 2.378160 8.876712
0.816615 2.659915 9.633022
0.949368 3.117906 10.194219
2.438028 8.245479 10.786153
2.607248 8.829169 11.422923
2.640697 8.945388 12.134567
2.648780 8.974277 12.863203
2.604287 8.822159 13.631118
2.625464 8.896362 14.512752
2.685977 9.105542 15.052213
2.784260 9.444970 15.715409
2.857201 9.697149 16.396245
2.948893 10.013656 16.901859
3.116689 10.592592 17.645101
2.925888 9.936845 18.574095
2.643005 8.964376 19.778123
2.620364 8.887553 20.572990
2.546971 8.636036 21.430737
2.582749 8.760322 22.173904
3.030900 10.303821 22.265720
3.240373 11.025726 22.621663
3.083452 10.486949 23.752286
3.047638 10.364809 24.581862
3.040734 10.342186 25.381364
2.974336 10.115051 26.439551
2.947617 10.024253 27.285423
2.949549 10.032081 28.097738
3.185094 10.843931 28.559245
3.370188 11.482128 29.086729
3.378340 11.511364 29.891776
0.908288 2.523805 0.007930
1.102306 3.094609 0.782511
0.751041 2.063927 1.577339
0.339698 0.857037 2.568659
0.217930 0.500210 3.214864
0.293700 0.723738 4.006715
0.504039 1.342670 4.936510
0.617610 1.677194 5.707139
0.665074 1.817367 6.322004
0.751025 2.070768 7.090985
0.807412 2.237347 7.865291
0.840312 2.335157 8.812458
0.927825 2.592927 9.405135
1.119624 3.157135 10.117324
2.808192 8.117274 10.727104
2.964028 8.575595 11.230460
3.010404 8.712883 12.093320
3.042542 8.807974 12.655250
2.990415 8.655835 13.422680
3.077232 8.911869 14.264069
3.304203 9.579033 14.697976
3.270296 9.480591 15.614055
3.228938 9.360088 16.386764
3.139867 9.099700 17.361288
3.837364 11.149227 18.125676
3.588261 10.418799 19.083023
3.374219 9.791333 20.030001
3.117269 9.038126 21.200402
3.234904 9.384247 21.698690
3.583606 10.408924 22.121028
3.627529 10.538831 22.845640
3.568906 10.367907 23.848688
3.528018 10.248855 24.679016
3.502807 10.175627 25.332750
3.437657 9.985373 26.208190
3.395008 9.861398 27.237718
3.188637 9.256630 28.318458
3.224487 9.362902 29.101572
3.425898 9.958318 32.196996
1.023820 2.479196 0.002804
1.207407 2.947353 0.782763
0.810147 1.937239 1.748477
0.377160 0.835850 2.409278
0.206925 0.403632 3.400999
0.330235 0.718374 4.192655
0.492990 1.133504 4.971299
0.617772 1.451794 5.581989
0.717709 1.707211 6.527139
0.774165 1.851596 7.144898
0.874933 2.108936 7.915444
0.949061 2.298658 8.856795
1.056160 2.572103 9.617661
1.266732 3.108697 10.170041
3.255367 8.171170 10.753950
3.405297 8.553539 11.425263
3.449522 8.666895 12.140993
3.450459 8.669923 12.724192
3.391938 8.521814 13.495881
3.444061 8.655275 14.211857
3.749138 9.432437 14.778219
3.675812 9.246831 15.720853
3.594170 9.039904 16.522190
3.551420 8.931952 17.305440
4.322385 10.895390 18.250090
4.040867 10.179882 19.213572
3.885252 9.784930 20.256716
3.456769 8.695340 21.219666
3.607564 9.079886 21.868377
4.073130 10.265322 22.228141
4.088819 10.306090 22.984922
4.004177 10.091590 23.843273
3.992144 10.061840 24.640161
3.915083 9.866649 25.510887
3.773829 9.508150 26.461156
3.794619 9.562125 27.420657
3.662798 9.227659 28.389104
3.659814 9.221174 29.398152
3.768677 9.501663 32.477444
3.334205 8.397361 33.926761
1.259534 2.703113 0.146245
1.138561 2.433367 0.929476
0.571983 1.167190 1.742186
0.294663 0.547857 2.561746
0.143312 0.210216 3.383007
0.203017 0.344687 4.355082
0.503305 1.016775 4.948839
0.652401 1.351114 5.892512
0.753998 1.578908 6.504397
0.863832 1.825282 7.278091
0.936263 1.988020 8.057294
1.052515 2.248736 8.822098
1.180353 2.535518 9.745652
1.415780 3.062522 10.295779
3.586391 7.916860 10.732608
3.803991 8.404250 11.537618
3.843110 8.492283 12.102433
3.786248 8.366035 13.020399
3.722212 8.223600 13.793561
3.848877 8.507366 14.319357
4.109971 9.091822 14.925867
4.068650 9.000329 15.847575
4.097080 9.064626 16.578459
4.183601 9.258945 17.432810
4.463713 9.885584 17.690117
4.752750 10.532627 18.400193
4.422159 9.794169 19.219245
4.227163 9.359325 20.439477
3.847010 8.510276 21.499829
3.977999 8.803542 21.853453
4.498992 9.969261 22.541562
4.459233 9.880993 23.189529
4.348896 9.635286 24.233333
4.315507 9.561269 24.888990
4.291968 9.509605 25.877414
4.212545 9.332873 26.760504
4.075389 9.026932 27.539763
4.155301 9.206366 28.283402
1.292301 2.464176 0.333202
0.891209 1.668314 1.293651
0.403817 0.700901 2.114066
0.192860 0.282747 3.104582
0.073716 0.046819 3.927264
0.272628 0.442635 4.710310
0.514808 0.924235 5.310029
0.675090 1.243307 6.083185
0.794060 1.480322 6.858307
0.916554 1.724331 7.628572
0.961293 1.814053 8.581105
1.127330 2.144390 9.166121
1.359054 2.605484 10.060030
1.530167 2.945892 10.631573
4.099314 8.049513 10.978823
4.207076 8.264328 11.825386
4.098344 8.049180 12.757914
4.057394 7.968376 13.359066
4.151086 8.154972 13.903552
4.143059 8.139837 14.807020
4.037440 7.930754 15.606864
4.329971 8.512368 16.206874
4.406398 8.664816 16.914690
5.351000 10.542003 17.857994
5.200429 10.243514 18.532030
5.090486 10.025996 19.503668
4.751713 9.353940 20.483012
4.719312 9.290284 21.270590
4.904888 9.659479 21.907299
4.944752 9.739475 22.811421
4.774260 9.401479 23.556265
4.715646 9.285795 24.388778
4.703721 9.262826 25.191663
4.654034 9.164883 26.033480
4.567120 8.993028 26.917016
4.470758 8.802582 27.993478
4.449797 8.761547 28.665560
4.934155 9.725644 30.873543
4.825341 9.510518 32.011930
4.368874 8.605011 33.364376
1.159965 1.966599 -0.259383
1.405435 2.403602 0.689043
0.967457 1.625792 1.321498
0.436076 0.682150 2.141653
0.154125 0.181772 2.966165
0.072475 0.037343 3.784032
0.288826 0.422467 4.571191
0.612533 0.998492 5.503349
0.739563 1.224878 6.285832
0.870496 1.458198 7.063495
0.948165 1.596725 7.675995
0.988263 1.668630 8.462768
1.236875 2.111178 9.365442
1.469476 2.524997 9.929725
1.860928 3.221203 10.607328
4.480193 7.876344 11.155981
4.634488 8.151098 11.834255
4.550761 8.002932 12.596575
4.423023 7.776576 13.382566
4.621376 8.129482 13.886416
4.628152 8.142386 14.935777
4.257782 7.484823 15.692658
4.559960 8.022194 16.144600
4.946555 8.709798 16.860263
5.833742 10.287248 17.872630
5.689217 10.031085 18.690406
5.528922 9.746783 19.370744
5.180039 9.127707 20.494497
5.144624 9.065416 21.280938
5.300259 9.342542 21.947361
5.342131 9.417430 22.527042
5.204230 9.173217 23.563151
5.166180 9.106401 24.541656
5.153889 9.085218 25.343449
5.072689 8.941486 26.036936
4.977734 8.773468 26.919327
4.797348 8.453697 27.883924
4.879977 8.601299 28.813965
5.432185 9.582910 29.157921
5.670738 10.007343 29.767146
1.565855 2.420804 0.491427
1.040242 1.579547 1.285880
0.466191 0.660725 2.103557
0.161482 0.173306 2.925798
0.077289 0.039206 3.911350
0.306449 0.406714 4.527012
0.655710 0.966824 5.457586
0.785675 1.175453 6.071455
0.925857 1.400569 6.847917
1.070201 1.632349 7.619513
1.113371 1.702092 8.407893
1.329125 2.048357 9.324297
1.685391 2.619391 9.865540
2.014807 3.147665 10.728028
4.830675 7.658065 11.111992
4.944621 7.841096 11.804337
4.958010 7.863091 12.529020
4.856331 7.700701 13.142031
4.929148 7.817869 13.850546
5.022550 7.968119 14.706998
4.845466 7.685108 15.521425
5.104548 8.100673 16.310510
5.329589 8.461483 16.793743
6.286401 9.994753 17.802254
6.129477 9.744032 18.616887
6.079507 9.664578 19.383808
5.729862 9.105278 20.327596
5.690194 9.042337 21.108118
5.705683 9.067718 21.861517
5.826078 9.261078 22.552972
5.800094 9.220058 23.340302
5.629348 8.947256 24.232186
5.563963 8.843164 25.063765
5.484265 8.716289 26.083595
5.430723 8.631173 26.926407
5.186409 8.240620 27.925162
5.193424 8.252478 28.742567
5.878285 9.352143 32.346037
1.676903 2.344208 0.228095
1.338402 1.855132 1.012387
0.608786 0.800457 1.992273
0.224075 0.244565 2.813137
0.071625 0.024630 3.630178
0.321556 0.386702 4.414251
0.689445 0.919383 5.176430
0.884372 1.201767 5.781847
1.033152 1.417522 6.556300
1.186385 1.639714 7.325931
1.240880 1.719213 8.276948
1.506043 2.103169 8.850415
1.898072 2.670727 9.554917
2.181083 3.080604 10.273222
5.104598 7.309809 10.875110
5.338155 7.648113 11.539907
5.351320 7.667671 12.267165
5.241209 7.508834 12.882205
5.296239 7.589163 13.912546
5.678010 8.141590 14.202266
6.058946 8.693128 14.946009
5.907268 8.474184 15.585261
6.020344 8.638345 16.431430
6.152504 8.829883 16.957571
6.308577 9.056111 17.626873
6.600693 9.479185 18.384366
6.546105 9.400769 19.153394
6.248784 8.971456 20.215172
6.234695 8.951505 20.821283
6.250185 8.974445 21.575238
6.216502 8.926280 22.362343
6.324148 9.082605 23.233804
6.247949 8.972970 24.059631
6.093430 8.749972 24.778750
6.112626 8.778410 25.726873
6.020934 8.646272 26.421186
5.789548 8.312389 27.564283
5.585656 8.018152 28.534433
6.120819 8.792552 28.962500
6.724837 9.666379 29.149170
6.742183 9.692041 29.956119
6.699994 9.631751 30.994114
1.958478 2.510028 0.601974
1.298213 1.638474 1.229844
0.522842 0.615035 2.048382
0.239194 0.241097 3.034533
0.254978 0.262365 3.669503
0.646861 0.780527 4.607318
0.851116 1.050680 5.216756
1.005649 1.255281 5.994832
1.164944 1.466168 6.768141
1.218643 1.537723 7.721746
1.437628 1.827315 8.310913
1.790864 2.294296 9.035041
2.148233 2.766728 9.747912
2.629209 3.402372 10.421727
5.718843 7.482952 10.851154
5.981721 7.830658 11.659538
5.877717 7.693813 12.417694
5.719507 7.485395 13.199419
5.685040 7.440376 13.948317
5.931863 7.766673 14.447231
6.102251 7.992250 15.278665
6.140282 8.042958 16.003539
6.395926 8.380894 16.486528
7.143957 9.369057 16.912590
6.746391 8.845220 18.717455
6.690712 8.772205 19.491750
6.466971 8.477300 20.356425
6.480269 8.495365 21.111554
6.527363 8.558163 22.014867
6.693930 8.778481 22.531449
6.809561 8.931769 23.401150
6.698376 8.785387 24.080645
6.567110 8.612609 24.945559
6.532611 8.567704 25.928298
6.471511 8.487574 26.769780
6.212708 8.146330 27.582082
6.256655 8.205011 28.544715
7.083604 9.298366 30.422965
7.343823 9.642325 30.878742
7.483737 9.827583 31.601862
2.006706 2.339446 0.204854
1.371359 1.576437 1.159439
0.616020 0.669229 2.144276
0.308519 0.300059 2.793822
0.333661 0.330890 3.767848
0.679634 0.747196 4.543773
0.895820 1.007412 5.155448
0.995492 1.127701 5.943284
1.227789 1.407378 6.711135
1.348027 1.552485 7.656856
1.579866 1.831499 8.247400
2.144451 2.510497 8.937591
2.572951 3.025842 9.474635
3.031782 3.577834 10.320726
6.130203 7.302159 10.945767
6.314581 7.524091 11.473978
6.220251 7.411289 12.382239
6.178272 7.361305 13.128140
6.204217 7.392947 13.856981
6.297715 7.505766 14.565617
6.458351 7.699264 15.250919
6.623389 7.898049 15.932555
6.917056 8.251397 16.562860
7.338350 8.758104 17.135716
7.367197 8.793133 17.706692
6.956359 8.300030 18.777400
6.528681 7.786605 19.719186
6.476482 7.724362 20.503979
6.459653 7.704726 21.440559
6.450294 7.693864 22.053975
7.143247 8.526970 22.467800
7.534746 8.997856 23.025231
7.206287 8.603687 23.976792
7.040538 8.405133 25.018080
6.992224 8.347475 25.669342
6.902353 8.240103 26.689443
6.686336 7.980962 27.460845
6.573863 7.846342 28.348829
6.920321 8.263225 29.113545
7.688576 9.187794 31.051122
2.112136 2.245359 0.396727
1.375057 1.438340 1.189270
0.579163 0.567005 2.175150
0.322596 0.286314 2.821545
0.416682 0.389967 3.790154
0.707822 0.709284 4.402260
1.016981 1.048539 5.341023
1.123314 1.165498 6.126776
1.359600 1.424714 6.726431
1.754795 1.858202 7.630501
2.133036 2.272913 8.194729
2.660751 2.851455 8.888568
2.911428 3.126419 9.457661
3.194537 3.437100 10.340686
6.327303 6.869526 10.994584
6.538708 7.101531 11.672640
6.555545 7.120410 12.398514
6.577591 7.144996 13.125108
6.538766 7.102909 13.872099
6.329091 6.873778 14.833576
6.323745 6.868181 15.267839
6.783757 7.372582 16.014218
7.135156 7.757827 16.476198
6.950540 7.556153 17.445497
6.787077 7.377467 18.102284
6.812931 7.406332 19.007477
6.494145 7.057629 19.905789
6.699564 7.283077 20.585321
6.490484 7.054641 21.618443
6.481894 7.045600 22.236910
7.533436 8.197750 22.497382
7.976712 8.683600 22.878768
7.762976 8.450167 24.086050
7.390348 8.042432 24.905129
7.376472 8.027707 25.703595
7.282429 7.925290 26.724910
7.055344 7.676974 27.497642
6.730484 7.321792 28.689418
8.393908 9.145936 31.729129
2.142459 2.074391 0.102203
1.932737 1.865368 0.884618
1.023872 0.958152 1.856083
0.473538 0.408947 2.673676
0.494941 0.430779 3.472822
0.804803 0.740710 4.250117
0.971541 0.907597 4.864515
1.088146 1.024602 5.815699
1.404737 1.341148 6.406139
1.664767 1.601295 7.163606
2.000494 1.937038 7.903827
2.609602 2.545709 8.427681
3.038176 2.974261 9.295164
3.388400 3.324465 10.002852
6.517258 6.449859 10.550230
6.665861 6.598679 11.244518
6.628646 6.562015 12.136319
6.788576 6.722146 12.826633
6.883986 6.817843 13.532854
6.845994 6.780320 14.278270
6.952027 6.886627 14.983568
7.063217 6.998084 15.687274
7.223435 7.158410 16.218283
7.232392 7.167866 17.113961
7.126540 7.062499 17.741519
7.081486 7.018028 18.669139
6.841308 6.778717 19.683770
6.887916 6.825602 20.268667
6.767197 6.705496 21.090331
6.855667 6.794278 21.826707
7.420191 7.358415 22.343608
8.153218 8.090707 22.604689
8.386921 8.324499 23.257335
8.063398 8.001992 24.356445
7.950637 7.889941 25.364350
7.742104 7.682176 26.270528
7.434494 7.375395 27.075801
7.284534 7.226225 28.147312
7.622069 7.563705 28.766335
8.567124 8.507658 28.833066
7.841770 7.785444 32.812176
7.629423 7.574033 34.006773
2.235928 1.973348 0.199863
1.869698 1.640302 0.988819
0.844348 0.707101 1.807935
0.494926 0.389468 2.795477
0.513088 0.406354 3.434650
0.836770 0.701512 4.215433
1.092462 0.934760 4.993841
1.206485 1.039014 5.780305
1.473840 1.282875 6.547211
1.894086 1.665940 7.288270
2.393154 2.120765 8.007709
2.897217 2.580132 8.713900
3.259412 2.910324 9.431918
3.683986 3.297218 9.967985
6.841875 6.173157 10.848189
7.072708 6.383717 11.528010
7.017272 6.333643 12.272454
7.040499 6.355190 13.001167
7.047671 6.362037 13.581365
6.887089 6.216329 14.522107
7.072476 6.385512 15.212445
7.381837 6.667473 15.705801
7.575982 6.844626 16.387309
7.587560 6.855658 17.285835
7.407173 6.691761 17.942049
7.291434 6.586895 18.900539
7.153927 6.462131 19.716921
6.810984 6.150354 20.624979
6.264688 5.653466 21.633543
8.360041 7.561773 22.282300
8.775933 7.940696 22.698795
8.710764 7.881880 23.661351
8.408213 7.606893 24.588701
8.322092 7.528927 25.420599
8.148108 7.371079 26.476452
7.872741 7.120859 27.431022
7.629567 6.899858 28.210113
9.154681 8.289517 29.944260
2.170908 1.740412 -0.073844
2.479361 1.996587 0.542771
1.258950 0.984889 1.679918
0.428207 0.296248 2.508867
0.604218 0.442661 3.306782
0.856919 0.652593 3.927460
1.051961 0.814874 4.882782
1.323479 1.040495 5.658619
1.590607 1.262386 6.262150
1.949236 1.560250 7.012710
2.466686 1.989835 7.733975
3.065851 2.487188 8.430856
3.517110 2.861862 9.136808
3.820889 3.114215 9.857953
4.646169 3.798997 10.315251
7.233026 5.945145 11.140591
7.323743 6.020764 11.851208
7.516807 6.181344 12.691343
7.468805 6.141918 13.436370
7.351681 6.045169 14.204218
7.466868 6.141083 14.913058
7.737815 6.366172 15.575888
7.938810 6.533247 16.256223
7.846317 6.456932 17.029715
7.731059 6.361659 17.659400
7.576540 6.233913 18.467033
7.494107 6.166118 19.578371
7.249300 5.963425 20.277817
7.746451 6.376013 20.693573
7.838689 6.453076 21.752469
7.794916 6.417184 22.548556
8.739732 7.200984 22.749404
9.102138 7.501821 23.195394
8.822604 7.270515 24.262760
8.657709 7.134192 25.126809
8.401232 6.922022 26.216297
8.326592 6.860553 27.059347
8.213395 6.767026 27.760572
7.917918 6.522542 28.916457
8.573660 7.066699 29.376016
8.019981 6.609840 33.963213
2.170032 1.576864 -0.079226
2.570795 1.879203 0.701281
1.303549 0.924915 1.676018
0.437534 0.272768 2.336785
0.624163 0.413867 3.304153
0.893149 0.616927 4.093051
1.168553 0.824818 4.875268
1.370631 0.977465 5.657970
1.647877 1.186655 6.262150
2.020319 1.467643 7.016564
2.557622 1.872829 7.741615
3.338516 2.461519 8.419822
3.712242 2.743376 8.979765
3.946727 2.920413 9.710587
4.837521 3.591951 10.480618
6.407000 4.774592 10.779788
7.364962 5.496623 11.324587
7.597092 5.671782 11.850625
7.618123 5.687993 12.574994
7.668349 5.726275 13.449129
7.702921 5.752688 14.174728
7.718061 5.764386 14.751989
8.075384 6.033926 15.390781
8.204199 6.131332 16.090836
8.135426 6.079979 17.008938
8.076582 6.036109 17.931681
7.885941 5.892806 18.588825
7.810574 5.836418 19.372737
7.665733 5.727702 20.188749
8.264399 6.179801 22.266119
9.206378 6.889706 22.642029
9.581012 7.172188 23.083965
9.363990 7.009196 24.111806
9.084590 6.799229 25.185268
8.921950 6.677129 26.052813
8.842146 6.617424 26.890039
8.622820 6.452641 27.808363
8.289709 6.202078 28.627031
8.601058 6.436989 29.283719
2.239669 1.478196 -0.325316
2.653207 1.762081 0.777671
1.424793 0.920793 1.580483
0.533447 0.310465 2.402400
0.633287 0.379180 3.030677
0.908617 0.568212 3.815529
1.198673 0.767413 4.760592
1.396571 0.903307 5.372206
1.773629 1.162028 6.130120
2.156859 1.424973 6.879123
2.628234 1.748305 7.609169
3.515354 2.356463 8.273074
3.997638 2.687256 8.975676
4.158210 2.797638 9.719290
4.896731 3.303970 10.361193
7.649805 5.190640 11.034824
7.827176 5.312508 11.727609
7.870226 5.342432 12.601797
7.898626 5.362245 13.327436
8.070207 5.480071 13.865111
8.297142 5.635967 14.696464
8.424396 5.723500 15.397654
8.477344 5.760132 16.120232
8.456576 5.746267 16.867142
8.251441 5.606031 17.518233
8.116836 5.514269 18.471673
8.072574 5.484397 19.404670
7.966629 5.412118 20.044261
8.660247 5.888367 22.090679
9.475954 6.447485 22.531117
9.862462 6.712528 22.974397
9.680171 6.588199 24.146774
9.379804 6.382760 24.895596
9.285993 6.318889 25.726095
9.047107 6.155654 26.635235
8.817902 5.999056 27.553080
8.497664 5.780198 28.704530
2.641493 1.589219 0.411388
1.715579 1.013533 1.367774
0.707726 0.386715 2.018166
0.727786 0.399576 2.816786
1.009327 0.575134 3.601510
1.212851 0.702146 4.385219
1.432619 0.839343 5.330634
1.894151 1.126804 5.915851
2.383607 1.431792 6.820277
2.854695 1.725190 7.385953
3.667094 2.230940 7.900932
4.176294 2.548194 8.764626
4.406767 2.691875 9.336324
4.827501 2.954003 10.034972
7.634905 4.701430 11.194723
7.881122 4.854887 11.724808
7.963573 4.906458 12.285854
8.157045 5.027171 12.976836
8.439696 5.203365 13.644882
8.587915 5.295995 14.495256
8.634257 5.325174 15.217600
8.769818 5.409858 15.917581
8.777321 5.414950 16.810867
8.648034 5.334799 17.436273
8.639001 5.329535 18.187515
8.555217 5.277771 18.967595
8.515481 5.253488 19.899769
8.410433 5.188426 20.539545
8.511687 5.251778 21.271706
9.145267 5.646191 21.642003
9.459018 5.841803 22.449594
9.738307 6.015899 23.106420
10.023060 6.193393 23.758830
9.880790 6.105342 24.759282
9.703709 5.995564 25.622642
9.487125 5.861141 26.347411
9.298576 5.744321 27.407764
9.019305 5.570916 28.184454
9.656538 5.968135 29.675315
10.284344 6.359322 30.817082
2.885855 1.564065 0.340672
2.191650 1.175360 0.961190
1.330491 0.693188 1.765286
1.179232 0.608877 2.731437
1.293488 0.673264 3.521473
1.581298 0.834818 4.132097
1.708129 0.906248 4.915415
2.179631 1.170721 5.502287
2.765232 1.499272 6.398839
3.273188 1.784312 7.289003
4.092954 2.243823 7.643014
4.700254 2.584511 8.493249
4.692794 2.580684 9.258020
5.038129 2.774519 9.969736
5.801293 3.202371 10.445991
7.018670 3.884766 10.985232
7.980818 4.424156 11.545822
8.431017 4.676718 12.189212
8.433457 4.678352 12.766480
8.636666 4.792536 13.454845
8.872716 4.925189 14.287540
8.890686 4.935524 14.863636
8.971756 4.981354 15.735538
9.201008 5.110126 16.413062
9.181668 5.099633 17.156930
9.085127 5.045893 17.928502
8.996246 4.996447 18.704166
9.082843 5.045306 19.428806
9.054576 5.029746 20.034605
9.109648 5.061022 20.936758
9.675219 5.378118 21.334346
9.993975 5.557101 22.137062
10.030275 5.577787 22.887060
10.529638 5.857937 23.615169
10.206879 5.677425 24.357016
9.904951 5.508738 25.432191
9.842815 5.474221 26.082461
9.807012 5.454612 27.063749
9.597252 5.337413 27.797089
9.342363 5.195101 28.907539
9.604758 5.342452 29.600006
2.776091 1.339365 -0.037379
2.867498 1.385523 0.736930
1.804041 0.852925 1.533337
1.373830 0.637683 2.334155
1.397881 0.650093 3.125414
1.526084 0.714772 4.077624
1.824934 0.864814 4.682853
2.316625 1.111566 5.433552
2.803276 1.355713 6.010238
3.319601 1.614873 6.902154
4.097413 2.004988 7.589506
4.703077 2.308831 8.281895
4.870795 2.393217 9.022035
5.026622 2.471572 9.601493
5.471889 2.695031 10.293865
6.453315 3.187145 10.886573
7.703461 3.813897 11.409383
8.163610 4.044795 12.058343
8.516773 4.222013 12.566836
8.723044 4.325698 13.255798
8.787447 4.358367 14.129753
8.920395 4.425312 14.834421
9.117182 4.524173 15.367652
9.292809 4.612571 16.215745
9.445056 4.689186 16.914439
9.483251 4.708587 17.489764
9.388296 4.661348 18.264170
9.424317 4.679805 19.162636
9.517329 4.726744 19.884977
9.189695 4.562939 20.753125
9.341736 4.639383 21.302783
10.007856 4.973521 21.988609
10.466688 5.203733 22.579460
10.761315 5.351679 23.228273
10.641327 5.291914 24.043081
10.411179 5.177040 25.077806
10.177603 5.060306 25.796263
10.085270 5.014408 26.629243
10.055466 4.999915 27.612548
9.818405 4.881525 28.533450
10.355075 5.150653 28.917782
11.440203 5.694594 29.192862
11.401979 5.676258 31.013757
2.834465 1.211790 0.390990
1.838093 0.768459 1.347078
1.031456 0.409566 2.157333
1.048939 0.417629 2.785355
1.084860 0.434051 3.747961
1.305250 0.532551 4.531210
1.715204 0.715469 5.296257
2.393726 1.017912 5.864768
2.894004 1.240973 6.438326
3.593963 1.553025 7.146214
4.224620 1.834280 8.009276
4.574949 1.990625 8.732984
4.750554 2.069161 9.475122
5.204488 2.271636 10.172823
5.914352 2.588002 10.660978
7.122535 3.126400 11.366031
7.996257 3.515648 11.638511
8.312927 3.657050 12.469659
8.612593 3.790809 13.144572
8.828708 3.887364 13.833722
8.872403 3.907145 14.560808
9.012349 3.969783 15.266637
9.216553 4.060964 15.800194
9.489728 4.182992 16.625836
9.560680 4.214911 17.349304
9.638716 4.249985 18.072931
9.673224 4.265749 18.970283
9.640552 4.251465 19.575837
9.652937 4.257313 20.330176
9.673016 4.266589 21.086314
9.961628 4.395421 21.751969
10.082952 4.449775 22.476756
10.642395 4.699179 23.035374
10.861738 4.797169 23.718404
10.450971 4.614712 24.821059
10.380635 4.583672 25.468484
10.367860 4.578333 26.264040
10.278961 4.539109 27.100103
9.862103 4.353892 28.094875
10.465039 4.622656 28.628714
11.656518 5.153410 28.869254
10.438572 4.612334 31.953376
2.793817 1.042983 0.136032
2.425144 0.899127 0.919005
1.229563 0.431933 1.896208
0.780057 0.256402 2.540976
0.993375 0.340177 3.333679
1.121166 0.390501 4.125138
1.628336 0.589196 4.889086
2.317297 0.858910 5.463086
2.929533 1.098685 6.196277
3.469550 1.310282 7.087385
4.096232 1.555695 7.793960
4.729076 1.803513 8.487330
5.090670 1.945250 9.204778
5.069838 1.937364 9.810929
5.627860 2.155912 10.490417
6.766285 2.601488 11.220773
7.771898 2.994983 11.635494
8.253393 3.183587 12.286789
8.439859 3.256754 12.833596
8.566016 3.306405 13.546820
8.636743 3.334449 14.428548
9.051205 3.496833 15.075208
9.289740 3.590424 15.759059
9.411072 3.638120 16.314796
9.785876 3.785060 17.115584
9.899389 3.829833 17.985840
9.588615 3.708579 18.668450
9.502408 3.675200 19.450941
9.603141 3.714914 20.180424
9.753566 3.774127 21.056881
9.826575 3.802934 21.638793
9.949290 3.851245 22.367513
10.431779 4.040215 22.966175
10.703650 4.146911 23.801580
10.361495 4.013411 24.550784
10.390731 4.025253 25.493629
10.325929 4.000191 26.148256
10.234033 3.964611 26.986532
10.237728 3.966404 27.791388
10.907567 4.228685 28.469245
11.636733 4.514005 28.767317
11.715205 4.545815 31.353434
2.744211 0.881799 0.309907
2.181698 0.691372 1.100001
0.964390 0.278899 1.918894
0.891385 0.254484 2.724096
0.920987 0.264864 3.526672
1.147638 0.342064 4.317940
1.665483 0.518005 5.085056
2.473832 0.792449 5.818575
3.005686 0.973130 6.560600
3.638194 1.187935 7.276854
4.182938 1.372975 7.990614
4.545999 1.496407 8.716591
5.009743 1.653975 9.422758
5.271725 1.743061 9.989404
5.581596 1.848520 10.866418
6.696116 2.226660 11.283820
7.719048 2.573739 11.699076
8.141379 2.717312 12.520214
8.359565 2.791602 13.219038
8.613050 2.877925 14.064551
8.908530 2.978352 14.585618
9.146352 3.059295 15.272889
9.358138 3.131345 15.808163
9.365472 3.134215 16.707506
9.623411 3.221977 17.386636
9.887755 3.311910 18.061903
9.923415 3.324386 18.960486
9.798467 3.282282 19.594512
9.853436 3.301308 20.498135
10.013402 3.355791 21.049599
9.906660 3.320003 22.015984
9.988550 3.348022 22.598598
10.481056 3.515298 23.197359
10.492727 3.519655 24.135316
10.554157 3.540811 24.896006
10.623741 3.564733 25.657921
10.382852 3.483350 26.385215
10.261171 3.442521 27.411223
9.920914 3.327541 28.375253
10.751213 3.609234 28.650002
8.631286 2.893088 35.180303
2.877944 0.781856 0.245821
2.212615 0.590373 1.202431
0.974879 0.233677 1.857308
0.804236 0.184802 2.667721
0.936982 0.223493 3.636802
1.159305 0.287874 4.262389
1.684305 0.439610 5.031849
2.408288 0.648722 5.775372
3.043406 0.832203 6.512202
3.574952 0.985743 7.083593
4.047291 1.122343 7.978013
4.607198 1.284122 8.689804
4.982997 1.392809 9.415641
5.153398 1.442196 9.995432
5.635497 1.581527 10.687210
6.598442 1.859499 11.291964
7.685428 2.173294 12.013081
7.970088 2.255616 12.548152
8.285965 2.347003 13.230336
8.796665 2.494559 13.867820
8.873273 2.517022 14.748681
9.052361 2.568835 15.137742
9.486015 2.694172 15.778021
9.738509 2.767277 16.457460
10.033310 2.852644 17.280334
10.021561 2.849569 18.028560
9.925160 2.822092 18.805524
9.970526 2.835554 19.706163
9.942161 2.827628 20.314009
10.054541 2.860344 21.041366
9.991503 2.842494 21.829705
10.119556 2.879730 22.558418
10.436851 2.971518 23.221521
10.488849 2.986833 23.980880
10.368718 2.952534 24.810654
10.311882 2.936554 25.792133
10.481075 2.985656 26.522245
10.479837 2.985636 27.326723
9.985542 2.843436 28.179790
10.857847 3.095268 28.785916
2.521921 0.555121 0.002650
2.816406 0.625833 0.782876
1.368360 0.280051 1.591454
0.706678 0.122231 2.407336
0.928172 0.175502 3.201485
1.068846 0.209525 4.163734
1.297792 0.264504 4.782311
2.233641 0.488566 5.678890
3.055990 0.685357 6.234500
3.412242 0.770819 6.983759
3.872508 0.881137 7.715839
4.436361 1.016206 8.427565
4.794753 1.102104 8.993489
4.984686 1.147811 9.738476
5.470858 1.264308 10.437951
6.275311 1.456922 11.238466
7.326236 1.708294 11.663066
8.117172 1.897599 12.272841
8.366620 1.957577 13.127604
8.663558 2.028771 13.657286
8.899146 2.085370 14.352901
9.141540 2.143595 15.044947
9.295881 2.180780 15.755659
9.646558 2.264875 16.418046
9.967618 2.341826 16.927100
9.990051 2.347561 17.826696
9.945791 2.337233 18.433287
9.987704 2.347625 19.337053
9.948129 2.338553 20.271164
10.018165 2.355535 20.855103
10.184175 2.395579 21.733594
10.266489 2.415496 22.317470
10.445833 2.458592 22.869320
10.545614 2.482818 23.778145
10.657326 2.509896 24.687973
10.636157 2.505168 25.488264
10.568795 2.489339 26.145485
10.531188 2.480760 27.135376
10.299396 2.425662 27.875468
10.762364 2.536579 28.494934
10.483535 2.471093 31.297015
11.240908 2.652321 31.777134
9.027029 2.124334 34.631364
3.132928 0.559052 0.326965
2.157262 0.370607 1.117426
0.801368 0.108678 2.106184
0.623683 0.074563 2.746757
0.752662 0.099845 3.546041
1.183846 0.183589 4.326436
1.818677 0.306726 5.085027
2.558691 0.450204 5.823066
3.207813 0.576094 6.554553
3.653186 0.662500 7.130368
4.233637 0.775165 8.010046
4.805641 0.886124 8.716727
5.169667 0.956786 9.279188
5.364331 0.994753 10.020826
5.760681 1.071729 10.730177
6.769847 1.267292 11.493483
7.832133 1.472992 11.910615
8.219649 1.548181 12.432831
8.542076 1.610845 13.118585
9.026545 1.704972 14.079228
9.045453 1.708871 14.664413
9.101689 1.720052 15.399378
9.418481 1.781557 15.917507
9.809567 1.857556 16.727786
10.077779 1.909728 17.408040
10.219430 1.937361 17.963009
10.215802 1.936969 18.716763
10.167705 1.928045 19.647466
10.182522 1.931223 20.406091
10.157244 1.926716 21.343684
10.097181 1.915288 21.811938
10.322152 1.959102 22.513637
10.511115 1.996023 23.392069
10.382458 1.971472 24.224155
10.501292 1.994839 25.138735
10.668551 2.027500 25.871840
10.752377 2.044034 26.640940
10.481223 1.991950 27.562245
10.251814 1.947870 28.306293
11.174404 2.126543 28.729371
3.155381 0.414833 0.365162
2.172518 0.271388 1.157421
0.806590 0.071991 2.148221
0.633858 0.047055 2.958746
0.758424 0.065533 3.590734
1.391105 0.158391 4.361104
2.327521 0.295665 5.098787
2.876196 0.376226 5.847686
3.249157 0.431154 6.765662
3.699757 0.497300 7.341453
4.368443 0.595399 8.049474
4.926975 0.677321 8.596926
5.214607 0.719693 9.331174
5.433153 0.752027 10.231874
5.932691 0.825379 10.926405
6.609544 0.924587 11.424399
7.705492 1.085130 11.998845
8.318633 1.175077 12.640129
8.645840 1.223218 13.326079
9.076699 1.286510 13.986716
9.126587 1.294107 14.722934
9.280847 1.316962 15.437781
9.635138 1.369058 16.105288
9.935861 1.413385 16.938908
10.171105 1.448012 17.472578
10.448182 1.488815 18.146385
10.350637 1.474863 18.923713
10.209372 1.454589 19.880333
10.138262 1.444376 20.342655
10.205628 1.454599 21.249263
10.237590 1.459584 22.010035
10.327046 1.473039 22.919607
10.233398 1.459605 23.569059
10.343559 1.476090 24.482474
10.542987 1.505486 25.033341
10.765077 1.538329 25.910675
10.791952 1.542513 26.531379
10.516281 1.502563 27.449938
10.617504 1.517684 28.222663
11.545349 1.653573 28.640165
9.691598 1.384640 34.099359
2.773676 0.228180 -0.242805
3.471578 0.297723 0.693868
2.188006 0.170840 1.488327
1.012479 0.054673 2.306731
0.833939 0.037237 2.942860
1.165360 0.070399 3.727040
1.902084 0.143715 4.481687
2.855891 0.238600 5.371517
3.397180 0.292476 5.946053
3.857721 0.338414 6.682138
4.210745 0.373633 7.258453
4.684056 0.420831 7.978613
4.966650 0.449134 8.713105
5.276960 0.480246 9.600932
5.575666 0.510141 10.324619
5.956398 0.548094 10.871262
6.685580 0.620683 11.676168
7.592985 0.710852 12.276618
8.183855 0.769605 12.761693
8.708826 0.821893 13.407394
8.947056 0.845783 14.103207
9.126990 0.863965 14.966340
9.250138 0.876396 15.528002
9.315821 0.883202 16.260886
9.739518 0.925389 16.749776
10.203903 0.971666 17.380376
10.520754 1.003399 18.201462
10.423300 0.994056 18.978870
10.430267 0.995051 19.732301
10.306213 0.983015 20.369263
10.423073 0.994890 21.095949
10.311061 0.984180 22.061831
10.212660 0.974822 23.033799
9.794555 0.933763 23.963104
9.896662 0.944120 24.551080
10.711318 1.025053 25.043215
10.878329 1.041899 25.771507
11.053196 1.059524 26.498988
10.775066 1.032330 27.414080
10.936915 1.048740 28.329127
11.624939 1.117066 28.675714
11.985826 1.153165 29.502253
11.773752 1.132449 30.245733
3.080352 0.115732 -0.122159
3.780894 0.152936 0.651133
1.416709 0.029144 2.415255
1.344676 0.025671 3.208950
1.771321 0.048383 3.813008
2.511290 0.087651 4.557765
3.247358 0.126643 5.124804
3.614355 0.146337 6.034250
3.863892 0.159715 6.621587
4.348346 0.185584 7.507021
4.626963 0.200554 8.244036
4.893807 0.214837 8.816874
5.206170 0.231644 9.703073
5.605479 0.252958 10.410852
6.011614 0.274629 11.111396
6.497770 0.300441 11.632808
7.139082 0.334539 12.439047
7.999941 0.379987 12.718816
8.751083 0.419850 13.478088
9.118974 0.439555 14.301345
9.236630 0.445977 14.861002
9.328788 0.451185 15.740698
9.360968 0.453114 16.321612
9.628667 0.467487 17.004342
9.844936 0.479220 17.856735
10.144765 0.495152 18.210602
10.472213 0.512727 19.029420
9.947284 0.485513 20.096834
9.920922 0.484371 20.707539
10.517958 0.516047 21.288317
10.360075 0.508062 22.106711
9.833427 0.480712 23.058417
9.885061 0.483740 23.825772
10.697094 0.526704 24.323868
10.763345 0.530501 25.086683
11.024656 0.544541 25.779027
11.443436 0.566917 26.576806
3.882065 -0.018981 0.200144
3.986889 -0.017935 0.967093
2.803754 -0.025873 1.924095
1.721679 -0.033224 2.575005
1.758543 -0.032579 3.531481
2.488080 -0.027211 4.118355
3.022260 -0.023217 4.702541
3.584142 -0.018902 5.602519
4.029988 -0.015534 6.175580
4.310706 -0.013195 7.080792
4.486055 -0.011659 7.830486
4.669031 -0.010071 8.577301
4.958805 -0.007738 9.308653
5.156777 -0.006047 10.048450
5.735001 -0.001769 10.569553
6.143320 0.001385 11.268713
6.558353 0.004583 11.960551
7.373881 0.010568 12.575413
8.194425 0.016583 13.174692
8.627384 0.019895 13.836072
9.000214 0.022850 14.660657
9.186032 0.024314 15.050654
9.218167 0.024965 16.104227
9.350820 0.026123 16.663687
9.525507 0.027637 17.371218
9.804198 0.029872 18.051431
10.089636 0.032152 18.727730
9.901013 0.031151 19.537380
9.766232 0.030591 20.501561
10.316982 0.034642 20.938610
10.298385 0.034757 21.549401
9.766929 0.031532 22.825197
9.910751 0.032840 23.560700
10.669777 0.038322 23.914019
10.543683 0.037770 24.744916
10.895395 0.040510 25.404367
11.989262 0.048671 26.560331
12.325434 0.051367 27.383144
12.353974 0.052209 28.974385
12.018087 0.050234 29.938933
11.900449 0.049690 30.643046
4.176741 -0.211115 0.055355
4.679692 -0.230643 0.819325
3.392260 -0.179549 1.608800
2.218550 -0.132864 2.587255
2.241484 -0.133517 3.211311
2.776800 -0.154322 3.974463
3.110384 -0.167237 4.576009
3.670831 -0.188975 5.482598
4.129114 -0.206751 6.223344
4.296257 -0.213037 6.982976
4.471206 -0.219632 7.739784
4.734295 -0.229776 8.315295
4.941648 -0.237590 9.217292
5.237495 -0.248966 9.943313
5.540532 -0.260627 10.664192
5.949407 -0.276471 11.364408
6.339134 -0.291625 11.901264
7.082329 -0.320618 12.690355
7.649918 -0.342870 13.022077
8.208898 -0.364593 13.822377
8.647572 -0.381629 14.480246
9.059803 -0.397686 14.980424
9.382768 -0.410026 15.967252
9.319745 -0.407297 16.571395
9.396299 -0.410021 17.302918
9.480656 -0.413053 18.034612
9.765613 -0.424018 18.713715
9.768937 -0.423844 19.470843
9.832857 -0.426131 20.053162
10.132858 -0.437560 21.050624
10.019845 -0.432844 21.692711
9.725825 -0.420831 22.728813
9.773807 -0.422414 23.496410
10.437590 -0.448437 23.884245
10.552326 -0.452595 24.794834
10.661918 -0.456682 25.377654
11.355287 -0.483749 26.071092
11.904813 -0.505191 26.644803
11.753353 -0.498940 27.333606
11.547236 -0.490383 28.393924
11.688034 -0.495703 28.973297
11.934734 -0.504817 30.501634
4.064629 -0.393032 -0.357308
4.860798 -0.460565 0.404335
4.471626 -0.427031 1.326619
3.197754 -0.318097 2.284849
2.819646 -0.285626 2.910523
3.151096 -0.313560 3.673814
3.390775 -0.333675 4.436301
3.737590 -0.362924 5.187364
4.091914 -0.392815 5.931679
4.439573 -0.422206 6.509004
4.624384 -0.437585 7.419608
4.703716 -0.444039 8.178149
4.889797 -0.459593 8.923844
5.182231 -0.484216 9.653527
5.580555 -0.517871 10.364041
5.765039 -0.533358 10.940165
6.200908 -0.570153 11.794793
6.887637 -0.628473 12.278673
7.409018 -0.672632 12.941177
8.034283 -0.725655 13.575230
8.500642 -0.765064 14.388884
8.943737 -0.802556 15.042640
9.164784 -0.821173 15.583286
9.134081 -0.818251 16.339539
9.401856 -0.840791 17.026135
9.541835 -0.852493 17.584925
9.765378 -0.871195 18.439767
9.958057 -0.887329 19.143674
10.062330 -0.895919 19.873522
9.697602 -0.864487 20.748114
9.914099 -0.882650 21.452603
10.137853 -0.901432 22.154803
10.041023 -0.892787 23.130348
10.324774 -0.916755 23.650781
10.717688 -0.949908 24.461205
10.972437 -0.971335 25.154894
11.271579 -0.996619 25.664703
11.945478 -1.053896 26.024915
11.997460 -1.057946 26.962121
11.542992 -1.018821 27.952073
11.713111 -1.032950 28.860657
12.195119 -1.073779 29.462145
10.429115 -0.921597 33.669767
5.034184 -0.698850 -0.139926
5.531309 -0.762932 0.613545
4.551678 -0.635672 1.542323
3.385790 -0.484275 2.502429
3.104124 -0.447606 2.963069
3.343612 -0.478247 3.892901
3.584537 -0.509143 4.655109
4.019751 -0.565276 5.237360
4.287126 -0.599536 6.149178
4.536292 -0.631570 6.735249
4.723281 -0.655419 7.646498
4.903398 -0.678444 8.394960
5.091101 -0.702453 9.140461
5.265385 -0.724789 9.724630
5.783522 -0.791552 10.579162
6.091258 -0.831119 11.296835
6.503872 -0.884279 11.992765
7.091467 -0.960182 12.492091
7.641270 -1.031062 13.306837
8.140339 -1.095499 13.805753
8.479328 -1.139129 14.488154
9.018685 -1.208729 15.122310
9.273644 -1.241471 15.813706
9.017773 -1.208065 16.468047
9.286168 -1.242547 17.157572
9.599917 -1.282846 17.992066
9.787742 -1.306886 18.699547
9.750378 -1.301798 19.311331
9.995007 -1.333136 20.165126
10.015593 -1.335493 20.927050
9.902625 -1.320466 21.899551
10.222130 -1.361325 23.190488
10.515078 -1.398923 24.038000
10.618866 -1.412128 24.623566
10.596539 -1.408911 25.425760
11.323079 -1.502804 25.941316
11.742208 -1.556766 26.737272
11.378896 -1.509323 27.690278
12.052033 -1.595967 29.023626
11.251331 -1.490749 32.741595
10.616611 -1.408059 33.925509
9.723121 -1.291711 35.458314
5.095745 -0.948040 -0.296938
5.588691 -1.034810 0.615321
5.004401 -0.931272 1.218730
3.744143 -0.708094 2.171499
3.172846 -0.606842 2.802769
3.408752 -0.648165 3.733118
3.735524 -0.705688 4.328553
4.186539 -0.785049 5.233564
4.439299 -0.829425 5.984041
4.797639 -0.892471 6.720720
4.951636 -0.919453 7.311642
5.144476 -0.953173 8.217509
5.133717 -0.950957 8.985748
5.326202 -0.984680 9.728799
5.721110 -1.054201 10.440386
5.928188 -1.090508 11.175085
6.311860 -1.158112 11.718169
6.822803 -1.248160 12.393566
7.436775 -1.356433 13.041348
8.027424 -1.460651 13.525407
8.488596 -1.541843 14.342169
8.734454 -1.585020 15.041465
8.891223 -1.612440 15.759259
9.090657 -1.647342 16.625154
9.358423 -1.694397 17.311792
9.594677 -1.735943 17.845972
9.779386 -1.768307 18.551625
9.876527 -1.785181 19.282478
9.792450 -1.769996 20.069625
10.094045 -1.823036 20.743905
10.120553 -1.827411 21.504472
10.155454 -1.833270 22.266694
10.478528 -1.890110 22.934073
10.436408 -1.882339 23.729493
10.681158 -1.925321 24.425968
10.894744 -1.962721 25.300714
11.100075 -1.998796 25.847036
11.514738 -2.071774 26.643859
11.152072 -2.007273 27.595967
11.936560 -2.145500 28.706803
10.998398 -1.977685 33.514861
6.118419 -1.424843 0.276814
5.928767 -1.381839 1.023736
4.572922 -1.076345 1.642666
3.324673 -0.794999 2.444047
3.359042 -0.802350 3.380490
3.590953 -0.854245 4.143297
3.917811 -0.927586 4.733946
4.357786 -1.026332 5.472462
4.610471 -1.082910 6.218727
4.788168 -1.122538 7.128733
5.040869 -1.179190 7.707150
5.218663 -1.218909 8.451223
5.210275 -1.216704 9.217225
5.520884 -1.286266 10.101440
5.892900 -1.369790 10.650828
6.220448 -1.443171 11.522018
6.795299 -1.572377 12.026183
7.400065 -1.708259 12.674814
7.722901 -1.780652 13.367680
8.243676 -1.897625 14.015769
8.770178 -2.015892 14.654200
8.858750 -2.035466 15.541358
8.889661 -2.042182 16.128660
9.186239 -2.108604 16.968386
9.192089 -2.109740 17.405607
9.503862 -2.179585 18.239531
9.651390 -2.212566 18.798633
9.885779 -2.264982 19.651653
10.087371 -2.310075 20.354300
10.154620 -2.324841 21.261392
10.326163 -2.363232 21.814340
10.642181 -2.434101 22.480509
10.411369 -2.381785 23.338242
10.621695 -2.428518 24.833215
10.784591 -2.464889 25.563338
10.920394 -2.495085 26.474748
11.100731 -2.535383 27.203740
10.839034 -2.476088 28.125150
11.500667 -2.623800 31.129344
11.487257 -2.620504 31.800312
11.356334 -2.590577 32.894780
6.143951 -1.726688 0.165695
5.860687 -1.648917 1.067176
4.620302 -1.309688 1.842375
3.388116 -0.972688 2.644345
3.314164 -0.952227 3.257435
3.550570 -1.016434 4.180601
3.873946 -1.104542 4.769191
4.320730 -1.226241 5.665743
4.559246 -1.291166 6.249894
4.735166 -1.338853 7.157958
5.001292 -1.411258 7.893004
5.160956 -1.454639 8.476563
5.152710 -1.452067 9.240713
5.438975 -1.529979 9.965417
5.850021 -1.641928 10.827099
6.151471 -1.723994 11.539687
6.744982 -1.885882 12.196554
7.222578 -2.016161 12.706196
7.636565 -2.128992 13.379604
8.122150 -2.261459 13.874341
8.671615 -2.411258 14.662418
8.726602 -2.425975 15.397692
8.755602 -2.433654 15.983300
9.082071 -2.522442 16.971302
9.124012 -2.533657 17.556068
9.357320 -2.597179 18.090268
9.527102 -2.643139 19.119673
9.772159 -2.709874 19.648189
10.063539 -2.789205 20.320998
9.900784 -2.744395 21.138092
10.206468 -2.827637 21.807459
10.335525 -2.862594 22.535845
10.247743 -2.838204 23.508493
11.120726 -3.076533 23.967878
11.543704 -3.191844 24.585051
11.108121 -3.072503 25.372959
11.005134 -3.044016 26.205951
11.058142 -3.058105 27.151303
11.553302 -3.192883 28.379198
11.844046 -3.271625 30.048306
11.208428 -3.097557 31.007052
11.043722 -3.051740 32.960844
7.293951 -2.415739 -0.364019
6.721804 -2.229836 0.214707
6.060726 -2.015006 0.960242
5.220518 -1.741974 1.882613
4.005963 -1.347523 2.678957
3.369972 -1.140812 3.474925
3.501986 -1.183325 4.240663
3.821350 -1.286707 4.829611
4.167819 -1.398751 5.734029
4.511402 -1.509929 6.470526
4.752725 -1.587991 7.050861
4.919588 -1.641821 7.796366
5.111351 -1.703665 8.697158
5.086278 -1.695272 9.303756
5.369240 -1.786785 10.028817
5.775372 -1.918206 10.890736
6.073322 -2.014587 11.603656
6.352810 -2.105045 12.155958
6.876398 -2.274597 12.977597
7.474045 -2.468259 13.615470
7.954583 -2.623981 14.110041
8.375507 -2.760289 14.768485
8.523776 -2.808098 15.484556
8.679106 -2.858199 16.198969
8.749097 -2.880598 16.935438
8.790304 -2.893721 17.522430
9.279190 -3.052029 18.305713
9.410131 -3.094146 19.186881
9.469703 -3.113229 19.771318
9.758390 -3.206620 20.446392
9.734245 -3.198388 21.384038
9.630812 -3.164551 22.030139
9.760516 -3.206329 22.763889
10.077517 -3.308910 23.431682
10.758932 -3.529800 23.960111
11.176226 -3.664946 24.580294
11.153823 -3.657343 25.370039
11.051759 -3.623872 26.199512
11.139889 -3.651810 27.757421
11.175565 -3.662707 29.363036
11.096594 -3.636644 30.397013
10.709360 -3.510556 31.420565
8.673136 -3.307741 -0.162443
7.832541 -2.991590 0.706896
6.435334 -2.466462 1.301630
5.327580 -2.049995 2.070878
3.952919 -1.533176 3.036714
3.237139 -1.263942 3.840918
3.557496 -1.383962 4.594944
3.978056 -1.541633 5.330810
4.312105 -1.666804 6.065977
4.652988 -1.794546 6.794339
4.721225 -1.819857 7.546266
4.889747 -1.882845 8.286229
5.047249 -1.941763 8.865178
5.321101 -2.044328 9.586639
5.508963 -2.114585 10.317029
5.703730 -2.187438 11.044287
5.997756 -2.297587 11.752273
6.298284 -2.410180 12.454946
6.881435 -2.628969 13.097929
7.469866 -2.849746 13.729380
7.788335 -2.969089 14.409637
8.112959 -3.090747 15.084329
8.352381 -3.180390 15.775539
8.598248 -3.272456 16.463067
8.759678 -3.332794 17.171001
8.746739 -3.327608 17.927427
8.922308 -3.393258 18.633648
8.874001 -3.374709 19.568581
9.024386 -3.430963 20.124514
9.221165 -3.504583 20.827561
9.379422 -3.563655 21.706587
9.769273 -3.709832 22.343034
9.763440 -3.707377 22.955242
9.947476 -3.776136 23.829801
10.834476 -4.109226 24.104086
11.383005 -4.314976 24.825411
10.830630 -4.106699 26.621747
10.570745 -4.008679 27.533001
11.386914 -4.315162 27.805497
9.089443 -3.449742 33.282823
9.247336 -4.017055 0.307692
7.784342 -3.389106 1.185077
6.328165 -2.764131 1.947697
3.446931 -1.527416 3.733719
3.476622 -1.539886 4.342442
3.897699 -1.720114 5.246113
4.133686 -1.821015 5.995295
4.455058 -1.958618 6.571395
4.703372 -2.064811 7.310494
4.882707 -2.141345 8.208285
5.036765 -2.207176 8.786579
5.232802 -2.290878 9.677673
5.306590 -2.322273 10.264710
5.497334 -2.403774 10.993182
5.899640 -2.575976 11.842394
6.170720 -2.692018 12.389465
6.497676 -2.831895 13.241538
6.986447 -3.041272 13.894477
7.660622 -3.330202 14.497344
7.860215 -3.415581 15.041681
7.915624 -3.439026 15.778245
8.246492 -3.580662 16.445970
8.494030 -3.686546 17.132003
8.534446 -3.703627 17.714778
8.616033 -3.738303 18.447430
8.654735 -3.754507 19.356346
8.399619 -3.644702 20.201959
8.196044 -3.556936 21.205808
8.662320 -3.756679 21.825529
9.570097 -4.145878 22.280960
9.563865 -4.142937 22.893164
9.523002 -4.125060 23.687027
10.047465 -4.349853 24.100705
10.894144 -4.712706 24.870251
10.566689 -4.571912 25.621892
10.608519 -4.589444 26.560715
10.947667 -4.734642 27.205778
11.067640 -4.785854 27.780393
8.972169 -3.884925 32.474274
8.969591 -3.883518 33.161315
8.292310 -3.591972 35.489569
16.458544 -8.024878 -1.736428
6.381386 -3.141703 2.209733
3.565755 -1.776999 4.001728
3.785421 -1.883069 4.756621
4.270860 -2.117962 5.325403
4.604167 -2.279018 6.218959
4.754466 -2.351489 6.964929
4.732628 -2.340569 7.728943
4.986244 -2.463094 8.459826
5.157164 -2.545558 9.198172
