11.679463 -2.147845 20.782389
11.347660 -2.090111 21.497834
11.107841 -2.048386 22.075059
11.769861 -2.163821 23.512064
12.561289 -2.301735 24.222835
12.249444 -2.247466 24.817863
11.993441 -2.203219 28.909276
11.309057 -2.084095 29.921261
11.660522 -2.145368 30.556734
22.339021 -4.997793 -2.842178
22.235687 -4.975245 -2.249072
21.917391 -4.905690 -1.608843
21.642295 -4.845574 -1.075004
21.338500 -4.779192 -0.424528
20.888252 -4.680767 0.061085
20.380555 -4.569768 0.412780
19.749452 -4.431788 0.861734
19.091645 -4.287980 1.440663
18.308427 -4.116722 1.748048
17.279460 -3.891739 2.264453
16.091365 -3.631943 2.638299
14.782746 -3.345801 3.143572
13.286017 -3.018520 3.643071
12.008862 -2.739254 4.084010
11.192191 -2.560713 4.774270
10.308182 -2.367434 5.331658
9.642719 -2.221942 5.798939
9.444569 -2.178666 6.487973
9.332943 -2.154326 7.332599
9.248093 -2.135830 8.039103
8.976586 -2.076512 8.725417
8.712290 -2.018771 9.416962
8.077681 -1.880031 9.938079
7.523850 -1.758982 10.761307
7.582631 -1.771887 11.347593
7.631730 -1.782698 12.218715
7.697487 -1.797140 12.944770
7.966382 -1.856007 13.674663
7.950153 -1.852519 14.392902
8.137022 -1.893447 15.112601
8.428853 -1.957317 15.686140
8.631548 -2.001717 16.537326
8.939017 -2.069018 17.239980
8.765803 -2.031197 17.954527
12.140920 -2.769402 19.037161
11.880906 -2.712586 19.594861
11.646127 -2.661312 20.425945
11.787846 -2.692350 20.959466
11.558044 -2.642154 21.663892
11.141963 -2.551222 22.396113
11.914134 -2.720152 23.127132
12.676947 -2.887022 23.706651
12.864919 -2.928185 24.356758
13.062047 -2.971454 26.227238
11.188314 -2.562026 30.266772
22.077144 -5.949830 -2.473427
21.924540 -5.909527 -2.023935
21.739811 -5.860741 -1.461974
21.411953 -5.774104 -1.071071
21.018994 -5.670277 -0.450133
20.633275 -5.568364 0.178663
20.256300 -5.468731 0.444463
19.664051 -5.312228 1.150475
19.074971 -5.156531 1.495417
18.365251 -4.968952 1.944304
17.564804 -4.757387 2.384555
16.431201 -4.457768 3.021292
14.976201 -4.073161 3.357588
13.427062 -3.663668 3.706160
12.139874 -3.323443 4.276706
11.356301 -3.116349 4.830359
10.365276 -2.854424 5.505294
9.687949 -2.675421 6.110660
9.417957 -2.604093 6.645826
9.230742 -2.554662 7.337497
9.131149 -2.528406 8.183569
8.863952 -2.457830 8.870511
8.507636 -2.363695 9.553436
7.869284 -2.195000 10.219316
7.324411 -2.051031 11.049734
7.481387 -2.092580 11.645909
7.547009 -2.109978 12.233813
7.606823 -2.125865 13.106218
7.685049 -2.146594 13.690703
7.862441 -2.193551 14.417940
8.143595 -2.267950 15.283317
8.433845 -2.344727 15.854089
8.539877 -2.372830 16.704112
8.938748 -2.478322 17.261952
9.062596 -2.511133 18.102781
11.729346 -3.216197 19.208417
12.157588 -3.329460 19.853192
12.196543 -3.339803 20.388679
11.770124 -3.227139 21.101536
11.365200 -3.120168 21.959213
11.436928 -3.139188 22.636226
11.979313 -3.282611 23.116589
12.938344 -3.536252 24.470591
13.036648 -3.562295 25.129577
13.064005 -3.569643 26.479918
12.810824 -3.502823 27.762728
12.026563 -3.295586 28.765818
11.133754 -3.059646 29.679799
10.723423 -2.951243 30.498972
21.613144 -6.789861 -2.479067
21.462428 -6.743353 -2.028143
21.279966 -6.687052 -1.464294
21.069308 -6.622052 -0.786345
20.659019 -6.495373 -0.418791
20.186606 -6.349527 0.183115
19.751539 -6.215207 0.680662
19.228664 -6.053766 1.160353
18.617293 -5.864994 1.625351
17.981684 -5.668748 2.221836
17.219665 -5.433438 2.546849
16.194395 -5.116857 3.210348
15.038210 -4.759822 3.612447
13.321404 -4.229640 3.924790
11.886570 -3.786549 4.329691
11.112600 -3.547568 4.885379
10.133720 -3.245315 5.562816
9.256333 -2.974410 6.279909
8.990859 -2.892469 6.818643
8.885879 -2.860121 7.666522
8.806426 -2.835644 8.375697
8.435884 -2.721279 9.196659
7.896686 -2.554814 9.867559
7.469992 -2.423084 10.414611
7.228982 -2.348714 11.126616
7.281570 -2.365018 11.860334
7.341956 -2.383731 12.592294
7.405628 -2.403471 13.465665
7.581523 -2.457844 14.052856
7.665135 -2.483729 14.777898
7.947738 -2.571057 15.358925
8.237468 -2.660610 16.217376
8.532199 -2.751682 16.786400
8.935290 -2.876244 17.626750
9.146282 -2.941454 18.186748
9.082499 -2.921817 18.897507
11.645573 -3.713489 20.115782
11.495779 -3.667275 20.670227
11.169987 -3.566804 22.337387
11.767023 -3.751278 23.357556
12.417252 -3.952200 24.621606
12.347707 -3.930794 25.447638
12.621383 -4.015358 25.944722
12.759420 -4.058104 27.282014
11.955075 -3.809854 29.118473
10.675186 -3.414656 29.992269
10.436830 -3.341174 31.502544
21.055283 -7.607439 -2.919507
20.991880 -7.584925 -2.433033
20.915346 -7.557771 -1.579667
20.829785 -7.527383 -0.982340
20.513826 -7.415009 -0.586614
20.136493 -7.280820 0.040683
19.615822 -7.095621 0.506430
19.008042 -6.879429 0.956081
18.494766 -6.696863 1.443520
17.866278 -6.473316 2.035698
17.205652 -6.238314 2.379519
16.428701 -5.961937 2.834456
15.562857 -5.653934 3.284959
14.583584 -5.305586 3.860618
11.386647 -4.168269 4.575818
10.604671 -3.890125 5.271670
9.736900 -3.581458 5.972530
8.521626 -3.149144 6.500697
8.244612 -3.050651 7.184320
8.722970 -3.220906 7.967139
8.568638 -3.166048 8.522990
8.124413 -3.008064 9.192563
7.487506 -2.781541 9.997167
7.057858 -2.628745 10.688930
7.011254 -2.612229 11.415043
7.073406 -2.634392 12.003012
7.134562 -2.656214 12.733127
7.199192 -2.679284 13.604870
7.465424 -2.774066 14.334686
7.550827 -2.804513 15.056557
7.832143 -2.904661 15.775571
8.215078 -3.040961 16.486490
8.322729 -3.079323 17.196166
8.908462 -3.287771 17.885141
9.212635 -3.396035 18.436086
9.340330 -3.441527 19.130905
9.954032 -3.659934 19.926506
10.753028 -3.944347 21.657482
11.288247 -4.134818 22.285193
11.932214 -4.364228 25.755571
11.787933 -4.313021 27.166742
11.332632 -4.151095 27.822182
11.306100 -4.141731 28.673217
11.106960 -4.070962 29.571525
10.981219 -4.026292 30.319505
10.681228 -3.919634 31.120802
10.299741 -3.783985 31.956303
20.473856 -8.406724 -3.096752
20.549034 -8.437217 -2.431706
20.544187 -8.435312 -1.802774
20.193918 -8.293560 -1.299982
19.792954 -8.131274 -0.934541
19.418312 -7.979667 -0.304694
19.050709 -7.830910 0.332954
18.630488 -7.660840 0.835593
17.945763 -7.383687 1.269777
17.471706 -7.191812 1.648328
16.792629 -6.916948 2.107745
16.090775 -6.632876 2.703865
15.419527 -6.361184 3.193750
14.661262 -6.054265 3.677852
13.701673 -5.665855 4.268151
12.452099 -5.160062 4.961765
11.179266 -4.644819 5.276600
10.050969 -4.188118 5.919015
9.332379 -3.897257 6.370907
8.398253 -3.519167 7.089506
8.591728 -3.597556 7.833753
8.701148 -3.641916 8.559903
7.987903 -3.353236 9.194771
8.030786 -3.370648 9.773700
7.421217 -3.123940 10.438001
6.716692 -2.838806 11.253692
6.684083 -2.825657 11.835726
6.736765 -2.847062 12.711320
6.804276 -2.874457 13.440634
6.971902 -2.942381 14.170090
7.239659 -3.050840 14.896306
7.422110 -3.124764 15.616129
7.426488 -3.126601 16.333972
7.808841 -3.281449 17.042489
8.383543 -3.514163 17.735238
9.268373 -3.872471 18.958841
9.954139 -4.150142 19.609288
10.820508 -4.501105 22.280045
11.874412 -4.927846 23.371074
11.974728 -4.968528 24.167709
11.772254 -4.886613 24.744311
11.594778 -4.814831 25.458300
11.286361 -4.690118 27.035710
10.770328 -4.481289 27.843782
10.544869 -4.390213 30.030579
10.066372 -4.196583 30.880982
9.990151 -4.165808 31.781645
10.662791 -4.438143 32.179818
19.343890 -8.940634 -3.174468
19.295682 -8.918722 -2.420792
19.239778 -8.893277 -1.928455
19.101531 -8.830284 -1.467302
18.782494 -8.684888 -0.689902
18.566998 -8.586671 -0.252933
18.149464 -8.396340 0.248101
17.648410 -8.167925 0.730875
17.063172 -7.901125 1.198532
16.542302 -7.663688 1.823321
15.965394 -7.400688 2.316000
15.278381 -7.087495 2.922479
14.556330 -6.758304 3.275521
13.990851 -6.500519 3.808212
13.228856 -6.153141 4.444004
12.225134 -5.695531 4.917302
11.134755 -5.198410 5.397169
10.009756 -4.685531 6.174305
9.125976 -4.282605 6.598755
8.211445 -3.865685 7.320425
8.798454 -4.133459 8.682584
7.737079 -3.649573 9.277931
7.757752 -3.659077 10.141794
7.353773 -3.474930 10.684000
6.582293 -3.123230 11.351804
6.537251 -3.102772 12.223911
6.598590 -3.130807 12.955962
6.943954 -3.288332 13.551061
6.927625 -3.280952 14.274209
6.826599 -3.234968 15.140451
7.371611 -3.483521 15.719524
8.106673 -3.818755 16.567114
10.162704 -4.756386 18.449926
10.195184 -4.771257 19.133887
10.770880 -5.033796 19.641943
11.187655 -5.223898 20.420845
11.149172 -5.206413 21.101357
11.473897 -5.355029 27.208613
10.877735 -5.083410 29.449640
10.312051 -4.825561 30.309458
10.052777 -4.707429 31.248031
10.037311 -4.700444 31.983522
18.644841 -9.554401 -3.649312
18.626959 -9.545415 -3.002146
18.497373 -9.479933 -2.276069
18.325265 -9.392926 -1.695553
18.158867 -9.308809 -1.112950
17.912775 -9.184376 -0.557236
17.586173 -9.019215 -0.025316
17.092335 -8.769455 0.459134
16.630774 -8.536011 0.834387
16.116066 -8.275707 1.458913
15.633920 -8.031863 1.974172
15.069016 -7.746156 2.477100
14.396492 -7.406021 3.095774
13.665570 -7.036333 3.585376
13.048128 -6.724040 3.982345
12.477792 -6.435602 4.668165
11.650616 -6.017240 5.318726
10.583970 -5.477728 5.811377
9.803440 -5.082940 6.236529
8.991393 -4.672236 6.952566
7.920915 -4.130806 7.654592
7.861050 -4.100576 8.223979
7.868721 -4.104537 9.086031
7.442145 -3.888831 9.903403
7.222070 -3.777559 10.461921
6.819553 -3.574012 11.154039
6.423614 -3.373794 11.855471
6.396870 -3.360320 12.439493
6.454652 -3.389629 13.316224
6.614761 -3.470688 14.048794
6.871314 -3.600531 14.778309
6.956565 -3.643722 15.501190
7.226185 -3.780162 16.077344
8.035621 -4.189663 16.637960
11.093571 -5.737005 21.956390
11.451704 -5.918615 26.803367
10.986441 -5.683402 28.293536
10.591715 -5.483806 29.092280
10.293060 -5.332806 29.879676
10.292827 -5.332768 30.740094
10.154808 -5.263009 31.357685
17.606038 -10.000772 -3.766817
17.669765 -10.036581 -3.078801
17.692743 -10.049520 -2.542698
17.455178 -9.916351 -1.722343
17.406747 -9.889235 -1.218658
17.028655 -9.677206 -0.831684
16.646507 -9.462939 -0.055015
16.304699 -9.271252 0.227267
15.795015 -8.985437 0.849265
15.233732 -8.670669 1.337610
14.760792 -8.405455 1.861941
14.292045 -8.142592 2.396527
13.865420 -7.903383 3.213462
13.282289 -7.576339 3.475979
12.633750 -7.212647 4.132171
11.991566 -6.852520 4.805940
11.222826 -6.421384 5.200201
10.332689 -5.922184 5.861723
9.552265 -5.484510 6.426447
9.019530 -5.185780 7.187361
8.437725 -4.859501 7.672935
7.845246 -4.527250 8.310153
7.506314 -4.337227 9.132934
7.361106 -4.255849 9.840078
7.135677 -4.129476 10.542473
6.664148 -3.865055 11.086798
6.443553 -3.741408 11.945900
6.412388 -3.723998 12.675076
6.566792 -3.810657 13.267378
6.635543 -3.849287 13.997259
6.709914 -3.891083 14.868448
9.596652 -5.510395 16.833629
10.355388 -5.936396 21.455343
11.294812 -6.463370 22.154971
11.260883 -6.444391 22.697496
11.433939 -6.541530 23.479067
11.871018 -6.786980 26.640821
11.872447 -6.787833 27.184735
11.498140 -6.577977 28.092184
10.735969 -6.150598 29.254655
10.700542 -6.130795 29.969684
10.474307 -6.003964 30.601451
10.368130 -5.944482 31.348416
17.139572 -10.746072 -3.716026
17.121990 -10.735245 -3.061065
16.836131 -10.558237 -2.386977
16.589633 -10.405600 -1.824810
16.104567 -10.105177 -1.347317
15.734870 -9.876210 -0.950508
15.337801 -9.630300 -0.426612
14.916386 -9.369321 0.227383
14.611007 -9.180212 0.794244
14.228043 -8.943042 1.342864
13.849584 -8.708662 1.899643
13.392839 -8.425789 2.442366
12.963800 -8.160065 2.868443
12.386977 -7.802835 3.666681
11.903425 -7.503332 3.964202
11.171962 -7.050310 4.757131
10.487427 -6.626333 5.303743
9.789165 -6.193868 6.001709
9.534902 -6.036431 6.653591
9.064841 -5.745289 6.997944
8.214398 -5.218559 7.714747
7.468653 -4.756673 8.326365
7.054195 -4.500019 9.138340
7.093059 -4.524150 9.720468
6.872494 -4.387591 10.419627
6.565435 -4.197467 11.260296
6.280895 -4.021266 11.821599
6.238910 -3.995358 12.834913
6.394803 -4.091967 13.279165
6.459276 -4.131990 14.148626
7.044651 -4.494666 14.878488
10.626434 -6.713939 20.687239
11.016076 -6.955360 21.317659
11.749220 -7.410026 26.710927
11.235183 -7.091809 28.754259
10.699085 -6.759810 29.595050
10.723538 -6.775052 30.575036
10.241052 -6.476391 32.736114
15.941000 -10.978765 -3.945748
15.687792 -10.806542 -3.380407
15.551005 -10.713523 -2.897961
15.228244 -10.493975 -2.356562
14.878692 -10.256212 -1.688002
14.675168 -10.117783 -1.225820
14.336975 -9.887749 -0.544288
13.982006 -9.646275 -0.127712
13.761935 -9.496602 0.470719
13.440938 -9.278269 1.173094
13.151881 -9.081658 1.757694
12.706551 -8.778716 2.303767
12.161831 -8.408162 2.966848
11.666693 -8.071319 3.386337
11.132079 -7.707644 4.076762
10.542228 -7.306373 4.632384
10.019562 -6.950830 5.352613
9.439432 -6.556176 5.937359
8.782027 -6.108946 6.522133
7.801280 -5.441713 7.070760
7.577199 -5.289306 7.612739
7.412960 -5.177644 8.451208
7.116336 -4.975879 8.991613
7.142464 -4.993728 9.711354
7.083657 -4.953802 10.563113
6.546700 -4.588531 11.234821
5.932984 -4.171035 11.914708
5.738148 -4.038543 12.632245
6.128193 -4.303999 13.377478
6.938386 -4.855318 14.122931
10.417292 -7.222849 19.420475
10.447376 -7.243372 19.954317
10.994221 -7.615619 21.766487
11.531292 -7.981374 25.148366
10.969564 -7.599260 25.935893
10.757908 -7.455491 28.313102
10.125963 -7.025597 29.036987
9.687595 -6.727420 29.864998
9.959529 -6.912575 31.213978
9.619251 -6.681211 32.772534
14.928160 -11.271786 -4.206327
14.680799 -11.087338 -3.635242
14.438207 -10.906449 -3.059754
14.092704 -10.648808 -2.389060
13.921658 -10.521259 -2.047789
13.863822 -10.478214 -1.127777
13.593512 -10.276635 -0.687355
13.221170 -9.998962 -0.145026
12.930448 -9.782172 0.431099
12.747590 -9.645828 0.912366
12.338784 -9.340984 1.728015
12.031899 -9.112111 2.046109
11.658236 -8.833469 2.753423
11.291431 -8.559943 3.470697
10.636726 -8.071652 3.992045
10.064406 -7.644816 4.547723
9.575141 -7.279934 5.134441
9.169542 -6.977461 5.748896
8.467898 -6.454149 6.178072
7.722780 -5.898455 7.038908
7.491663 -5.726134 7.716906
7.744340 -5.914684 8.466458
7.456999 -5.700411 8.998716
7.312387 -5.592631 9.835596
7.114173 -5.444841 10.387106
6.104360 -4.691700 11.158522
5.742373 -4.421782 12.004978
5.719377 -4.404689 12.589631
6.177171 -4.746235 13.339195
6.724530 -5.154573 13.936304
7.433424 -5.683426 14.801837
8.793525 -6.698041 15.919058
9.681422 -7.360392 16.585232
9.931952 -7.547553 19.395275
10.011453 -7.606991 20.732896
10.768151 -8.171458 21.183774
11.568584 -8.768763 23.712878
11.248835 -8.530405 25.100049
10.582641 -8.033716 27.278123
9.903740 -7.527413 28.140022
10.040798 -7.629727 28.941728
9.849238 -7.486921 29.699051
9.784575 -7.438912 31.857014
13.307920 -10.920506 -4.493098
13.211698 -10.842637 -3.836806
13.226959 -10.855058 -3.271728
13.172633 -10.811111 -2.739364
13.092204 -10.746034 -2.083994
12.915409 -10.602911 -1.337407
12.801404 -10.510620 -0.836266
12.487519 -10.256449 -0.137650
12.156372 -9.988268 0.291662
11.853231 -9.742801 1.005380
11.656064 -9.583163 1.622368
11.214097 -9.225245 2.305331
10.875670 -8.951183 2.891964
10.410036 -8.574067 3.316202
9.907107 -8.166771 4.014398
9.524049 -7.856545 4.478206
8.972636 -7.409965 5.050757
8.392185 -6.939894 5.910484
7.851187 -6.501753 6.514603
7.314689 -6.067258 7.132885
7.181824 -5.959697 7.685100
7.272085 -6.032885 8.413159
6.971322 -5.789355 9.228288
6.697764 -5.567832 9.769838
6.496479 -5.404867 10.466910
5.828479 -4.863876 11.272538
5.490834 -4.590445 11.831265
5.374909 -4.496654 12.846274
5.669075 -4.734992 13.445138
6.198042 -5.163531 14.186632
8.440573 -6.980123 15.621923
8.831490 -7.296822 16.168142
9.316558 -7.689854 17.378922
9.975293 -8.223721 20.153398
10.172210 -8.383292 20.799561
10.673987 -8.789779 21.271527
9.559204 -7.887571 28.406996
9.876522 -8.144648 28.878555
9.638476 -7.951928 29.788705
9.008002 -7.441344 30.694654
9.166930 -7.570162 31.505556
9.550238 -7.880671 31.808863
12.775716 -11.447735 -4.620244
12.643874 -11.331164 -4.121931
12.484113 -11.189909 -3.498454
12.400766 -11.116254 -2.841870
12.352169 -11.073324 -2.309251
12.135683 -10.881888 -1.710494
11.968788 -10.734338 -0.954554
11.861240 -10.639258 -0.446866
11.634441 -10.438714 0.288290
11.365884 -10.201216 0.877463
11.028986 -9.903262 1.449316
10.623249 -9.544411 2.007012
10.273475 -9.235083 2.726756
9.803318 -8.819248 3.285542
9.484117 -8.536952 3.894321
9.113973 -8.209578 4.359736
8.564186 -7.723318 5.068850
8.094519 -7.307936 5.810794
7.587194 -6.859212 6.277463
7.128388 -6.453441 7.047444
6.912391 -6.262447 7.727724
6.999616 -6.339686 8.457341
6.730971 -6.102104 8.993465
6.455988 -5.858931 9.676598
6.103427 -5.547149 10.501351
5.548827 -5.056613 11.030563
5.290191 -4.827904 11.740871
5.252192 -4.794403 12.761563
5.535115 -5.044742 13.361738
5.969360 -5.428953 14.102493
6.859155 -6.216140 14.836790
7.979833 -7.207547 15.407908
8.505822 -7.672909 16.093116
8.972337 -8.085719 17.307790
9.523419 -8.573496 19.968778
9.637340 -8.674342 20.628816
10.204015 -9.175686 21.229172
10.551592 -9.483218 21.845192
10.421523 -9.368368 23.725819
10.138971 -9.118594 25.256034
9.794122 -8.813702 26.696134
9.320337 -8.394700 27.645212
9.056209 -8.161139 28.416905
8.938028 -8.056774 30.008245
8.665751 -7.816250 32.993259
11.208558 -10.951313 -5.222268
11.250130 -10.991450 -4.484990
11.465226 -11.198765 -3.813389
11.656326 -11.382975 -3.024001
11.620710 -11.348754 -2.207603
11.536310 -11.267481 -1.825461
11.400757 -11.136953 -1.191750
11.289492 -11.029858 -0.277645
11.120602 -10.867194 0.208000
10.838540 -10.595519 0.926039
10.536947 -10.304995 1.372399
10.216314 -9.996143 1.954069
9.738691 -9.536046 2.631711
9.356447 -9.167833 3.212630
9.067459 -8.889458 3.690060
8.604136 -8.443143 4.404871
8.305291 -8.155289 5.032847
7.782213 -7.651403 5.758027
7.208292 -7.098517 6.348237
6.781289 -6.687186 6.979224
6.644712 -6.555678 7.670893
6.739579 -6.647146 8.259361
6.469714 -6.387218 8.933128
6.124034 -6.054260 9.746588
6.009105 -5.943611 10.452508
5.468611 -5.422939 11.120979
5.076903 -5.045621 11.816576
5.126992 -5.093949 12.406195
5.320886 -5.280844 13.145883
5.736674 -5.681528 13.886860
6.592004 -6.505678 14.483384
9.138412 -8.959451 17.879628
10.022681 -9.811802 21.247334
10.337425 -10.115088 21.600858
10.110030 -9.896187 23.218156
9.873966 -9.668968 25.137593
9.154361 -8.975924 27.500466
8.687734 -8.526439 28.330227
8.794860 -8.630157 32.725897
10.594408 -11.292967 -5.590219
10.630852 -11.331357 -4.848579
10.673693 -11.376468 -4.110702
10.816894 -11.527039 -3.471394
10.712606 -11.417536 -2.676762
10.602726 -11.302121 -2.163311
10.404080 -11.093432 -1.549806
10.318011 -11.003075 -0.750597
10.286479 -10.970003 -0.206113
10.079497 -10.752570 0.543597
9.855462 -10.517182 1.017286
9.592170 -10.240568 1.754707
9.287631 -9.920590 2.347756
8.938750 -9.553995 2.796714
8.555554 -9.151370 3.519338
8.178301 -8.754992 4.254456
7.839278 -8.398760 4.731494
7.419307 -7.957473 5.336550
7.003378 -7.520435 5.953762
6.646531 -7.145508 6.735923
6.457641 -6.947062 7.275692
6.386033 -6.871909 8.122998
6.126481 -6.599220 8.800421
5.871881 -6.331735 9.485263
5.553613 -5.997340 10.169245
5.240342 -5.668197 10.862696
5.064108 -5.483090 11.716995
4.836070 -5.243507 12.283335
5.089638 -5.510078 13.027287
5.489523 -5.930401 13.625562
8.665665 -9.268785 17.634415
9.004902 -9.625521 19.476987
9.280475 -9.915700 24.240193
9.226780 -9.859369 25.059080
9.218115 -9.850329 25.603007
9.198655 -9.830123 27.652380
9.143329 -9.772164 29.186160
8.408646 -9.000349 31.563600
8.532462 -9.130552 32.234194
9.741309 -11.324527 -5.252183
9.836998 -11.434191 -4.761700
9.850769 -11.450074 -3.892630
9.774415 -11.362703 -3.215970
9.792043 -11.382966 -2.637160
9.788215 -11.378671 -1.932846
9.576176 -11.135892 -1.185230
9.520346 -11.072029 -0.508361
9.405992 -10.941128 0.143090
9.190079 -10.693878 0.618553
8.892076 -10.352615 1.205548
8.578230 -9.993223 1.932227
8.288752 -9.661727 2.536529
8.067695 -9.408604 3.168766
7.721774 -9.012457 3.769294
7.363780 -8.602500 4.515464
7.041603 -8.233534 5.000663
6.693433 -7.834832 5.769133
6.299383 -7.383561 6.396696
5.909422 -6.936974 7.036317
5.784839 -6.794363 7.735974
5.796013 -6.807252 8.460606
5.681630 -6.676326 9.164279
5.441270 -6.401100 9.853507
5.140180 -6.056314 10.542427
4.778283 -5.641880 11.234264
4.613178 -5.452875 12.098532
4.533274 -5.361406 12.537696
4.642358 -5.486464 13.423544
5.289167 -6.227405 14.034594
5.938405 -6.971144 14.768294
7.724440 -9.017479 19.401622
9.426273 -10.967174 22.499147
9.216519 -10.727342 25.856707
8.858212 -10.317114 27.308437
8.916279 -11.250769 -5.405260
8.892079 -11.220803 -4.686555
8.873299 -11.197568 -3.969560
8.885724 -11.213081 -3.383463
8.851892 -11.171165 -2.541121
8.812942 -11.122854 -1.987367
8.731473 -11.021758 -1.176973
8.557709 -10.805988 -0.548075
8.448840 -10.670836 0.109871
8.283632 -10.465696 0.745785
8.042298 -10.166005 1.494732
7.782359 -9.843166 1.964054
7.585995 -9.599305 2.460503
7.296599 -9.239910 3.210399
6.983416 -8.850930 3.680475
6.703395 -8.503185 4.449433
6.381694 -8.103644 5.074202
6.063888 -7.708944 5.708930
5.737593 -7.303718 6.493520
5.253859 -6.702876 6.968744
5.186422 -6.619218 7.826122
5.384961 -6.865948 8.585492
5.214507 -6.654298 9.279400
4.798808 -6.137997 9.944472
4.700071 -6.015439 10.660373
4.543654 -5.821228 11.372765
4.266840 -5.477459 12.079656
4.245412 -5.450937 12.812163
5.591809 -7.123731 14.888372
8.311023 -10.502521 21.946170
8.376716 -10.584247 22.863106
8.918847 -11.257939 24.730193
9.341816 -11.783414 25.148639
8.853853 -11.177362 25.941489
8.622656 -10.890531 28.709848
8.081938 -10.218994 29.872217
7.942479 -10.046213 33.327010
7.697929 -10.646689 -6.159027
7.697504 -10.646196 -5.559113
7.647865 -10.578855 -4.697544
7.630610 -10.555507 -3.969332
7.561912 -10.462240 -3.272622
7.578228 -10.484496 -2.679180
7.654844 -10.588708 -2.059713
7.691531 -10.638690 -1.180906
7.641727 -10.571100 -0.489529
7.461891 -10.326804 0.284914
7.344904 -10.167866 0.665608
7.134450 -9.881937 1.292354
6.835005 -9.475101 2.172936
6.650701 -9.224693 2.675582
6.379001 -8.855546 3.435990
6.084228 -8.455002 3.913368
5.821523 -8.098082 4.692710
5.577642 -7.766728 5.342292
5.279078 -7.361055 5.984918
4.984341 -6.960585 6.637373
4.752322 -6.645355 7.312101
4.642225 -6.495826 8.017186
4.663433 -6.524731 8.603245
4.722921 -6.605720 9.625235
4.575427 -6.405347 10.183197
4.359583 -6.112123 11.025505
4.041730 -5.680222 11.575305
3.840676 -5.407081 12.290113
4.177210 -5.864552 13.045777
4.817337 -6.734601 13.659750
5.690535 -7.921538 15.239102
6.520093 -9.049023 15.793157
7.116491 -9.859650 16.461437
7.585102 -10.497070 20.441675
7.817666 -10.813410 22.406723
7.901088 -10.927138 24.939001
7.798568 -10.788002 26.324718
7.498642 -10.380614 27.934090
7.395822 -10.241274 30.780527
7.534046 -10.429198 31.290196
6.765713 -10.261857 -6.464250
6.763619 -10.258833 -5.855799
6.767444 -10.264657 -4.950173
6.908739 -10.474989 -4.120374
7.025850 -10.649316 -3.460813
7.102436 -10.763392 -2.542466
7.014393 -10.632487 -2.005562
6.929005 -10.505534 -1.467282
6.644738 -10.082730 -0.738196
6.438397 -9.775844 -0.108990
6.289868 -9.554972 0.549900
6.090899 -9.259056 1.190337
5.895615 -8.968623 1.836823
5.758693 -8.765020 2.509562
5.665606 -8.626656 3.342939
5.442101 -8.294216 3.848102
5.193936 -7.925133 4.638457
5.018747 -7.664600 5.313746
4.792354 -7.327887 5.980018
4.569815 -6.996912 6.654005
4.351473 -6.672179 7.331729
4.192499 -6.435773 8.028328
4.204140 -6.453199 8.760973
4.046355 -6.218585 9.608798
4.025240 -6.187236 10.045618
4.099321 -6.297579 10.929409
3.688301 -5.686175 11.466790
3.936366 -6.055382 12.512867
4.971778 -7.595972 13.731679
5.460790 -8.323678 15.012235
6.920102 -10.495036 17.039197
7.389075 -11.193622 22.987295
7.392582 -11.199340 26.358237
7.022451 -10.648806 27.167006
7.040951 -10.676431 27.852419
6.225854 -10.395147 -6.862982
6.393877 -10.670165 -5.985082
6.542334 -10.913145 -5.281818
6.523388 -10.882266 -4.547571
6.487065 -10.822981 -3.682393
6.399491 -10.679799 -3.142989
6.223341 -10.391751 -2.363084
6.041488 -10.094325 -1.873596
5.873809 -9.820136 -1.082606
5.697281 -9.531424 -0.582975
5.606399 -9.382853 0.106079
5.553571 -9.296564 0.956500
5.436558 -9.105221 1.489744
5.357621 -8.976194 2.184185
5.231550 -8.770056 2.860591
5.044417 -8.464041 3.660852
4.875261 -8.187417 4.328900
4.670404 -7.852362 4.846128
4.496427 -7.567874 5.666961
4.286671 -7.224830 6.339009
4.080563 -6.887754 7.018735
3.929953 -6.641475 7.717886
3.895122 -6.584585 8.300242
4.048645 -6.835908 9.352019
4.073320 -6.876368 9.940820
3.887075 -6.571793 10.641303
3.652706 -6.188486 11.342660
4.748260 -7.981098 13.458399
6.287995 -10.500882 18.803965
6.673001 -11.131047 20.767465
6.808609 -11.352998 21.412048
7.076475 -11.791628 24.023236
7.192267 -11.981288 25.462493
6.954608 -11.592715 26.897033
6.649815 -11.094193 27.560551
6.669481 -11.126476 28.245161
6.708489 -11.190419 29.062204
7.056739 -11.760316 30.159734
7.098783 -11.829339 31.676415
5.902126 -10.844969 -6.617941
6.014045 -11.046486 -5.775410
5.993295 -11.009277 -5.036725
5.998460 -11.018673 -4.435758
5.826592 -10.709567 -3.660452
5.632614 -10.360654 -3.042504
5.488312 -10.101125 -2.390281
5.347361 -9.847627 -1.733770
5.321323 -9.800876 -1.157640
5.216873 -9.613083 -0.334327
5.133742 -9.463626 0.354952
5.101638 -9.405984 1.068546
5.040708 -9.296447 1.623139
4.954103 -9.140763 2.453824
4.851470 -8.956190 2.991582
4.582571 -8.472497 3.754632
4.389642 -8.125453 4.266666
4.272081 -7.914070 5.098803
4.159764 -7.712123 5.935360
3.975405 -7.380502 6.465426
3.744985 -6.966002 6.988505
3.596377 -6.698758 7.830634
3.605322 -6.714979 8.566671
3.666619 -6.825396 9.310804
3.683578 -6.856035 10.042964
3.656043 -6.806616 10.766349
3.292971 -6.153466 11.447268
3.470669 -6.473296 12.055383
4.376109 -8.102568 12.862657
4.742204 -8.761541 14.432167
6.394132 -11.735045 21.666640
6.662974 -12.218846 22.142842
6.880306 -12.610330 24.746307
6.260882 -11.496342 27.829799
6.494314 -11.916570 29.113797
6.521479 -11.965562 29.796485
5.475773 -11.150716 -6.237459
5.432341 -11.064315 -5.661364
5.371201 -10.942668 -4.951665
5.251700 -10.704798 -4.138040
5.155588 -10.513490 -3.455707
5.062871 -10.328943 -2.771045
5.034028 -10.271602 -2.192189
4.930964 -10.066471 -1.368854
4.892050 -9.989095 -0.653632
4.828521 -9.862661 -0.098975
4.737976 -9.682469 0.729707
4.680025 -9.567144 1.286825
4.597727 -9.403379 2.119765
4.444820 -9.098942 2.777781
4.294997 -8.800649 3.441696
4.104130 -8.420602 4.093852
4.015370 -8.243913 4.646666
3.864429 -7.943422 5.468114
3.727337 -7.670491 6.154895
3.585072 -7.387285 6.989519
3.321615 -6.862656 7.652207
3.202109 -6.624730 8.215036
3.346089 -6.911649 8.986268
3.404687 -7.028502 9.731863
3.422330 -7.063779 10.466045
3.264572 -6.749688 11.172197
3.020637 -6.263950 11.874490
4.328027 -8.868413 14.148630
4.635413 -9.480870 15.280972
5.222821 -10.651113 16.649121
6.299906 -12.797158 20.546116
6.192320 -12.582995 21.229102
6.121269 -12.441724 22.572970
6.379985 -12.957140 23.163055
6.647567 -13.490358 24.525089
5.749548 -11.702258 27.570422
5.634786 -11.473814 28.315742
5.567924 -11.340773 29.046445
5.663937 -11.532262 30.403085
4.949845 -11.287503 -6.557524
4.928676 -11.240522 -5.815137
4.794677 -10.942322 -5.170059
4.759353 -10.863793 -4.593051
4.652383 -10.625803 -3.776676
4.566453 -10.434629 -3.092365
4.562360 -10.425667 -2.350385
4.482890 -10.248876 -1.663737
4.446141 -10.167202 -0.949422
4.466614 -10.212906 -0.346698
4.356407 -9.967678 0.318766
4.249113 -9.728937 0.988231
4.172432 -9.558383 1.820575
4.071732 -9.334324 2.497277
3.864540 -8.873134 2.981236
3.718091 -8.547247 3.789763
3.676401 -8.454545 4.358618
3.537125 -8.144630 5.177450
3.410869 -7.863676 5.859532
3.246983 -7.498939 6.533474
3.012217 -6.976367 7.046201
2.894088 -6.713509 7.748387
2.895002 -6.715723 8.631998
2.906209 -6.740823 9.369937
2.875137 -6.671820 10.242621
2.861268 -6.641032 10.682703
2.711075 -6.306848 11.683971
2.613411 -6.089558 12.407995
3.658118 -8.415751 13.804605
4.263388 -9.763735 15.919331
5.913445 -13.438904 23.451081
6.039293 -13.719238 24.196397
5.669800 -12.896880 25.537117
5.434016 -12.372093 26.313945
5.263424 -11.992500 27.349333
5.055185 -11.528988 27.869889
4.367833 -9.999846 33.616638
4.398954 -11.341046 -6.700753
4.379218 -11.291659 -5.956349
4.344589 -11.204839 -5.379604
4.279305 -11.041111 -4.534253
4.198599 -10.838623 -3.852567
4.171251 -10.770087 -3.274735
4.166730 -10.758900 -2.533850
4.058576 -10.487491 -1.875892
4.024483 -10.402047 -1.161887
3.944689 -10.201882 -0.336459
3.881157 -10.042517 0.354952
3.832220 -9.919768 0.911130
3.737667 -9.682513 1.584211
3.573363 -9.270112 2.220095
3.473849 -9.020432 3.042113
3.397369 -8.828526 3.589577
3.313470 -8.618022 4.279801
3.195816 -8.322763 4.957389
3.072863 -8.014231 5.782129
2.924446 -7.641732 6.457819
2.638728 -6.924445 6.946311
2.531551 -6.655501 7.652620
2.605406 -6.841142 8.562109
2.610162 -6.853282 9.446566
2.595604 -6.816828 9.888466
2.533241 -6.660436 10.751689
2.552150 -6.708078 11.485547
2.392064 -6.306254 12.047086
3.220137 -8.385760 13.581067
3.357845 -8.731841 14.999030
3.764018 -9.751834 15.699333
4.250508 -10.973607 16.914823
4.589892 -11.826341 19.566006
4.611350 -11.880397 20.364698
4.821175 -12.407823 22.985762
5.249673 -13.483799 23.369192
4.481099 -11.555047 27.914273
4.449751 -11.476466 28.491711
4.514646 -11.639588 29.294587
4.751780 -12.235118 29.847085
3.770852 -11.123456 -6.421735
3.770037 -11.121276 -5.811201
3.725007 -10.992588 -5.099328
3.668371 -10.830721 -4.251789
3.674552 -10.848560 -3.644876
3.592823 -10.614873 -2.825858
3.559086 -10.518506 -2.112677
3.528037 -10.429828 -1.399476
3.435817 -10.166079 -0.736591
3.409951 -10.092237 -0.021496
3.450972 -10.209821 0.739321
3.334078 -9.875457 1.385934
3.229162 -9.575336 1.900319
3.106915 -9.225690 2.697113
3.005531 -8.935682 3.221830
2.921249 -8.694691 4.049368
2.880766 -8.579015 4.757267
2.817588 -8.398350 5.310094
2.644294 -7.902617 6.105185
2.545898 -7.621200 6.795686
2.417179 -7.253006 7.479446
2.258040 -6.797750 8.159666
2.293423 -6.899234 9.053747
2.345359 -7.047980 9.511449
2.320955 -6.978360 10.382404
2.187225 -6.596048 11.966301
2.177627 -6.568728 12.553023
3.409069 -10.093710 15.901135
3.925359 -11.572274 20.069861
4.440034 -13.045607 21.805624
4.562169 -13.395289 22.426141
4.469778 -13.131934 26.609392
4.114081 -12.114188 27.362990
3.973328 -11.711613 28.283125
4.011064 -11.819742 28.820381
3.124485 -10.645195 -7.269110
3.079699 -10.498203 -6.546221
3.050965 -10.403932 -5.959369
2.997416 -10.228176 -5.098710
3.043162 -10.378762 -4.283751
3.147594 -10.722242 -3.416547
3.143838 -10.710109 -2.674620
3.058561 -10.430017 -2.015750
2.986096 -10.191997 -1.489761
2.988992 -10.201728 -0.747795
3.041114 -10.373298 0.176584
2.964647 -10.122167 0.843411
2.814010 -9.627205 1.310708
2.741060 -9.387635 1.987973
2.633528 -9.034440 2.788971
2.601494 -8.929317 3.353793
2.527640 -8.686817 4.182676
2.441769 -8.404739 4.717642
2.373053 -8.179133 5.555801
2.284550 -7.888446 6.242045
2.203684 -7.622822 6.790808
2.056110 -7.138027 7.607023
1.973948 -6.868189 8.311652
1.980887 -6.891205 9.050769
1.961221 -6.826778 9.779828
2.001939 -6.960816 10.524699
1.928895 -6.720947 11.239950
1.799973 -6.297426 11.949383
2.678956 -9.186962 14.082168
2.907740 -9.939497 16.181391
3.176786 -10.824110 17.403907
3.510987 -11.923311 20.190338
3.784544 -12.822535 20.649577
3.981761 -13.471455 23.226436
3.873409 -13.116154 26.090138
3.659282 -12.412815 27.593042
3.450583 -11.727169 28.574531
2.846766 -11.457763 -6.592035
2.857669 -11.500226 -5.814727
2.799821 -11.276520 -5.136218
2.743842 -11.060049 -4.455209
2.724196 -10.984192 -3.877767
2.719584 -10.966585 -3.135954
2.645081 -10.678397 -2.479273
2.572312 -10.396927 -1.818301
2.516399 -10.180760 -0.990175
2.471836 -10.008486 -0.296976
2.380535 -9.655269 0.351612
2.315283 -9.402900 1.028506
2.276282 -9.252160 1.730417
2.214711 -9.014042 2.413953
2.154969 -8.783007 3.101229
2.097069 -8.559105 3.792169
2.022462 -8.270477 4.328188
1.967860 -8.059341 5.026826
1.909812 -7.834915 5.871537
1.809810 -7.448028 6.550331
1.587492 -6.587635 7.174485
1.511583 -6.294075 8.031379
1.566537 -6.507055 8.798320
1.577179 -6.548450 9.396031
1.561228 -6.486946 10.129848
1.544771 -6.423531 11.010144
1.533259 -6.379214 11.745282
1.575458 -6.542765 12.344443
2.866293 -11.541411 17.740636
2.924772 -11.768052 18.541727
3.092260 -12.416789 19.714489
3.252000 -13.036016 22.331958
3.317610 -13.290422 23.635372
2.974953 -11.965466 28.101908
2.949943 -11.869127 29.529695
2.981260 -11.990533 30.067589
2.218380 -10.951251 -6.901848
2.216876 -10.944430 -6.284978
2.197464 -10.853556 -5.397762
2.188519 -10.811695 -4.951461
2.162129 -10.687963 -4.232786
2.128822 -10.531782 -3.377052
2.094521 -10.370802 -2.822679
2.085270 -10.327683 -1.938134
2.073714 -10.273606 -1.356056
2.055885 -10.190107 -0.636834
1.951864 -9.701564 0.125698
1.842936 -9.189849 0.596572
1.768801 -8.841718 1.259742
1.730683 -8.662926 2.111015
1.706480 -8.549411 2.682046
1.651809 -8.292818 3.518947
1.625018 -8.167199 4.235318
1.574532 -7.930278 5.079626
1.535211 -7.745714 5.642221
1.472085 -7.449333 6.336375
1.389849 -7.063143 7.023249
1.288437 -6.586830 7.706039
1.229882 -6.311940 8.419656
1.255794 -6.434012 9.176404
1.262739 -6.466945 9.921166
1.250649 -6.410425 10.657134
1.196832 -6.157860 11.527881
1.188426 -6.118648 12.267229
1.371321 -6.978350 12.751387
1.615339 -8.125411 13.518681
1.817360 -9.075372 14.962073
1.941646 -9.659677 15.528467
2.090973 -10.362037 17.049763
2.387173 -11.755082 19.726437
2.542714 -12.486290 20.347106
2.512967 -12.346768 21.032710
2.627057 -12.883121 21.519917
2.724204 -13.339908 22.139183
2.654153 -13.011253 23.519861
2.577264 -12.651680 27.952254
2.350304 -11.585352 28.602658
2.305972 -11.377372 29.502103
2.453632 -12.071459 29.909775
1.583976 -10.048514 -7.368111
1.582037 -10.037331 -6.741569
1.581116 -10.032180 -6.116619
1.573588 -9.987929 -5.355182
1.576135 -10.003494 -4.427004
1.571948 -9.979044 -3.669966
1.585219 -10.058113 -2.886849
1.600076 -10.146581 -2.107842
1.568308 -9.958595 -1.410588
1.441147 -9.204999 -0.859939
1.395518 -8.934833 -0.175948
1.399700 -8.960006 0.580002
1.356630 -8.705009 1.268790
1.293585 -8.331659 2.082802
1.257861 -8.120146 2.638540
1.230404 -7.957798 3.500803
1.213081 -7.855389 4.079240
1.205210 -7.809163 4.960859
1.169971 -7.600609 5.668956
1.103059 -7.204266 6.352918
1.023960 -6.735598 6.886473
0.956288 -6.334829 7.732189
0.945194 -6.269357 8.325006
0.932583 -6.194964 9.064955
0.937901 -6.226864 9.814187
0.961194 -6.365327 10.569322
0.917994 -6.109652 11.439928
0.906573 -6.042609 12.771906
1.429750 -9.145272 14.878368
1.598023 -10.143910 16.971338
1.809054 -11.396672 20.352611
1.987218 -12.453802 22.158032
2.290575 -14.254044 25.796758
1.141026 -9.855319 -7.260322
1.151412 -9.937557 -6.595349
1.144824 -9.886170 -5.827281
1.145728 -9.893910 -4.891475
1.153736 -9.957501 -4.098076
1.168184 -10.071713 -3.446791
1.171361 -10.097146 -2.826989
1.158292 -9.994692 -2.097916
1.027382 -8.964202 -1.319506
0.943199 -8.301594 -0.725907
0.974224 -8.546385 -0.052565
0.952904 -8.378945 0.666848
0.916393 -8.091954 1.509314
0.888608 -7.873494 2.070788
0.882619 -7.826819 2.816637
0.852918 -7.593367 3.525947
0.836597 -7.465315 4.255784
0.821297 -7.345292 4.987006
0.804326 -7.212210 5.863917
0.766307 -6.913251 6.571127
0.706549 -6.442977 7.113157
0.657703 -6.058745 7.821456
0.632948 -5.864363 8.705246
0.623867 -5.793340 9.454073
0.640945 -5.928343 10.219375
0.647831 -5.982978 10.827022
0.578841 -5.440103 11.545044
0.560260 -5.294356 12.442300
0.669694 -6.156742 13.228215
0.856758 -7.630316 13.721459
1.297615 -11.104774 17.394164
1.507539 -12.760054 20.421341
1.469209 -12.459527 22.473613
1.491715 -12.637211 23.130364
1.571021 -13.264415 27.116636
0.737574 -10.130926 -7.619672
0.740036 -10.161151 -6.817604
0.755153 -10.342582 -6.124458
0.763277 -10.440660 -5.161703
0.760325 -10.406126 -4.402848
0.753676 -10.327215 -3.812593
0.752067 -10.308733 -3.056379
0.723893 -9.972702 -2.245347
0.651409 -9.106638 -1.723295
0.587341 -8.341234 -1.160414
0.588413 -8.354812 -0.392378
0.582120 -8.280312 0.350602
0.562920 -8.051320 0.907348
0.547181 -7.864017 1.773926
0.534770 -7.716358 2.499510
0.523028 -7.576701 3.226686
0.509851 -7.420028 4.099364
0.493334 -7.223121 4.669261
0.481750 -7.085504 5.546508
0.481073 -7.078145 6.294300
0.448030 -6.683792 6.990200
0.400497 -6.116043 7.523605
0.376818 -5.833668 8.246768
0.377487 -5.842564 9.151568
0.381237 -5.888008 9.760042
0.408530 -6.215218 10.683413
0.405108 -6.174901 11.279981
0.350877 -5.527397 12.140553
0.340206 -5.400421 12.739071
0.635229 -8.930407 15.597528
0.702227 -9.732103 16.300916
0.794620 -10.837244 16.843101
0.837736 -11.353391 17.518876
0.956609 -12.779211 22.180340
1.027706 -13.630434 23.417366
1.086512 -14.335512 25.443513
0.327132 -10.827544 -7.134616
0.328524 -10.863691 -6.341532
0.332185 -10.955811 -5.688422
0.328667 -10.870407 -4.797158
0.312010 -10.458707 -4.163430
0.295610 -10.053389 -3.523068
0.267862 -9.366555 -2.959352
0.246492 -8.838282 -2.188478
0.246480 -8.839547 -1.421906
0.244369 -8.788438 -0.822969
0.233258 -8.514383 -0.130183
0.226372 -8.345132 0.589057
0.223743 -8.281465 1.331434
0.213564 -8.030529 2.032939
0.207644 -7.885215 2.757404
0.198084 -7.649640 3.465380
0.188872 -7.422679 4.171383
0.183942 -7.301944 4.896808
0.178456 -7.167708 5.768101
0.166249 -6.866492 6.469228
0.147103 -6.392860 7.004650
0.131422 -6.005507 7.706597
0.132065 -6.023001 8.457828
0.132483 -6.035193 9.354794
0.129848 -5.971390 10.095149
0.131992 -6.025792 10.696001
0.125929 -5.876964 11.430304
0.119886 -5.728942 12.315036
0.142957 -6.302260 12.934056
0.389548 -12.435913 22.445406
0.419055 -13.171240 24.246333
-0.147079 -11.008819 -6.741095
-0.144509 -10.247105 -6.383979
-0.142122 -9.534817 -5.843774
-0.142043 -9.493045 -5.075725
-0.142324 -9.555926 -4.279736
-0.141978 -9.436891 -3.544806
-0.141662 -9.326283 -2.809666
-0.141586 -9.282306 -1.908005
-0.141447 -9.227032 -1.313755
-0.140660 -8.983354 -0.768953
-0.139680 -8.676130 0.061333
-0.138738 -8.379608 0.896896
-0.138687 -8.350231 1.494736
-0.137895 -8.101189 2.194034
-0.137465 -7.957856 2.916051
-0.136649 -7.698255 3.765184
-0.136013 -7.497967 4.331094
-0.135664 -7.378255 5.059638
-0.135283 -7.245469 5.933875
-0.134372 -6.964814 6.493495
-0.132407 -6.372855 7.165834
-0.131487 -6.085777 7.884030
-0.132635 -6.403272 8.668737
-0.133134 -6.531030 9.423305
-0.133975 -6.755393 10.327749
-0.133193 -6.512590 10.900691
-0.130689 -5.758412 11.742631
-0.133376 -6.533780 12.229932
-0.139114 -8.160752 14.463010
-0.143064 -9.262899 16.735213
-0.146224 -10.175527 17.275057
-0.158504 -13.631043 23.129928
-0.155075 -12.610093 23.803743
-0.154362 -12.279393 28.835309
-0.154834 -12.331417 32.390694
-0.553349 -9.708399 -7.303447
-0.552848 -9.695725 -6.361626
-0.555056 -9.742596 -5.562489
-0.559733 -9.843712 -4.905853
-0.560349 -9.856065 -4.282439
-0.553086 -9.695600 -3.411829
-0.549974 -9.626440 -2.819043
-0.545361 -9.524192 -2.087124
-0.530626 -9.200348 -1.266133
-0.516373 -8.887047 -0.439646
-0.517450 -8.909230 0.319626
-0.511458 -8.777106 0.891583
-0.499848 -8.521855 1.585048
-0.494368 -8.400939 2.160388
-0.482136 -8.131814 3.002329
-0.467068 -7.800924 3.688268
-0.456833 -7.575733 4.396682
-0.445927 -7.335604 5.252820
-0.440986 -7.226184 5.982965
-0.427358 -6.926776 6.687881
-0.392218 -6.157114 7.190933
-0.387520 -6.052710 8.080979
-0.406732 -6.471567 8.874661
-0.408753 -6.514697 9.476917
-0.410496 -6.551476 10.223799
-0.398512 -6.287728 11.095144
-0.374087 -5.752358 11.661291
-0.408876 -6.511995 12.445516
-0.453200 -7.480259 13.219519
-0.475252 -7.961597 13.816809
-0.515720 -8.845566 14.549445
-0.552082 -9.638479 15.962302
-0.576339 -10.166395 17.486431
-0.687066 -12.584491 19.824671
-0.685396 -12.546486 20.633277
-0.701766 -12.898799 23.833544
-0.708135 -13.029471 28.603669
-0.702868 -12.910397 30.731346
-0.964541 -9.824291 -7.417688
-0.967500 -9.857539 -6.614754
-0.979538 -9.995124 -5.783498
-0.996370 -10.187942 -5.095982
-0.989799 -10.111549 -4.197992
-0.987974 -10.089846 -3.443014
-0.982045 -10.021142 -2.855945
-0.958274 -9.746964 -1.879897
-0.936835 -9.500016 -1.343277
-0.921127 -9.318788 -0.639163
-0.906092 -9.145288 0.066910
-0.891731 -8.979538 0.774856
-0.878046 -8.821557 1.484588
-0.859078 -8.602999 2.034412
-0.827185 -8.235617 2.851735
-0.798432 -7.904464 3.533494
-0.770299 -7.580419 4.221035
-0.759908 -7.460294 4.946011
-0.750210 -7.348123 5.672268
-0.725768 -7.066635 6.227573
-0.664103 -6.357052 7.027511
-0.639176 -6.069837 7.742818
-0.659345 -6.301084 8.369048
-0.676460 -6.496796 9.428439
-0.689337 -6.644233 10.035380
-0.667205 -6.389151 10.756096
-0.619050 -5.834806 11.611145
-1.035760 -10.619591 17.009915
-1.172889 -12.193953 18.998009
-1.207742 -12.593175 20.456044
-1.143775 -11.857188 21.199459
-1.170227 -12.159439 23.085906
-1.272289 -13.332111 23.614219
-1.377278 -9.762923 -7.088065
-1.412728 -10.035642 -6.361722
-1.425172 -10.130917 -5.398218
-1.431941 -10.182773 -4.915346
-1.428059 -10.152369 -4.158523
-1.420045 -10.090034 -3.265541
-1.381550 -9.792952 -2.594748
-1.339099 -9.465294 -1.780280
-1.324479 -9.352355 -1.354640
-1.326037 -9.363874 -0.599412
-1.299404 -9.158086 0.246760
-1.261668 -8.866752 1.073159
-1.245598 -8.742553 1.643153
-1.213856 -8.497490 2.335557
-1.170430 -8.162404 3.012850
-1.127915 -7.834332 3.695988
-1.083221 -7.489377 4.528608
-1.058374 -7.297534 5.095114
-1.046883 -7.208610 5.678920
-1.005445 -6.888735 6.525792
-0.903850 -6.105403 7.172012
-0.879788 -5.919505 7.902057
-0.906063 -6.121394 8.822583
-0.911631 -6.163912 9.425776
-0.903549 -6.101157 10.166288
-0.870840 -5.848622 10.893718
-0.825230 -5.496577 11.768452
-1.339751 -9.459003 15.797414
-1.443901 -10.261074 16.626602
-1.446516 -10.280690 17.458790
-1.559477 -11.149177 20.595314
-1.780639 -12.852726 21.798944
-1.839453 -13.304616 23.895640
-1.846792 -13.360916 24.293919
-1.665659 -11.960211 31.824363
-1.831432 -9.909671 -7.691307
-1.852862 -10.032708 -6.858037
-1.843732 -9.979749 -6.095041
-1.852408 -10.029344 -5.302290
-1.862752 -10.088545 -4.513289
-1.874751 -10.157277 -3.728153
-1.846088 -9.991905 -3.169553
-1.795077 -9.697748 -2.498306
-1.771877 -9.563690 -1.631296
-1.746389 -9.416600 -1.067454
-1.715804 -9.240084 -0.362608
-1.680916 -9.038710 0.484326
-1.641940 -8.813939 1.030839
-1.581858 -8.467530 1.700542
-1.551640 -8.293057 2.557646
-1.511090 -8.059140 3.256335
-1.433839 -7.613766 4.067161
-1.362305 -7.201390 4.743503
-1.346515 -7.110154 5.326591
-1.290670 -6.788067 6.171980
-1.239870 -6.495106 6.878368
-1.139394 -5.916020 7.554874
-1.110847 -5.751302 8.138459
-1.112265 -5.759033 9.039240
-1.134883 -5.888949 9.799613
-1.107783 -5.732494 10.534138
-1.083663 -5.593272 11.123628
-1.023538 -5.246512 12.001106
-1.677622 -9.011806 16.869654
-1.886772 -10.216158 17.675928
-2.099948 -11.443586 18.725260
-2.369632 -12.995381 22.110117
-2.346054 -12.858907 23.472052
-2.192319 -11.972971 24.276463
-2.307396 -12.635621 24.726226
-2.331361 -12.772681 26.756229
-2.139534 -11.667214 27.805781
-2.062869 -11.225223 28.605755
-2.138445 -11.659214 31.370157
-2.092559 -11.394445 32.311139
-2.101821 -11.447521 32.882662
-2.232592 -9.695641 -7.632128
-2.249619 -9.773232 -6.966968
-2.298386 -9.995869 -6.102017
-2.288696 -9.951270 -5.338943
-2.310706 -10.051650 -4.685009
-2.316026 -10.075613 -3.759351
-2.279981 -9.910593 -3.198138
-2.216017 -9.617880 -2.524317
-2.186786 -9.483893 -1.654648
-2.139388 -9.266853 -0.809295
-2.108948 -9.127456 -0.240848
-2.072540 -8.960717 0.468993
-2.016956 -8.706310 1.158917
-1.969359 -8.488474 1.711489
-1.931506 -8.315070 2.570039
-1.859756 -7.986751 3.251885
-1.763124 -7.544619 4.065481
-1.694740 -7.231684 4.760747
-1.649054 -7.022526 5.476723
-1.583871 -6.724224 6.182188
-1.524351 -6.451866 6.747372
-1.398426 -5.875854 7.427320
-1.337706 -5.597949 8.151801
-1.363714 -5.716567 8.920596
-1.391581 -5.843684 9.685797
-1.355144 -5.676745 10.565254
-1.259116 -5.237412 11.281591
-1.207396 -5.000652 12.017499
-1.180048 -4.875383 12.612953
-1.808519 -7.747973 14.893943
-2.042928 -8.819456 15.610613
-2.216891 -9.614356 16.864961
-2.349967 -10.222488 17.680059
-2.795087 -12.257004 19.349539
-2.730988 -11.963404 20.716670
-2.707451 -11.854733 23.444048
-2.753770 -12.065673 25.603930
-2.731087 -11.961740 26.173894
-2.664011 -11.654444 27.762146
-2.624419 -11.471693 32.222024
-2.648013 -9.610570 -7.392380
-2.680979 -9.735288 -6.560246
-2.716644 -9.870240 -5.733750
-2.754979 -10.015318 -4.913023
-2.760715 -10.036765 -3.990505
-2.776816 -10.097655 -3.513092
-2.738678 -9.952780 -2.652911
-2.713201 -9.855951 -1.930088
-2.665171 -9.673624 -1.232842
-2.594375 -9.404986 -0.558068
-2.525411 -9.143293 0.120792
-2.483152 -8.982843 0.826030
-2.393036 -8.640959 1.490468
-2.329653 -8.400424 2.181127
-2.243125 -8.072141 2.856429
-2.183480 -7.845776 3.555643
-2.106935 -7.555385 4.098343
-1.994416 -7.128512 4.917201
-1.915212 -6.827989 5.615499
-1.832814 -6.515310 6.464819
-1.787784 -6.344394 7.041307
-1.663668 -5.873594 7.731912
-1.537473 -5.394860 8.580210
-1.573304 -5.530510 9.198119
-1.604376 -5.648024 10.107836
-1.539335 -5.401186 10.838430
-1.476313 -5.162007 11.573987
-1.389856 -4.833974 12.309702
-1.407383 -4.900180 13.066886
-2.289194 -8.242848 15.053637
-2.340059 -8.435422 15.905918
-2.316625 -8.346343 16.617156
-2.479629 -8.963906 18.014930
-3.168355 -11.574573 19.804472
-3.345322 -12.244273 23.663444
-3.348728 -12.256923 24.476237
-3.131091 -11.431055 26.683401
-3.138209 -11.457817 27.377226
-3.229274 -11.802833 28.145512
-3.379871 -12.372708 31.532971
-3.208316 -10.058401 -6.961682
-3.275273 -10.275849 -6.101364
-3.317651 -10.413395 -5.280452
-3.320012 -10.420898 -4.662917
-3.283559 -10.302178 -3.940463
-3.221382 -10.099837 -3.246380
-3.166753 -9.921945 -2.247534
-3.160561 -9.901689 -1.798909
-3.123228 -9.780070 -0.937601
-3.070867 -9.609637 -0.238201
-2.953924 -9.229210 0.556016
-2.886941 -9.011283 1.100253
-2.812468 -8.768964 1.787483
-2.703016 -8.412886 2.599640
-2.641174 -8.211673 3.154619
-2.544267 -7.896419 3.836541
-2.456573 -7.611155 4.381416
-2.327767 -7.192154 5.202150
-2.208128 -6.802993 5.887870
-2.090590 -6.420660 6.581333
-1.794826 -5.458859 7.356843
-1.715873 -5.202006 7.935579
-1.834387 -5.587049 8.884891
-1.876417 -5.723522 9.502463
-1.825409 -5.557436 10.387789
-1.663246 -5.030014 11.102824
-1.593797 -4.804056 11.696404
-1.582587 -4.767398 12.452572
-1.807472 -5.498275 13.383988
-2.125976 -6.533612 14.009680
-3.005608 -9.392722 16.612972
-3.130292 -9.797818 17.580261
-3.311006 -10.385240 17.979435
-3.419475 -10.737509 19.343234
-3.422657 -10.747429 20.853926
-4.115983 -13.000903 23.168672
-3.966904 -12.516014 23.905120
-3.913568 -12.342371 24.741152
-3.712167 -11.687360 25.531545
-3.616507 -11.375749 27.669892
-3.636153 -11.439389 28.496791
-3.778082 -10.282611 -7.178346
-3.885169 -10.583093 -6.287944
-3.900941 -10.627185 -5.503631
-3.856179 -10.501316 -4.785097
-3.860572 -10.513500 -4.172062
-3.807103 -10.363149 -3.318058
-3.751889 -10.207971 -2.764162
-3.737207 -10.166524 -1.881306
-3.738823 -10.170878 -1.137148
-3.690096 -10.033916 -0.581531
-3.587856 -9.746624 0.226365
-3.467074 -9.407307 0.878787
-3.381324 -9.166353 1.558749
-3.307797 -8.959752 2.103129
-3.193551 -8.638783 2.770713
-3.040035 -8.207512 3.564144
-2.873311 -7.739226 4.065941
-2.766124 -7.438074 4.751424
-2.580438 -6.916433 5.700421
-2.445803 -6.538204 6.386983
-2.413416 -6.447083 7.118857
-2.217092 -5.895635 7.794440
-2.123179 -5.631747 8.512995
-2.203497 -5.857129 9.136532
-2.147844 -5.700674 9.867796
-1.994486 -5.269867 10.580047
-1.907607 -5.025692 11.462589
-1.862964 -4.900187 12.058111
-1.749038 -4.580061 12.946309
-2.440804 -6.522204 14.343442
-2.538152 -6.795341 15.221551
-2.873445 -7.736740 15.659244
-3.210712 -8.683615 16.363764
-3.491996 -9.473089 17.886397
-3.794246 -10.321343 19.783711
-3.864144 -10.517280 21.147896
-3.924184 -10.685673 21.957767
-4.298511 -11.736548 22.931326
-4.464141 -12.201287 24.359942
-4.567750 -12.490492 31.367524
-4.450544 -10.710359 -6.604809
-4.449342 -10.707184 -5.688457
-4.415443 -10.623253 -5.108815
-4.331511 -10.415610 -4.424430
-4.322073 -10.392114 -3.678565
-4.351910 -10.465703 -2.906107
-4.313155 -10.369739 -2.192570
-4.313641 -10.370776 -1.452649
-4.208552 -10.110834 -0.790767
-4.106104 -9.857422 -0.124766
-3.969837 -9.520405 0.522137
-3.872642 -9.279976 1.197227
