-1.469924 -1.128968 1.310971
-2.018473 0.882378 1.327982
1.821369 0.333829 1.456980
-0.372827 -1.612943 1.561175
-0.315275 -1.586092 1.561175
-0.281402 -1.571856 1.561175
-0.189977 -1.572011 1.561175
-0.098552 -1.591326 1.561175
-0.126601 -1.586092 1.561175
-0.081525 -1.586092 1.561175
-0.007127 -1.556256 1.561175
0.084298 -1.588804 1.561175
0.070720 -1.586092 1.561175
0.087324 -1.586092 1.561175
0.084298 -1.541261 1.561175
0.064472 -1.494668 1.561175
0.084298 -1.489713 1.561175
0.175723 -1.477134 1.561175
0.267148 -1.437221 1.561175
0.320066 -1.403243 1.561175
0.358572 -1.381051 1.561175
0.449997 -1.357746 1.561175
0.541422 -1.323497 1.561175
0.577254 -1.311818 1.561175
0.632847 -1.289568 1.561175
0.724272 -1.241519 1.561175
0.761131 -1.220393 1.561175
0.815696 -1.188840 1.561175
0.869808 -1.128968 1.561175
0.907121 -1.079990 1.561175
-0.189977 -1.586092 1.505150
0.084298 -1.586092 1.508676
0.724272 -1.220393 1.547006
-0.372827 -1.616409 1.652600
-0.281402 -1.613749 1.652600
-0.189977 -1.594185 1.652600
-0.098552 -1.592697 1.652600
-0.037230 -1.586092 1.652600
-0.007127 -1.581118 1.652600
0.084298 -1.555728 1.652600
0.148176 -1.494668 1.652600
0.175723 -1.476198 1.652600
0.267148 -1.419907 1.652600
0.358572 -1.403550 1.652600
0.359715 -1.403243 1.652600
0.449997 -1.356928 1.652600
0.534264 -1.311818 1.652600
0.541422 -1.308647 1.652600
0.632847 -1.250034 1.652600
0.724272 -1.227669 1.652600
0.739847 -1.220393 1.652600
0.815696 -1.157441 1.652600
0.848063 -1.128968 1.652600
0.907121 -1.080709 1.652600
-0.281402 -1.586092 1.593560
-0.189977 -1.586092 1.639779
0.084298 -1.586092 1.584170
0.084298 -1.494668 1.564578
0.358572 -1.403243 1.651621
0.541422 -1.311818 1.634707
-1.469924 -1.336006 1.652600
0.175723 2.068794 1.652600
1.053936 -0.946119 1.652600
-1.592751 -1.311818 1.652600
0.358572 2.069469 1.652600
-1.652774 1.090488 1.652600
-1.287075 -1.398628 1.652600
1.089971 -0.900163 1.652600
0.541422 2.038985 1.652600
-1.469924 1.151707 1.652600
-1.104225 -1.431314 1.652600
1.181076 -0.763269 1.652600
0.724272 1.884750 1.652600
-0.921375 -1.479643 1.652600
-1.287075 1.166337 1.652600
1.272820 -0.618037 1.652600
0.644361 1.979475 1.652600
0.907121 1.811743 1.652600
-0.738525 -1.582298 1.652600
-0.891379 -1.494668 1.652600
-1.104225 1.193083 1.652600
1.295803 -0.580420 1.652600
1.089971 1.728161 1.652600
-0.555676 -1.643711 1.652600
0.962869 1.796626 1.652600
-0.933401 1.248077 1.652600
1.413268 -0.397570 1.652600
1.176013 1.613776 1.652600
1.455670 -0.290209 1.652600
1.490672 -0.214720 1.652600
-0.921375 1.255932 1.652600
-2.201323 -1.156153 1.652600
-0.738525 1.410556 1.652600
-2.222402 -1.128968 1.652600
1.569088 -0.031871 1.652600
-0.555676 1.420720 1.652600
-2.018473 -1.276245 1.652600
1.638520 0.084110 1.652600
-2.325507 -0.946119 1.652600
-0.539824 1.430926 1.652600
1.699640 0.150979 1.652600
-2.345186 -0.763269 1.652600
-0.374325 1.613776 1.652600
-2.313836 -0.580420 1.652600
-0.372827 1.614685 1.652600
-2.255374 0.150979 1.652600
-2.297443 -0.214720 1.652600
-0.189977 1.794010 1.652600
-2.262360 0.333829 1.652600
-2.295908 -0.031871 1.652600
-2.201323 0.494912 1.652600
-1.652774 -1.303916 1.652600
-2.190290 0.516678 1.652600
1.272820 1.404727 1.652600
1.257613 1.430926 1.652600
-2.130070 0.699528 1.652600
-2.018473 0.812645 1.652600
1.821369 0.265378 1.652600
-1.893737 0.882378 1.652600
1.864089 0.333829 1.652600
1.988637 0.516678 1.652600
-1.835624 0.926348 1.652600
-1.693070 1.065228 1.652600
1.933861 0.699528 1.652600
1.821369 0.848170 1.652600
1.795733 0.882378 1.652600
1.455670 1.196186 1.652600
1.408319 1.248077 1.652600
1.638520 1.070796 1.652600
1.643338 1.065228 1.652600
-0.187732 1.796626 1.652600
-0.024180 1.979475 1.652600
-0.007127 1.992095 1.652600
-1.835624 -1.303396 1.652600
-2.295786 -0.397570 1.652600
0.175723 1.979475 1.475872
-1.469924 -1.311818 1.583330
-0.555676 1.430926 1.574238
0.358572 1.979475 1.473544
-0.372827 1.613776 1.647943
0.541422 1.979475 1.491377
-2.201323 -1.128968 1.626811
-2.018473 0.882378 1.477173
-2.018473 -1.128968 1.503831
1.272820 1.430926 1.583486
-2.201323 -0.946119 1.495211
1.638520 1.065228 1.630088
1.455670 1.248077 1.650585
-0.007127 1.979475 1.632198
-0.189977 -1.605164 1.744025
-0.098552 -1.589808 1.744025
-0.081056 -1.586092 1.744025
-0.007127 -1.570162 1.744025
0.084298 -1.535249 1.744025
0.175723 -1.495495 1.744025
0.178185 -1.494668 1.744025
0.237470 -1.403243 1.744025
0.358572 -1.404803 1.744025
0.333651 -1.403243 1.744025
0.267148 -1.394047 1.744025
0.380433 -1.403243 1.744025
0.449997 -1.369569 1.744025
0.504437 -1.311818 1.744025
0.541422 -1.288017 1.744025
0.632847 -1.231230 1.744025
0.650990 -1.220393 1.744025
0.724272 -1.176772 1.744025
0.797456 -1.128968 1.744025
0.175723 -1.494668 1.686491
0.267148 -1.403243 1.701607
0.724272 -1.220393 1.670649
0.815696 -1.128968 1.714345
-0.189977 -1.589711 1.835449
-0.171756 -1.586092 1.835449
-0.098552 -1.569326 1.835449
-0.007127 -1.538183 1.835449
0.084298 -1.502959 1.835449
0.105732 -1.494668 1.835449
0.175723 -1.439227 1.835449
0.221206 -1.403243 1.835449
0.267148 -1.387704 1.835449
0.358572 -1.371275 1.835449
0.449997 -1.314871 1.835449
0.454215 -1.311818 1.835449
0.541422 -1.253064 1.835449
0.596444 -1.220393 1.835449
0.632847 -1.197847 1.835449
0.724272 -1.132612 1.835449
0.729345 -1.128968 1.835449
-0.555676 -1.598204 1.835449
-0.464251 -1.622727 1.835449
-0.372827 -1.625858 1.835449
-0.281402 -1.604059 1.835449
-0.098552 -1.586092 1.767694
0.175723 -1.494668 1.752701
0.358572 -1.403243 1.750884
0.632847 -1.220393 1.777919
-2.018473 -1.437193 1.835449
-2.168158 -1.311818 1.835449
-2.189970 0.516678 1.835449
1.893981 0.516678 1.835449
-2.105239 0.699528 1.835449
1.876445 0.699528 1.835449
0.907121 -1.014239 1.835449
1.821369 0.838549 1.835449
1.802571 0.882378 1.835449
-1.835624 -1.419571 1.835449
1.638520 1.208247 1.835449
1.604389 1.248077 1.835449
1.025742 -0.946119 1.835449
-1.652774 -1.377528 1.835449
1.695733 1.065228 1.835449
-2.018473 0.760478 1.835449
1.089971 -0.834525 1.835449
1.455670 1.332220 1.835449
-1.469924 -1.363753 1.835449
-1.890072 0.882378 1.835449
1.324481 1.430926 1.835449
1.124376 -0.763269 1.835449
-1.287075 -1.417408 1.835449
1.272820 1.565172 1.835449
-1.835624 0.926562 1.835449
1.272820 -0.584891 1.835449
-1.104225 -1.410923 1.835449
-1.683655 1.065228 1.835449
-0.921375 -1.468588 1.835449
-1.652774 1.090235 1.835449
-0.189977 2.086186 1.835449
-0.738525 -1.562752 1.835449
-0.007127 2.153708 1.835449
-0.879109 -1.494668 1.835449
0.175723 2.155203 1.835449
-1.469924 1.155205 1.835449
0.322543 2.162325 1.835449
-1.287075 1.176965 1.835449
0.541422 2.048366 1.835449
-2.384172 -1.026155 1.835449
0.375088 2.162325 1.835449
-2.389124 -0.946119 1.835449
-1.104225 1.174015 1.835449
0.358572 2.167829 1.835449
-2.384172 -0.780500 1.835449
-0.958247 1.248077 1.835449
0.724272 1.906971 1.835449
-2.201323 -1.279448 1.835449
-0.921375 1.274518 1.835449
-2.358821 -1.128968 1.835449
0.640590 1.979475 1.835449
0.907121 1.806551 1.835449
-0.738525 1.414033 1.835449
-2.380615 -0.763269 1.835449
1.089971 1.706438 1.835449
-0.712505 1.430926 1.835449
-2.309327 -0.580420 1.835449
0.930855 1.796626 1.835449
1.275675 -0.580420 1.835449
-0.555676 1.524794 1.835449
1.247658 1.613776 1.835449
-2.263110 -0.397570 1.835449
-0.469252 1.613776 1.835449
-0.372827 1.724766 1.835449
-2.274501 -0.214720 1.835449
-2.303260 -0.031871 1.835449
-0.304338 1.796626 1.835449
1.385067 -0.397570 1.835449
-2.257149 0.150979 1.835449
-0.272077 1.979475 1.835449
1.455670 -0.304238 1.835449
1.518320 -0.214720 1.835449
1.588140 -0.031871 1.835449
1.659982 0.150979 1.835449
1.638520 0.119743 1.835449
1.821369 0.319828 1.835449
1.830055 0.333829 1.835449
-2.257571 0.333829 1.835449
-2.201323 0.491649 1.835449
-2.018473 -1.311818 1.685910
-1.835624 -1.311818 1.662868
-1.652774 -1.311818 1.675488
1.455670 1.248077 1.737741
-0.555676 1.430926 1.709269
1.272820 1.430926 1.767714
-2.384172 -0.946119 1.782198
-0.189977 1.796626 1.657089
-0.189977 1.979475 1.771009
0.358572 2.162325 1.822203
-0.555676 -1.586431 1.926874
-0.464251 -1.595590 1.926874
-0.372827 -1.594486 1.926874
-0.281402 -1.602344 1.926874
-0.209761 -1.586092 1.926874
-0.189977 -1.576316 1.926874
-0.098552 -1.530442 1.926874
-0.028186 -1.494668 1.926874
-0.189977 -1.586092 1.871253
-0.007127 -1.494668 1.909265
-0.555676 -1.564413 2.018299
-0.464251 -1.574058 2.018299
-0.372827 -1.573896 2.018299
-0.281402 -1.556694 2.018299
-0.189977 -1.526415 2.018299
-0.108698 -1.494668 2.018299
-0.555676 -1.586092 1.928723
-0.464251 -1.586092 1.969780
-0.372827 -1.586092 1.965857
-0.281402 -1.586092 1.969978
-0.098552 -1.494668 2.004354
-0.007127 -1.433471 2.018299
-2.201323 -1.331775 2.018299
-2.154511 0.516678 2.018299
0.175723 -1.340427 2.018299
-2.018473 0.696977 2.018299
-2.220105 -1.311818 2.018299
1.931306 0.516678 2.018299
0.277408 -1.311818 2.018299
-2.016526 0.699528 2.018299
-2.018473 -1.408735 2.018299
1.969208 0.699528 2.018299
-1.835624 -1.534253 2.018299
-1.845195 0.882378 2.018299
-1.915322 -1.494668 2.018299
1.874091 0.882378 2.018299
0.358572 -1.290308 2.018299
-1.835624 0.890655 2.018299
-1.676108 -1.494668 2.018299
1.821369 0.927789 2.018299
-1.652774 1.025918 2.018299
-1.652774 -1.467080 2.018299
1.722521 1.065228 2.018299
0.541422 -1.171447 2.018299
-1.616606 1.065228 2.018299
-1.469924 1.156345 2.018299
-1.469924 -1.330590 2.018299
0.600809 -1.128968 2.018299
1.651358 1.248077 2.018299
-1.287075 1.193172 2.018299
-1.287075 -1.315801 2.018299
0.724272 -1.012577 2.018299
-1.104225 1.199031 2.018299
1.638520 1.301390 2.018299
-0.985208 1.248077 2.018299
-1.104225 -1.472144 2.018299
-0.921375 1.284474 2.018299
1.514636 1.430926 2.018299
-0.921375 -1.465873 2.018299
-0.738525 1.406555 2.018299
1.272820 1.588924 2.018299
-0.705270 1.430926 2.018299
-0.738525 -1.550270 2.018299
1.455670 1.446230 2.018299
-0.852240 -1.494668 2.018299
-0.555676 1.560167 2.018299
-0.443970 1.613776 2.018299
-0.403948 1.796626 2.018299
-2.285264 -1.128968 2.018299
-0.372827 1.946552 2.018299
-2.343529 -0.946119 2.018299
-0.189977 2.166140 2.018299
-0.362867 1.979475 2.018299
0.847485 -0.946119 2.018299
-0.007127 2.215372 2.018299
-0.207393 2.162325 2.018299
-2.360762 -0.763269 2.018299
0.907121 -0.918155 2.018299
0.175723 2.210080 2.018299
-2.231092 -0.580420 2.018299
1.235901 1.613776 2.018299
1.089971 -0.784027 2.018299
0.541422 2.040230 2.018299
-2.212750 -0.397570 2.018299
1.110540 -0.763269 2.018299
1.702695 0.150979 2.018299
-2.201323 -0.315260 2.018299
1.821369 0.307490 2.018299
-2.186685 -0.214720 2.018299
1.263798 -0.580420 2.018299
1.839809 0.333829 2.018299
-2.169848 -0.031871 2.018299
0.372049 2.162325 2.018299
-2.201323 0.121382 2.018299
1.272820 -0.568647 2.018299
0.358572 2.170183 2.018299
-2.209941 0.150979 2.018299
1.383681 -0.397570 2.018299
1.455670 -0.284032 2.018299
1.495378 -0.214720 2.018299
0.907121 1.791245 2.018299
1.592835 -0.031871 2.018299
0.896472 1.796626 2.018299
1.638520 0.058118 2.018299
0.724272 1.900835 2.018299
-2.237757 0.333829 2.018299
0.629405 1.979475 2.018299
-2.201323 0.455529 2.018299
1.089971 1.694597 2.018299
-2.201323 -1.311818 1.846112
-2.018473 0.699528 2.012513
0.358572 -1.311818 1.968626
1.821369 0.882378 1.912523
-1.835624 -1.494668 1.959152
-1.652774 1.065228 1.917711
0.724272 -1.128968 1.841329
-2.384172 -0.946119 1.925777
0.907121 -0.946119 1.967968
-0.372827 1.796626 1.927764
1.638520 1.248077 1.937274
-2.201323 -0.214720 1.991200
-0.189977 2.162325 1.981768
-2.201323 -0.031871 1.951653
1.272820 -0.580420 1.867988
1.455670 1.430926 1.986081
-0.007127 2.162325 1.846630
0.175723 2.162325 1.846449
0.907121 1.796626 1.967868
-0.555676 -1.530634 2.109724
-0.464251 -1.538629 2.109724
-0.372827 -1.533553 2.109724
-0.281402 -1.536357 2.109724
-0.199332 -1.494668 2.109724
-0.189977 -1.487686 2.109724
-0.189977 -1.494668 2.098688
-0.555676 -1.484232 2.201149
-0.464251 -1.487431 2.201149
-0.372827 -1.490310 2.201149
-0.281402 -1.461624 2.201149
-0.189977 -1.435326 2.201149
-1.104225 1.196403 2.201149
-1.012800 1.244998 2.201149
-1.006979 1.248077 2.201149
-0.921375 1.293250 2.201149
-0.829950 1.334933 2.201149
-0.822926 1.339502 2.201149
-0.738525 1.400158 2.201149
-0.555676 -1.494668 2.179883
-0.464251 -1.494668 2.187321
-0.372827 -1.494668 2.190795
-0.281402 -1.494668 2.159745
-2.018473 -1.406633 2.201149
-0.007127 -1.336884 2.201149
-2.108030 -1.311818 2.201149
-2.049155 0.516678 2.201149
0.134959 -1.311818 2.201149
1.272820 1.611604 2.201149
-1.835624 -1.553960 2.201149
-2.018473 0.588354 2.201149
-1.924473 -1.494668 2.201149
1.269752 1.613776 2.201149
0.175723 -1.308107 2.201149
-1.652774 -1.529677 2.201149
-1.940992 0.699528 2.201149
0.358572 -1.274438 2.201149
1.701797 0.150979 2.201149
-1.835624 0.838769 2.201149
0.500390 -1.128968 2.201149
-1.551803 -1.494668 2.201149
1.821369 0.253143 2.201149
-1.793068 0.882378 2.201149
-1.469924 -1.452250 2.201149
0.541422 -1.104211 2.201149
1.895873 0.333829 2.201149
-1.287075 -1.407641 2.201149
0.724272 -1.011948 2.201149
-1.652774 1.013723 2.201149
-0.921375 -1.509505 2.201149
0.820273 -0.946119 2.201149
-0.998333 -1.494668 2.201149
2.004219 0.496859 2.201149
-1.104225 -1.440753 2.201149
0.907121 -0.855944 2.201149
-1.563112 1.065228 2.201149
1.083193 -0.763269 2.201149
-0.748126 -1.494668 2.201149
2.014369 0.516678 2.201149
-1.469924 1.088956 2.201149
-0.738525 -1.461671 2.201149
1.089971 -0.760180 2.201149
2.062659 0.699528 2.201149
-1.287075 1.123717 2.201149
1.264681 -0.580420 2.201149
-2.201323 -1.180065 2.201149
-2.227777 -1.128968 2.201149
2.045719 0.882378 2.201149
1.272820 -0.570572 2.201149
-2.274809 -0.946119 2.201149
1.405883 -0.397570 2.201149
-2.286833 -0.763269 2.201149
2.004219 0.926464 2.201149
-0.694209 1.430926 2.201149
1.851354 1.065228 2.201149
1.455670 -0.308878 2.201149
-0.555676 1.523284 2.201149
1.485883 -0.214720 2.201149
-0.458760 1.613776 2.201149
1.821369 1.133672 2.201149
-2.248072 -0.580420 2.201149
1.737500 1.248077 2.201149
1.519783 -0.031871 2.201149
-0.404386 1.796626 2.201149
1.638520 0.102170 2.201149
-2.201323 -0.449107 2.201149
1.638520 1.324995 2.201149
-0.372827 1.911616 2.201149
-2.176820 -0.397570 2.201149
1.503537 1.430926 2.201149
-2.104211 -0.214720 2.201149
-0.334684 1.979475 2.201149
1.455670 1.462000 2.201149
-2.138723 0.150979 2.201149
-2.040469 -0.031871 2.201149
-0.189977 2.098394 2.201149
-2.136438 0.333829 2.201149
0.541422 1.926132 2.201149
0.469379 1.979475 2.201149
-0.086172 2.162325 2.201149
0.175723 2.146514 2.201149
0.131391 2.162325 2.201149
-0.007127 2.181018 2.201149
0.358572 2.048132 2.201149
0.907121 1.756584 2.201149
0.797056 1.796626 2.201149
0.724272 1.826132 2.201149
1.089971 1.684132 2.201149
0.175723 -1.311818 2.138506
-2.201323 -1.311818 2.071856
2.004219 0.516678 2.179451
-1.835624 0.882378 2.056324
2.004219 0.699528 2.074067
0.541422 -1.128968 2.093608
-1.652774 -1.494668 2.087226
2.004219 0.882378 2.123229
1.089971 -0.763269 2.129191
1.821369 1.065228 2.163382
-0.921375 -1.494668 2.044186
-0.738525 -1.494668 2.148799
0.541422 1.979475 2.143807
-0.189977 2.162325 2.107686
-2.201323 0.150979 2.046157
0.175723 2.162325 2.180937
-2.201323 0.333829 2.126052
-2.201323 -0.397570 2.064931
0.358572 2.162325 2.038856
-1.104225 1.163934 2.292573
-1.012800 1.221866 2.292573
-0.975346 1.248077 2.292573
-0.921375 1.280818 2.292573
-0.829950 1.321292 2.292573
-0.795099 1.339502 2.292573
-0.738525 1.372468 2.292573
-1.104225 1.116449 2.383998
-1.042822 1.156652 2.383998
-0.921375 1.125100 2.383998
-0.955859 1.156652 2.383998
-1.012800 1.162230 2.383998
-0.921375 1.173137 2.383998
-0.950494 1.248077 2.383998
-1.012800 1.328821 2.383998
-1.024237 1.339502 2.383998
-0.921375 1.320065 2.383998
-0.990267 1.339502 2.383998
-1.012800 1.355700 2.383998
-0.904842 1.156652 2.383998
-0.829950 1.323368 2.383998
-0.763740 1.339502 2.383998
-0.738525 1.347634 2.383998
-1.104225 1.156652 2.307112
-0.921375 1.156652 2.374498
-1.012800 1.339502 2.295934
-2.018473 0.390590 2.383998
-2.018473 -1.334919 2.383998
-1.953174 0.516678 2.383998
-0.189977 -1.461345 2.383998
-2.032750 -1.311818 2.383998
-0.007127 -1.338947 2.383998
1.272820 1.503130 2.383998
-1.835624 -1.535805 2.383998
-1.846179 0.699528 2.383998
0.175723 -1.337465 2.383998
-1.892610 -1.494668 2.383998
1.130931 1.613776 2.383998
-1.652774 -1.599166 2.383998
0.328516 -1.311818 2.383998
-1.835624 0.720639 2.383998
-1.469924 -1.518616 2.383998
1.753572 0.150979 2.383998
0.358572 -1.290258 2.383998
-1.412038 -1.494668 2.383998
0.541422 -1.193469 2.383998
-1.652774 0.867375 2.383998
1.821369 0.177145 2.383998
-1.287075 -1.443830 2.383998
-1.104225 -1.397273 2.383998
0.623451 -1.128968 2.383998
1.961594 0.333829 2.383998
-0.921375 -1.411772 2.383998
0.724272 -1.073858 2.383998
2.004219 0.400127 2.383998
0.907121 -0.985155 2.383998
-0.738525 -1.462529 2.383998
0.958777 -0.946119 2.383998
-0.555676 -1.452774 2.383998
2.059926 0.516678 2.383998
-1.637265 0.882378 2.383998
-0.372827 -1.469502 2.383998
2.079629 0.699528 2.383998
2.009999 0.882378 2.383998
-2.133724 -1.128968 2.383998
-1.469924 1.001236 2.383998
-2.201323 -0.961114 2.383998
2.004219 0.899018 2.383998
-2.206498 -0.946119 2.383998
1.915140 1.065228 2.383998
-1.332815 1.065228 2.383998
-2.238744 -0.763269 2.383998
1.089971 -0.799646 2.383998
1.821369 1.170692 2.383998
-2.245508 -0.580420 2.383998
-1.287075 1.082583 2.383998
1.122783 -0.763269 2.383998
-2.201323 -0.454526 2.383998
-2.145030 -0.397570 2.383998
1.229935 -0.580420 2.383998
-2.071076 -0.214720 2.383998
-0.577919 1.430926 2.383998
1.272820 -0.512889 2.383998
-2.052269 -0.031871 2.383998
-0.555676 1.455684 2.383998
-2.075045 0.150979 2.383998
1.737812 1.248077 2.383998
1.371576 -0.397570 2.383998
-0.454021 1.613776 2.383998
1.437698 -0.214720 2.383998
1.638520 1.329038 2.383998
1.478369 1.430926 2.383998
1.455670 -0.179444 2.383998
-0.372827 1.747856 2.383998
1.455670 1.441024 2.383998
1.573056 -0.031871 2.383998
-0.343543 1.796626 2.383998
1.638520 0.067945 2.383998
-0.249651 1.979475 2.383998
0.541422 1.759214 2.383998
-2.042541 0.333829 2.383998
-0.189977 2.029042 2.383998
0.471626 1.796626 2.383998
0.358572 1.894928 2.383998
0.260305 1.979475 2.383998
-0.007127 2.089974 2.383998
0.175723 2.053988 2.383998
0.724272 1.743806 2.383998
0.907121 1.700230 2.383998
1.089971 1.634731 2.383998
-2.018473 0.516678 2.272034
0.175723 -1.311818 2.265896
-1.469924 -1.494668 2.299262
-1.652774 0.882378 2.370041
-0.921375 -1.494668 2.266986
-1.469924 1.065228 2.268099
0.541422 -1.128968 2.327583
-0.372827 1.796626 2.321044
0.541422 1.796626 2.323161
-2.201323 -1.128968 2.244832
0.907121 -0.946119 2.344050
0.358572 1.979475 2.295105
-0.007127 2.162325 2.243758
1.089971 -0.763269 2.257642
0.724272 1.796626 2.262055
1.455670 -0.214720 2.297252
-1.104225 1.073468 2.475423
-1.012800 1.102304 2.475423
-0.929686 1.156652 2.475423
-0.921375 1.169882 2.475423
-0.834195 1.248077 2.475423
-0.829950 1.249310 2.475423
-0.738525 1.274923 2.475423
-1.012800 1.156652 2.400700
-0.921375 1.156652 2.435835
-0.921375 1.248077 2.443843
-1.012800 1.339502 2.398345
-0.738525 1.339502 2.400105
-0.981474 1.065228 2.566848
-0.921375 1.103912 2.566848
-0.829950 1.144812 2.566848
-0.808090 1.156652 2.566848
-0.738525 1.202109 2.566848
-0.684254 1.248077 2.566848
-0.647101 1.283559 2.566848
-0.601037 1.339502 2.566848
-0.570129 1.430926 2.566848
-1.104225 1.065228 2.498221
-1.012800 1.065228 2.532739
-0.921375 1.156652 2.487000
-0.829950 1.156652 2.550293
-0.829950 1.248077 2.476173
-0.738525 1.248077 2.504270
1.089971 1.597577 2.566848
-0.189977 -1.548357 2.566848
1.023791 1.613776 2.566848
-1.652774 -1.574288 2.566848
-1.993197 0.150979 2.566848
-1.793001 -1.494668 2.566848
-0.007127 -1.498095 2.566848
1.272820 1.520589 2.566848
-1.938124 0.333829 2.566848
-1.835624 -1.473474 2.566848
-1.953685 -1.311818 2.566848
0.002139 -1.494668 2.566848
-1.847443 0.516678 2.566848
0.175723 -1.441752 2.566848
-1.469924 -1.527282 2.566848
1.766870 0.150979 2.566848
-1.835624 0.536157 2.566848
-1.381298 -1.494668 2.566848
1.821369 0.198562 2.566848
-1.287075 -1.457951 2.566848
-1.675886 0.699528 2.566848
-1.652774 0.717670 2.566848
0.358572 -1.387532 2.566848
1.973119 0.333829 2.566848
-1.104225 -1.437810 2.566848
0.541422 -1.378617 2.566848
-1.469924 0.863888 2.566848
2.004219 0.442227 2.566848
0.715353 -1.311818 2.566848
-0.921375 -1.376056 2.566848
-1.442306 0.882378 2.566848
2.004219 0.729833 2.566848
-0.738525 -1.523975 2.566848
1.957492 0.882378 2.566848
-0.799799 -1.494668 2.566848
0.724272 -1.306778 2.566848
-0.555676 -1.559138 2.566848
2.011086 0.516678 2.566848
-1.287075 0.988130 2.566848
0.907121 -1.277761 2.566848
2.009310 0.699528 2.566848
-0.372827 -1.497097 2.566848
1.002219 -1.128968 2.566848
-1.104225 1.045400 2.566848
1.852677 1.065228 2.566848
-2.018473 -1.224763 2.566848
1.089971 -1.004737 2.566848
1.821369 1.169398 2.566848
-2.078878 -1.128968 2.566848
1.748672 1.248077 2.566848
1.128870 -0.946119 2.566848
-2.134824 -0.946119 2.566848
1.455670 1.373108 2.566848
1.272820 -0.802878 2.566848
-0.555676 1.451201 2.566848
1.397898 1.430926 2.566848
-2.196416 -0.763269 2.566848
1.272820 -0.746224 2.566848
1.638520 1.277691 2.566848
-2.182711 -0.580420 2.566848
1.236663 -0.580420 2.566848
-0.408448 1.613776 2.566848
-2.081110 -0.397570 2.566848
-2.018473 -0.220008 2.566848
1.272820 -0.405926 2.566848
-0.189977 1.847901 2.566848
-0.007127 1.932611 2.566848
-2.017302 -0.214720 2.566848
-0.372827 1.670130 2.566848
0.175723 1.903679 2.566848
1.287626 -0.763269 2.566848
-2.018473 -0.204244 2.566848
0.541422 1.780672 2.566848
-2.030157 -0.031871 2.566848
-0.258142 1.796626 2.566848
0.463114 1.796626 2.566848
1.277121 -0.397570 2.566848
-2.018473 0.055058 2.566848
0.358572 1.819989 2.566848
0.724272 1.700463 2.566848
1.455670 -0.228516 2.566848
0.907121 1.644641 2.566848
1.467646 -0.214720 2.566848
1.613709 -0.031871 2.566848
1.638520 0.000738 2.566848
-2.018473 0.150979 2.494170
1.089971 1.613776 2.474702
-2.018473 0.333829 2.422093
-2.018473 -1.311818 2.415295
-1.835624 0.699528 2.398236
-1.835624 -1.494668 2.518669
2.004219 0.882378 2.409154
-1.469924 0.882378 2.525216
-0.189977 -1.494668 2.458068
-1.287075 1.065228 2.425080
1.455670 1.430926 2.419650
-0.007127 -1.494668 2.561762
-0.738525 -1.494668 2.510083
-0.189977 1.979475 2.437557
-0.007127 1.979475 2.508160
0.358572 -1.311818 2.415903
-0.555676 -1.494668 2.490012
0.175723 1.979475 2.443599
0.541422 -1.311818 2.480085
0.724272 -1.128968 2.430707
-0.372827 -1.494668 2.560588
0.907121 -1.128968 2.507206
1.089971 -0.946119 2.533216
-2.201323 -0.946119 2.397006
-2.201323 -0.763269 2.551652
1.272820 -0.763269 2.554159
-2.201323 -0.580420 2.531678
-2.018473 -0.214720 2.563146
1.455670 -0.214720 2.413112
-0.921375 1.076208 2.658273
-0.829950 1.110336 2.658273
-0.738525 1.090588 2.658273
-0.680243 1.156652 2.658273
-0.647101 1.191607 2.658273
-0.585778 1.248077 2.658273
-0.555676 1.291617 2.658273
-0.529647 1.339502 2.658273
-0.499396 1.430926 2.658273
-0.738525 1.156652 2.610088
-0.647101 1.248077 2.597052
-0.555676 1.339502 2.631497
-0.555676 1.430926 2.593952
-0.921375 1.074164 2.749698
-0.829950 1.098977 2.749698
-0.738525 1.140141 2.749698
-0.647101 1.135229 2.749698
-0.619715 1.156652 2.749698
-0.632321 1.248077 2.749698
-0.555676 1.268665 2.749698
-0.498154 1.339502 2.749698
-0.464251 1.387822 2.749698
-0.441906 1.430926 2.749698
-1.104225 1.023470 2.749698
-1.012800 1.048770 2.749698
-0.953605 1.065228 2.749698
-0.647101 1.156652 2.680422
-0.464251 1.430926 2.708433
-1.835624 -1.374114 2.749698
-1.948250 0.150979 2.749698
0.907121 1.219100 2.749698
-0.189977 -1.679773 2.749698
-1.885026 -1.311818 2.749698
-1.891503 0.333829 2.749698
0.866340 1.248077 2.749698
-0.176042 -1.677517 2.749698
-1.652774 -1.460839 2.749698
-1.835624 0.431969 2.749698
0.986879 1.248077 2.749698
-0.007127 -1.640463 2.749698
-1.761039 0.516678 2.749698
0.907121 1.266838 2.749698
-1.469924 -1.458354 2.749698
0.175723 -1.526758 2.749698
-1.652774 0.635091 2.749698
-1.287075 -1.438993 2.749698
1.089971 1.483482 2.749698
0.358572 -1.500621 2.749698
0.983250 1.613776 2.749698
0.385587 -1.494668 2.749698
-1.104225 -1.368268 2.749698
-1.606065 0.699528 2.749698
1.272820 1.472312 2.749698
-0.921375 -1.486630 2.749698
0.541422 -1.441683 2.749698
-1.469924 0.850762 2.749698
-1.432498 0.882378 2.749698
-0.555676 -1.725659 2.749698
0.724272 -1.362681 2.749698
1.777126 0.150979 2.749698
-0.666445 -1.677517 2.749698
0.832108 -1.311818 2.749698
1.820003 0.333829 2.749698
-1.287075 0.965985 2.749698
-0.372827 -1.683880 2.749698
1.821369 0.338748 2.749698
-0.738525 -1.610359 2.749698
1.907962 0.516678 2.749698
-0.372827 1.559786 2.749698
-0.907736 -1.494668 2.749698
1.949482 0.699528 2.749698
-0.314254 1.613776 2.749698
1.908092 0.882378 2.749698
-2.018473 -1.026141 2.749698
-0.189977 1.752551 2.749698
1.638520 1.215806 2.749698
-2.049602 -0.946119 2.749698
1.568019 1.248077 2.749698
1.821369 1.033450 2.749698
-1.968777 -1.128968 2.749698
1.795256 1.065228 2.749698
-2.071133 -0.763269 2.749698
1.455670 1.339650 2.749698
-2.018473 -0.603270 2.749698
0.907121 -1.253424 2.749698
1.320699 1.430926 2.749698
-1.996759 -0.580420 2.749698
0.990224 -1.128968 2.749698
-0.140125 1.796626 2.749698
-1.942970 -0.397570 2.749698
1.089971 -1.012079 2.749698
-0.007127 1.828122 2.749698
-1.931633 -0.214720 2.749698
1.146707 -0.946119 2.749698
0.175723 1.819790 2.749698
-1.949069 -0.031871 2.749698
1.272700 -0.763269 2.749698
0.541422 1.760108 2.749698
1.272820 -0.763116 2.749698
0.405406 1.796626 2.749698
0.358572 1.805895 2.749698
1.349051 -0.580420 2.749698
0.724272 1.710825 2.749698
1.282868 -0.397570 2.749698
0.907121 1.656007 2.749698
1.450605 -0.214720 2.749698
1.455670 -0.208405 2.749698
1.638520 -0.061089 2.749698
1.647184 -0.031871 2.749698
-0.189977 -1.677517 2.746308
-1.652774 -1.494668 2.666046
0.907121 1.248077 2.734469
-1.835624 0.516678 2.587973
0.175723 -1.494668 2.704276
-1.652774 0.699528 2.596338
-1.469924 -1.494668 2.700087
0.358572 -1.494668 2.727335
1.821369 0.333829 2.746910
-0.555676 -1.677517 2.666608
0.724272 -1.311818 2.572953
2.004219 0.516678 2.589011
-0.372827 1.613776 2.675922
-0.372827 -1.677517 2.739862
2.004219 0.699528 2.583889
-0.189977 1.796626 2.703151
1.272820 -0.763269 2.736850
1.638520 1.248077 2.644290
-2.018473 -1.128968 2.669454
1.272820 -0.580420 2.622056
1.821369 1.065228 2.660069
-2.018473 -0.580420 2.731795
-2.018473 -0.397570 2.681284
1.455670 -0.214720 2.714346
-2.018473 -0.031871 2.603961
1.638520 -0.031871 2.688640
-1.104225 1.020428 2.841123
-1.012800 1.049380 2.841123
-0.963824 1.065228 2.841123
-0.921375 1.078986 2.841123
-0.829950 1.107545 2.841123
-0.738525 1.136755 2.841123
-0.703054 1.156652 2.841123
-0.647101 1.188292 2.841123
-0.555676 1.219330 2.841123
-0.535403 1.248077 2.841123
-0.503672 1.339502 2.841123
-0.464251 1.351060 2.841123
-0.372827 1.428350 2.841123
-0.647101 1.156652 2.793539
-0.555676 1.248077 2.773122
-0.372827 1.430926 2.838810
-1.104225 1.011200 2.932548
-1.012800 1.050360 2.932548
-0.975390 1.065228 2.932548
-0.921375 1.084051 2.932548
-0.829950 1.116323 2.932548
-0.738525 1.136538 2.932548
-0.647101 1.145202 2.932548
-0.631619 1.156652 2.932548
-0.570327 1.248077 2.932548
-0.555676 1.262308 2.932548
-0.464251 1.311965 2.932548
-0.407606 1.339502 2.932548
-0.372827 1.353244 2.932548
-1.287075 0.949337 2.932548
-1.235655 0.973803 2.932548
-1.195650 0.986695 2.932548
-0.647101 1.156652 2.923744
-0.555676 1.248077 2.911174
-0.464251 1.339502 2.875286
-1.652774 -1.372808 2.932548
-1.731394 -1.311818 2.932548
1.638520 1.171829 2.932548
0.188274 -1.677517 2.932548
1.526092 1.248077 2.932548
0.357349 -1.494668 2.932548
-1.378264 0.882378 2.932548
0.358572 -1.494282 2.932548
1.821369 0.922825 2.932548
-1.469924 -1.432189 2.932548
1.742064 1.065228 2.932548
0.541422 -1.402411 2.932548
-1.287075 -1.397555 2.932548
1.836039 0.882378 2.932548
0.706268 -1.311818 2.932548
-0.293680 1.430926 2.932548
-0.921375 -1.530523 2.932548
1.272820 1.317449 2.932548
-1.042011 -1.494668 2.932548
1.455670 1.287261 2.932548
-0.189977 1.604989 2.932548
0.724272 -1.297688 2.932548
-1.104225 -1.475141 2.932548
0.870854 -1.128968 2.932548
-0.175210 1.613776 2.932548
-0.555676 -1.726492 2.932548
0.907121 -1.107061 2.932548
-0.007127 1.702948 2.932548
-0.609966 -1.677517 2.932548
0.059994 1.796626 2.932548
1.089971 -0.980312 2.932548
-0.372827 -1.751979 2.932548
0.175723 1.856629 2.932548
1.125484 -0.946119 2.932548
-0.189977 -1.712675 2.932548
0.358572 1.778914 2.932548
0.348598 1.796626 2.932548
-0.738525 -1.616040 2.932548
0.541422 1.753895 2.932548
1.272820 -0.783799 2.932548
1.089971 1.324519 2.932548
0.724272 1.723667 2.932548
0.923335 1.430926 2.932548
0.907121 1.682313 2.932548
0.936023 1.613776 2.932548
1.285636 -0.763269 2.932548
-1.835624 -1.189250 2.932548
1.089971 1.788613 2.932548
-1.872951 -1.128968 2.932548
1.401844 -0.580420 2.932548
1.079102 1.796626 2.932548
1.748066 0.150979 2.932548
1.795317 0.333829 2.932548
-1.932173 -0.946119 2.932548
1.107114 1.796626 2.932548
1.455670 -0.453967 2.932548
1.801716 0.516678 2.932548
1.089971 1.810996 2.932548
1.477849 -0.397570 2.932548
1.821369 0.549794 2.932548
1.592752 -0.214720 2.932548
1.865387 0.699528 2.932548
1.638520 -0.106331 2.932548
1.688708 -0.031871 2.932548
-1.956125 -0.763269 2.932548
-1.931043 0.150979 2.932548
-1.893070 0.333829 2.932548
-1.914105 -0.580420 2.932548
-1.835624 0.441318 2.932548
-1.888386 -0.397570 2.932548
-1.766992 0.516678 2.932548
-1.881911 -0.214720 2.932548
-1.652774 0.661375 2.932548
-1.898702 -0.031871 2.932548
-1.617039 0.699528 2.932548
-1.469924 0.815607 2.932548
-0.007127 -1.711309 2.932548
0.175723 -1.684560 2.932548
-0.007127 -1.677517 2.831690
-0.189977 1.613776 2.917266
-1.835624 -1.311818 2.819835
0.175723 -1.677517 2.873886
0.358572 -1.494668 2.757636
0.724272 -1.311818 2.918991
-0.921375 -1.494668 2.787541
1.272820 1.430926 2.765166
0.907121 -1.128968 2.898326
-0.007127 1.796626 2.799585
0.907121 1.248077 2.758819
1.272820 -0.763269 2.750245
-2.018473 -0.946119 2.797005
0.358572 1.796626 2.835963
1.089971 1.430926 2.783759
1.455670 -0.397570 2.855336
-2.018473 -0.763269 2.838154
1.455670 -0.214720 2.759507
1.821369 0.516678 2.890359
1.089971 1.796626 2.754762
-1.287075 0.911978 3.023972
-1.195650 0.953537 3.023972
-1.131378 0.973803 3.023972
-1.104225 0.980933 3.023972
-1.012800 1.026138 3.023972
-0.984015 1.065228 3.023972
-0.921375 1.116280 3.023972
-0.829950 1.112904 3.023972
-0.753172 1.156652 3.023972
-0.738525 1.162207 3.023972
-0.647101 1.150103 3.023972
-0.688703 1.156652 3.023972
-0.631817 1.156652 3.023972
-0.555676 1.213832 3.023972
-0.486386 1.248077 3.023972
-1.195650 0.973803 2.978102
-0.738525 1.156652 2.969493
-0.555676 1.248077 2.968062
-1.287075 0.843539 3.115397
-1.252658 0.882378 3.115397
-1.195650 0.919950 3.115397
-1.104225 0.971725 3.115397
-1.101897 0.973803 3.115397
-1.012800 1.027863 3.115397
-0.921375 1.042348 3.115397
-0.890197 1.065228 3.115397
-0.829950 1.093409 3.115397
-0.738525 1.120194 3.115397
-0.647101 1.145930 3.115397
-0.592641 1.156652 3.115397
-0.555676 1.169271 3.115397
-0.466166 1.248077 3.115397
-0.464251 1.249417 3.115397
-0.372827 1.303310 3.115397
-1.287075 0.882378 3.078390
-1.104225 0.973803 3.105498
-0.921375 1.065228 3.093611
-0.738525 1.156652 3.055164
-0.152686 -1.677517 3.115397
-0.189977 -1.617833 3.115397
-1.469924 -1.321262 3.115397
1.455670 1.201292 3.115397
-0.189977 1.245540 3.115397
0.013968 -1.677517 3.115397
1.377318 1.248077 3.115397
-1.565349 -1.311818 3.115397
0.175723 -1.536599 3.115397
-0.198699 1.248077 3.115397
1.638520 1.100111 3.115397
-1.287075 -1.398170 3.115397
0.226570 -1.494668 3.115397
1.723743 0.882378 3.115397
1.661899 1.065228 3.115397
-0.189977 1.319186 3.115397
0.358572 -1.388354 3.115397
-0.921375 -1.609745 3.115397
-0.198268 1.430926 3.115397
0.505855 -1.311818 3.115397
1.272820 1.294368 3.115397
-1.081481 -1.494668 3.115397
-0.189977 1.439171 3.115397
-1.104225 -1.484156 3.115397
0.541422 -1.298991 3.115397
0.069547 1.613776 3.115397
0.175723 1.670142 3.115397
0.724272 -1.155302 3.115397
-0.738525 -1.639678 3.115397
-0.183817 1.248077 3.115397
0.764131 -1.128968 3.115397
-0.555676 -1.660813 3.115397
0.907121 -1.032263 3.115397
0.358572 1.664788 3.115397
-0.007127 1.558930 3.115397
-0.372827 -1.616956 3.115397
0.541422 1.616819 3.115397
1.026562 -0.946119 3.115397
0.549772 1.613776 3.115397
1.089971 -0.909037 3.115397
0.907121 1.336977 3.115397
-1.652774 -1.294640 3.115397
0.821722 1.430926 3.115397
1.272109 -0.763269 3.115397
-1.802627 -1.128968 3.115397
0.724272 1.501443 3.115397
1.272820 -0.762436 3.115397
-1.834237 -0.946119 3.115397
1.089971 1.270136 3.115397
1.372021 -0.580420 3.115397
-1.835624 -0.938770 3.115397
-1.875780 -0.763269 3.115397
1.455670 -0.440583 3.115397
1.485778 -0.397570 3.115397
1.699390 0.150979 3.115397
-1.897725 -0.580420 3.115397
1.590500 -0.214720 3.115397
1.750525 0.333829 3.115397
-1.884488 -0.397570 3.115397
1.638520 -0.092334 3.115397
1.742365 0.516678 3.115397
-1.855388 -0.214720 3.115397
1.658885 -0.031871 3.115397
1.738872 0.699528 3.115397
-1.840557 -0.031871 3.115397
-1.868239 0.150979 3.115397
-1.875713 0.333829 3.115397
-1.835624 0.393990 3.115397
-1.706380 0.516678 3.115397
-0.007127 -1.681445 3.115397
-1.652774 0.643995 3.115397
-1.599108 0.699528 3.115397
-1.469924 0.766980 3.115397
-1.652774 -1.311818 3.087548
1.455670 1.248077 3.041229
-0.189977 1.248077 3.112152
-0.189977 -1.677517 3.077314
1.821369 0.882378 2.960186
0.175723 -1.677517 2.998749
-0.555676 -1.677517 3.062486
0.541422 -1.311818 3.062748
-0.007127 1.613776 3.046448
-0.372827 -1.677517 3.025525
0.175723 1.796626 3.030874
0.907121 1.430926 2.963901
-1.835624 -1.128968 3.037950
1.089971 -0.946119 3.012960
0.724272 1.613776 3.047532
0.907121 1.613776 2.960869
-1.835624 -0.946119 3.111581
1.272820 -0.763269 3.111981
1.089971 1.796626 2.946318
1.821369 0.699528 3.020430
-1.287075 0.823404 3.206822
-1.195650 0.850081 3.206822
-1.156180 0.882378 3.206822
-1.104225 0.918154 3.206822
-1.024678 0.973803 3.206822
-1.012800 0.981681 3.206822
-0.945083 1.065228 3.206822
-0.921375 1.080075 3.206822
-0.829950 1.019992 3.206822
-0.902378 1.065228 3.206822
-0.754700 1.065228 3.206822
-0.829950 1.118190 3.206822
-0.861630 1.156652 3.206822
-0.738525 1.122112 3.206822
-0.825746 1.156652 3.206822
-0.829950 1.175732 3.206822
-0.647101 1.121196 3.206822
-0.555676 1.142086 3.206822
-0.468513 1.156652 3.206822
-0.464251 1.158400 3.206822
-0.378759 1.248077 3.206822
-0.372827 1.250375 3.206822
-1.195650 0.882378 3.165945
-0.921375 1.065228 3.161943
-0.829950 1.065228 3.157014
-0.829950 1.156652 3.135269
-0.555676 1.156652 3.144255
-0.464251 1.248077 3.117061
-1.287075 0.790833 3.298246
-1.286800 0.790953 3.298246
-1.195650 0.829123 3.298246
-1.104225 0.863903 3.298246
-1.068758 0.882378 3.298246
-1.012800 0.922873 3.298246
-0.943960 0.973803 3.298246
-0.921375 0.989511 3.298246
-0.829950 1.049818 3.298246
-0.808398 1.065228 3.298246
-0.738525 1.105640 3.298246
-0.647101 1.119719 3.298246
-0.555676 1.142793 3.298246
-0.515636 1.156652 3.298246
-0.464251 1.212995 3.298246
-0.372827 1.206249 3.298246
-1.287075 0.790953 3.297984
-1.104225 0.882378 3.256674
-1.012800 0.973803 3.218775
-0.921375 1.065228 3.232618
-0.829950 1.156652 3.244031
-0.372827 1.248077 3.212596
-0.189977 1.176682 3.298246
-0.189977 -1.578746 3.298246
-0.007127 -1.521148 3.298246
-0.921375 -1.574378 3.298246
1.648496 0.882378 3.298246
0.175723 -1.495525 3.298246
-1.037157 -1.494668 3.298246
1.638520 0.907887 3.298246
-0.007127 1.233688 3.298246
0.180037 -1.494668 3.298246
-1.104225 -1.443411 3.298246
-1.267526 -1.311818 3.298246
0.358572 -1.449938 3.298246
0.002782 1.248077 3.298246
0.541422 -1.341229 3.298246
-0.738525 -1.585147 3.298246
0.175723 1.380537 3.298246
0.576070 -1.311818 3.298246
-0.555676 -1.566600 3.298246
0.358572 1.376294 3.298246
-0.372827 -1.561996 3.298246
0.715376 -1.128968 3.298246
0.541422 1.410989 3.298246
0.724272 -1.121618 3.298246
0.907121 -1.041270 3.298246
1.272820 1.217575 3.298246
-1.652774 -1.058821 3.298246
1.156944 1.248077 3.298246
0.724272 1.375328 3.298246
1.011636 -0.946119 3.298246
0.907121 1.316589 3.298246
-1.795273 -0.946119 3.298246
1.089971 -0.885805 3.298246
1.089971 1.261425 3.298246
1.227785 -0.763269 3.298246
1.272820 -0.708187 3.298246
1.656764 0.150979 3.298246
1.366796 -0.580420 3.298246
1.689874 0.333829 3.298246
-1.786310 -0.763269 3.298246
-1.819277 -0.580420 3.298246
1.762506 0.516678 3.298246
1.455670 -0.446883 3.298246
1.483808 -0.397570 3.298246
-1.824977 -0.397570 3.298246
1.694750 0.699528 3.298246
1.572183 -0.214720 3.298246
-1.800565 -0.214720 3.298246
1.493884 1.065228 3.298246
1.593570 -0.031871 3.298246
-1.679760 -0.031871 3.298246
1.455670 1.086188 3.298246
1.638520 0.097982 3.298246
-1.714629 0.150979 3.298246
-1.469924 -1.178902 3.298246
-1.690661 0.333829 3.298246
-1.560335 -1.128968 3.298246
-1.652774 0.383797 3.298246
-1.287075 -1.289338 3.298246
-1.564042 0.516678 3.298246
-1.469924 0.640863 3.298246
-1.422928 0.699528 3.298246
1.638520 1.065228 3.160949
-0.007127 -1.677517 3.120402
-1.469924 -1.311818 3.131893
-0.189977 1.430926 3.120282
0.541422 -1.311818 3.240132
1.272820 1.248077 3.230565
-1.287075 -1.311818 3.277012
0.724272 -1.128968 3.290605
-0.007127 1.248077 3.285223
0.175723 1.613776 3.151188
-1.652774 -1.128968 3.246507
0.358572 1.613776 3.155024
-0.007127 1.430926 3.292193
0.541422 1.613776 3.117801
1.638520 -0.031871 3.165833
-1.835624 -0.763269 3.167275
0.175723 1.430926 3.263200
-1.835624 -0.580420 3.253197
-1.835624 0.150979 3.186350
-1.835624 0.333829 3.197256
0.358572 1.430926 3.275551
-1.835624 -0.397570 3.249760
-1.652774 0.516678 3.199668
0.541422 1.430926 3.280745
-1.835624 -0.214720 3.218639
-1.469924 0.699528 3.235663
-1.835624 -0.031871 3.124864
0.724272 1.430926 3.204710
-0.738525 1.100615 3.389671
-0.647101 1.106389 3.389671
-0.555676 1.118560 3.389671
-0.464251 1.134752 3.389671
-0.372827 1.144391 3.389671
-0.464251 1.156652 3.350519
-0.372827 1.156652 3.369091
-0.727086 1.065228 3.481096
-0.647101 1.091045 3.481096
-0.555676 1.114627 3.481096
-0.464251 1.107872 3.481096
-0.372827 1.100028 3.481096
-1.195650 -1.315055 3.481096
-1.199763 -1.311818 3.481096
-1.104225 -1.382882 3.481096
-1.012800 -1.464473 3.481096
-1.081609 -1.403243 3.481096
-0.978795 -1.494668 3.481096
-1.287075 -1.248090 3.481096
-0.738525 1.065228 3.464147
-0.884870 0.882378 3.481096
-0.921375 -1.531515 3.481096
-0.738525 1.050446 3.481096
-0.189977 -1.613276 3.481096
-0.189977 1.058295 3.481096
-0.738525 -1.612870 3.481096
-0.007127 -1.594465 3.481096
-0.360941 1.065228 3.481096
-0.555676 -1.648873 3.481096
0.175723 -1.559939 3.481096
-0.372827 -1.632401 3.481096
0.358572 -1.517457 3.481096
-1.652774 -0.779567 3.481096
-0.163906 1.065228 3.481096
0.495153 -1.494668 3.481096
-1.675944 -0.763269 3.481096
-1.789798 -0.580420 3.481096
0.541422 -1.485703 3.481096
-0.007127 1.192827 3.481096
-1.835624 -0.542842 3.481096
0.175192 1.248077 3.481096
0.724272 -1.387546 3.481096
-1.835859 -0.397570 3.481096
-1.835624 -0.396368 3.481096
0.798319 -1.311818 3.481096
0.541422 1.243764 3.481096
-1.724869 -0.214720 3.481096
0.528538 1.248077 3.481096
-1.652774 -0.039892 3.481096
0.907121 -1.143224 3.481096
0.175723 1.248159 3.481096
0.358572 1.258755 3.481096
-1.381585 -1.128968 3.481096
-1.469924 -1.045322 3.481096
-1.553013 -0.946119 3.481096
0.581591 1.248077 3.481096
0.915426 -1.128968 3.481096
1.089971 1.205249 3.481096
0.999619 1.248077 3.481096
1.089971 -0.964170 3.481096
-1.650061 -0.031871 3.481096
1.272820 1.072921 3.481096
-1.584086 0.150979 3.481096
1.114380 -0.946119 3.481096
0.724272 1.268863 3.481096
1.272820 -0.837271 3.481096
0.907121 1.322442 3.481096
1.325649 -0.763269 3.481096
1.387616 -0.580420 3.481096
1.638520 0.322129 3.481096
1.455670 -0.509913 3.481096
1.616944 0.333829 3.481096
1.511903 -0.397570 3.481096
1.632981 0.516678 3.481096
1.546749 -0.214720 3.481096
1.674504 0.150979 3.481096
1.600574 -0.031871 3.481096
1.620510 0.699528 3.481096
1.638520 0.038412 3.481096
1.577040 0.882378 3.481096
1.455670 1.019210 3.481096
-1.547556 0.333829 3.481096
1.291754 1.065228 3.481096
-1.469924 0.455276 3.481096
-1.392767 0.516678 3.481096
-1.287075 0.631354 3.481096
-1.241694 0.699528 3.481096
-1.104225 0.822918 3.481096
-0.921375 0.873975 3.481096
-0.921375 0.882378 3.463624
1.638520 0.882378 3.317016
0.358572 -1.494668 3.431833
-0.189977 1.065228 3.463284
0.724272 -1.311818 3.437453
-1.652774 -0.946119 3.371454
0.724272 -1.128968 3.310983
0.907121 -1.128968 3.472360
-1.835624 -0.397570 3.469932
1.089971 -0.946119 3.460867
0.541422 1.248077 3.476551
1.272820 -0.763269 3.415807
-1.652774 -0.031871 3.450573
-1.652774 0.150979 3.358572
1.089971 1.248077 3.340423
-1.469924 -1.128968 3.357584
-1.652774 0.333829 3.329951
-1.469924 0.516678 3.409837
-1.287075 0.699528 3.439387
1.638520 0.333829 3.394768
1.638520 0.516678 3.470692
1.638520 0.699528 3.445848
1.455670 1.065228 3.343566
-1.195650 -1.319847 3.572521
-1.218990 -1.311818 3.572521
-1.104225 -1.332787 3.572521
-1.012800 -1.469625 3.572521
-1.053289 -1.403243 3.572521
-0.979630 -1.494668 3.572521
-1.287075 -1.242792 3.572521
-0.990849 -1.494668 3.663946
-1.002108 -1.403243 3.663946
-1.012800 -1.374424 3.663946
-1.092065 -1.311818 3.663946
-1.195650 -1.262121 3.663946
-1.251302 -1.220393 3.663946
-1.104225 -1.307199 3.663946
-1.287075 -1.208603 3.663946
-1.469924 0.309468 3.663946
-1.455978 0.333829 3.663946
-1.385986 0.425253 3.663946
-1.378500 0.432570 3.663946
-1.287075 0.502987 3.663946
-1.269821 0.516678 3.663946
-1.195650 -1.311818 3.606710
-1.104225 -1.311818 3.645202
-1.012800 -1.403243 3.632338
-1.287075 -1.220393 3.611056
-1.527385 0.150979 3.663946
-0.921375 -1.549303 3.663946
-0.189977 -1.718033 3.663946
-1.104225 0.668521 3.663946
1.600527 0.150979 3.663946
-0.036074 -1.677517 3.663946
-1.067462 0.699528 3.663946
-0.555676 -1.721087 3.663946
1.638520 0.218913 3.663946
-0.662519 -1.677517 3.663946
-0.921375 0.853426 3.663946
-0.007127 -1.669259 3.663946
-0.372827 -1.720868 3.663946
1.638520 0.482333 3.663946
-0.881411 0.882378 3.663946
0.175723 -1.657844 3.663946
1.589333 0.516678 3.663946
-0.738525 -1.642190 3.663946
0.358572 -1.663833 3.663946
-0.738525 0.988676 3.663946
1.680469 0.333829 3.663946
0.541422 -1.622431 3.663946
-0.669332 1.065228 3.663946
-0.555676 1.163166 3.663946
0.724272 -1.542820 3.663946
1.567205 0.699528 3.663946
-1.652774 -0.706056 3.663946
-1.754731 -0.580420 3.663946
-0.189977 1.056037 3.663946
-1.731217 -0.397570 3.663946
-0.221503 1.065228 3.663946
0.891850 -1.494668 3.663946
-1.694978 -0.214720 3.663946
-0.372827 1.113908 3.663946
1.539748 0.882378 3.663946
-1.652774 -0.118464 3.663946
0.907121 -1.483445 3.663946
-0.007127 1.039516 3.663946
-1.381482 -1.128968 3.663946
0.119095 1.065228 3.663946
-1.469924 -1.037383 3.663946
1.018619 -1.311818 3.663946
1.272820 1.029777 3.663946
-1.519613 -0.946119 3.663946
0.175723 1.166593 3.663946
1.455670 0.921523 3.663946
0.358572 1.212018 3.663946
-1.609122 -0.763269 3.663946
1.089971 -1.202585 3.663946
0.541422 1.103715 3.663946
-1.597847 -0.031871 3.663946
0.724272 1.125943 3.663946
1.152952 -1.128968 3.663946
0.907121 1.131944 3.663946
1.272820 -1.013503 3.663946
1.089971 1.063404 3.663946
1.370592 -0.946119 3.663946
1.086922 1.065228 3.663946
1.450482 -0.763269 3.663946
1.455670 -0.750985 3.663946
1.494674 -0.580420 3.663946
1.455670 -0.402607 3.663946
1.454101 -0.397570 3.663946
1.455670 -0.391141 3.663946
1.553078 -0.214720 3.663946
1.624473 -0.031871 3.663946
-1.469924 0.333829 3.637039
-0.555676 -1.677517 3.560773
0.907121 1.248077 3.553067
-0.189977 -1.677517 3.595942
-1.287075 0.516678 3.618386
-0.372827 -1.677517 3.575209
1.638520 0.150979 3.567141
-1.104225 0.699528 3.610168
0.541422 -1.494668 3.494493
-1.652774 -0.763269 3.509620
0.724272 -1.494668 3.561800
-1.835624 -0.397570 3.496501
0.907121 -1.311818 3.554955
-0.007127 1.065228 3.609910
0.175723 1.248077 3.481711
1.089971 -1.128968 3.607681
0.358572 1.248077 3.576487
1.638520 0.333829 3.548563
1.272820 -0.946119 3.597778
0.724272 1.248077 3.532083
1.272820 1.065228 3.526334
1.089971 1.065228 3.662849
1.455670 -0.580420 3.584699
1.455670 -0.397570 3.538569
-1.012800 -1.437872 3.755371
-1.036768 -1.403243 3.755371
-0.983142 -1.494668 3.755371
-1.061264 -1.311818 3.755371
-1.195650 -1.245195 3.755371
-1.255938 -1.220393 3.755371
-1.104225 -1.261629 3.755371
-1.287075 -1.204878 3.755371
-1.469924 0.202791 3.755371
-1.453763 0.242404 3.755371
-1.412359 0.333829 3.755371
-1.378500 0.391213 3.755371
-1.352317 0.425253 3.755371
-1.287075 0.485184 3.755371
-1.248187 0.516678 3.755371
-1.012800 -1.403243 3.732244
-1.469924 0.242404 3.725902
-1.378500 0.425253 3.683913
-1.197952 -1.494668 3.846796
-1.195650 -1.493409 3.846796
-1.194731 -1.494668 3.846796
-1.104225 -1.383955 3.846796
-1.159487 -1.311818 3.846796
-1.012800 -1.477187 3.846796
-1.086870 -1.403243 3.846796
-0.992675 -1.494668 3.846796
-1.195650 -1.247382 3.846796
-1.233795 -1.220393 3.846796
-1.287075 -1.200122 3.846796
-1.405630 0.150979 3.846796
-1.378500 0.186511 3.846796
-1.376126 0.242404 3.846796
-1.378500 0.302969 3.846796
-1.414363 0.333829 3.846796
-1.378500 0.385199 3.846796
-1.322088 0.425253 3.846796
-1.287075 0.463622 3.846796
-1.195650 0.516209 3.846796
-1.194339 0.516678 3.846796
-1.561349 -0.019015 3.846796
-1.592115 0.059554 3.846796
-1.513678 -0.031871 3.846796
-1.469924 0.057830 3.846796
-1.473498 0.059554 3.846796
-1.561349 0.106662 3.846796
-1.467861 0.059554 3.846796
1.590197 -0.031871 3.846796
1.591063 0.059554 3.846796
1.587614 0.150979 3.846796
-0.189977 1.106330 3.846796
-0.098552 1.090780 3.846796
-0.007127 1.081887 3.846796
0.084298 1.083078 3.846796
0.130137 1.156652 3.846796
0.175723 1.170568 3.846796
0.358572 0.908260 3.846796
0.335304 0.973803 3.846796
0.267148 1.054518 3.846796
0.224834 1.065228 3.846796
0.192344 1.156652 3.846796
1.585584 0.242404 3.846796
1.583697 0.333829 3.846796
1.577979 0.425253 3.846796
1.569592 0.516678 3.846796
-1.195650 -1.494668 3.827490
-1.104225 -1.311818 3.805991
-1.469924 0.150979 3.789372
-1.378500 0.242404 3.842954
-1.195650 0.516678 3.845016
-0.921375 -1.558204 3.846796
-0.189977 -1.818520 3.846796
-1.104225 0.570188 3.846796
-0.007127 -1.757736 3.846796
-0.555676 -1.860384 3.846796
-0.992743 0.699528 3.846796
0.175723 -1.724209 3.846796
-0.555727 -1.860367 3.846796
-0.921375 0.787413 3.846796
-0.738525 -1.725480 3.846796
0.358572 -1.706551 3.846796
1.542763 0.699528 3.846796
-0.806119 -1.677517 3.846796
-0.855637 0.882378 3.846796
0.427898 -1.677517 3.846796
1.455670 0.812312 3.846796
-0.555622 -1.860367 3.846796
0.541422 -1.613220 3.846796
-0.738525 1.002529 3.846796
-0.372827 -1.839523 3.846796
1.327980 0.882378 3.846796
0.724272 -1.576269 3.846796
-0.623732 1.065228 3.846796
0.907121 -1.514040 3.846796
-0.555676 1.089365 3.846796
0.938710 -1.494668 3.846796
-1.416290 -1.128968 3.846796
1.272820 0.902960 3.846796
-0.372827 1.107652 3.846796
1.089971 -1.329495 3.846796
-1.469924 -1.071356 3.846796
-1.504514 -0.946119 3.846796
1.104387 -1.311818 3.846796
-1.511571 -0.763269 3.846796
1.272820 -1.137834 3.846796
0.724272 0.784151 3.846796
-1.567959 -0.580420 3.846796
0.554851 0.882378 3.846796
1.282196 -1.128968 3.846796
-1.610548 -0.397570 3.846796
0.907121 0.820666 3.846796
1.449276 -0.946119 3.846796
1.042114 0.882378 3.846796
1.455670 -0.938437 3.846796
0.541422 0.888092 3.846796
-1.584175 -0.214720 3.846796
1.551459 -0.763269 3.846796
1.556982 -0.580420 3.846796
1.549298 -0.397570 3.846796
1.089971 0.895498 3.846796
1.553790 -0.214720 3.846796
-0.007127 -1.677517 3.699088
0.175723 -1.677517 3.736477
-0.555676 -1.860367 3.846756
0.358572 -1.677517 3.705606
-0.738525 -1.677517 3.748721
-0.189977 1.065228 3.708858
0.907121 -1.494668 3.680521
1.638520 0.333829 3.774593
0.724272 0.882378 3.760388
-1.652774 -0.580420 3.761852
0.907121 0.882378 3.805493
1.089971 -1.311818 3.796054
1.455670 0.882378 3.721376
-1.652774 -0.397570 3.699477
-0.007127 1.065228 3.747058
-1.652774 -0.214720 3.757102
0.358572 1.065228 3.753836
