1.076855 0.396712 6.489169
1.089967 0.489622 6.489169
0.193909 1.224077 6.489169
0.137193 1.232899 6.489169
0.286819 1.189395 6.489169
0.379728 1.157851 6.489169
0.472638 1.134651 6.489169
0.450068 1.139989 6.489169
0.565547 1.101887 6.489169
0.937186 0.810976 6.489169
0.886245 0.861260 6.489169
1.053975 0.582531 6.489169
1.043270 0.675441 6.489169
1.080877 0.768351 6.489169
1.030095 0.788273 6.489169
0.658457 1.038345 6.489169
0.645514 1.047080 6.489169
0.751367 0.980153 6.489169
0.844276 0.889516 6.489169
0.773471 0.954170 6.489169
0.008090 1.267977 6.489169
0.100999 1.246307 6.489169
-0.270638 1.267459 6.489169
-0.177729 1.270914 6.489169
-0.084820 1.271894 6.489169
-0.456458 1.325808 6.411560
1.123005 0.117984 6.442456
1.123005 0.210893 6.422125
1.215914 0.210893 6.397578
1.123005 0.489622 6.414531
0.193909 1.232899 6.426728
0.286819 1.232899 6.429168
0.379728 1.232899 6.408713
0.472638 1.139989 6.463126
0.565547 1.139989 6.426725
0.937186 0.861260 6.416455
1.030095 0.675441 6.424463
1.123005 0.768351 6.470936
0.658457 1.047080 6.478685
-0.921006 1.100165 6.489169
-1.106825 -1.790579 6.489169
0.717611 -1.740208 6.489169
-1.167322 -1.740208 6.489169
0.751367 -1.714871 6.489169
0.937186 -1.561437 6.489169
-0.921006 -1.859227 6.489169
0.945732 -1.554389 6.489169
-0.735187 -1.932176 6.489169
-0.760092 -1.926027 6.489169
1.111529 -1.368569 6.489169
1.123005 -0.246596 6.489169
-0.665767 -1.926027 6.489169
1.123005 -1.356411 6.489169
1.104345 -0.067835 6.489169
-0.549367 -1.917754 6.489169
1.227831 -1.182750 6.489169
-0.363548 -2.011750 6.489169
1.308824 -1.043257 6.489169
1.125007 -0.253654 6.489169
-0.496480 -1.926027 6.489169
1.308824 -0.580515 6.489169
-0.177729 -2.097829 6.489169
1.247486 -0.439474 6.489169
-1.664282 -1.187136 6.489169
1.329838 -0.996931 6.489169
-1.668080 -1.182750 6.489169
-1.798306 -0.996931 6.489169
1.345803 -0.811112 6.489169
1.324795 -0.625293 6.489169
-1.820391 -0.811112 6.489169
-1.850101 -0.687377 6.489169
-1.867113 -0.625293 6.489169
-1.847896 -0.253654 6.489169
-1.874658 -0.439474 6.489169
-1.782029 -0.067835 6.489169
-1.850101 -0.261988 6.489169
-1.752542 0.117984 6.489169
-1.664282 0.258852 6.489169
-1.478463 -1.583625 6.489169
-1.501076 -1.554389 6.489169
-1.635716 0.303803 6.489169
-1.292644 -1.609048 6.489169
-1.558249 0.489622 6.489169
-1.492509 -1.368569 6.489169
-1.478463 0.640645 6.489169
-1.452229 0.675441 6.489169
-1.292644 0.847305 6.489169
0.008090 -2.097999 6.489169
-1.265714 0.861260 6.489169
0.193909 -2.036016 6.489169
-1.106825 0.956318 6.489169
0.379728 -1.961421 6.489169
-1.001164 1.047080 6.489169
0.501055 -1.926027 6.489169
0.565547 -1.894356 6.489169
0.937186 -1.554389 6.456100
-0.921006 -1.926027 6.354272
1.123005 -0.067835 6.419665
1.123005 -1.368569 6.477071
-0.735187 -1.926027 6.351706
1.308824 -0.996931 6.435117
-1.850101 -0.625293 6.413843
-1.850101 -0.439474 6.378093
-1.478463 -1.554389 6.482944
-1.664282 0.303803 6.427740
-1.292644 0.861260 6.439067
-1.106825 1.047080 6.322318
-0.735187 1.157203 6.582078
-0.642277 1.158442 6.582078
-0.549367 1.195080 6.582078
-0.456458 1.231964 6.582078
-0.363548 1.218264 6.582078
-0.270638 1.230272 6.582078
-0.236592 1.232899 6.582078
-0.177729 1.234267 6.582078
1.030095 0.172382 6.582078
1.004139 0.210893 6.582078
1.062967 0.117984 6.582078
1.013909 0.303803 6.582078
1.030095 0.357154 6.582078
1.043609 0.396712 6.582078
1.039190 0.489622 6.582078
0.100999 1.172729 6.582078
0.020255 1.232899 6.582078
0.134453 1.232899 6.582078
0.286819 1.107690 6.582078
0.247504 1.139989 6.582078
0.379728 1.120719 6.582078
0.253089 1.232899 6.582078
0.472638 1.088162 6.582078
0.565547 1.047364 6.582078
0.937186 0.693555 6.582078
0.889949 0.768351 6.582078
0.844276 0.819181 6.582078
0.794288 0.861260 6.582078
1.108809 0.582531 6.582078
1.030095 0.617319 6.582078
0.951672 0.675441 6.582078
0.566077 1.047080 6.582078
-0.084820 1.254582 6.582078
0.008090 1.256200 6.582078
0.193909 1.252105 6.582078
-0.456458 1.232899 6.576779
-0.363548 1.232899 6.550675
-0.270638 1.232899 6.580372
1.030095 0.210893 6.510487
1.030095 0.303803 6.548110
0.100999 1.232899 6.493475
0.193909 1.232899 6.502008
0.286819 1.139989 6.549006
0.379728 1.139989 6.538502
0.937186 0.768351 6.523118
0.844276 0.861260 6.525967
1.030095 0.675441 6.513904
1.030095 0.768351 6.512195
-0.735187 1.104951 6.674988
-0.644201 1.139989 6.674988
-0.642277 1.140864 6.674988
-0.549367 1.177688 6.674988
-0.456458 1.202496 6.674988
-0.363548 1.198874 6.674988
-0.270638 1.152035 6.674988
-0.177729 1.193199 6.674988
1.054063 0.117984 6.674988
1.041503 0.210893 6.674988
1.032212 0.303803 6.674988
1.030095 0.333615 6.674988
1.024236 0.396712 6.674988
1.011114 0.489622 6.674988
-0.088027 1.232899 6.674988
0.193909 1.216117 6.674988
0.178058 1.232899 6.674988
0.286819 1.109430 6.674988
0.256279 1.139989 6.674988
0.379728 1.085789 6.674988
0.472638 1.049008 6.674988
0.477402 1.047080 6.674988
0.937186 0.613424 6.674988
0.893107 0.675441 6.674988
0.844276 0.747408 6.674988
0.831293 0.768351 6.674988
0.751367 0.849883 6.674988
0.954597 0.582531 6.674988
-0.084820 1.234180 6.674988
0.008090 1.234138 6.674988
0.100999 1.252152 6.674988
-0.177729 -2.040328 6.674988
0.739467 0.861260 6.674988
-0.084820 -2.039210 6.674988
0.008090 -2.031793 6.674988
0.100999 -2.022206 6.674988
0.694647 0.954170 6.674988
0.193909 -2.025616 6.674988
0.565547 1.001685 6.674988
0.658457 0.984902 6.674988
1.245723 -0.625293 6.674988
1.229781 -0.532383 6.674988
1.215914 -0.518371 6.674988
1.176637 -0.439474 6.674988
1.154746 -0.346564 6.674988
1.138956 -0.253654 6.674988
1.123005 -0.211643 6.674988
1.102611 -0.160745 6.674988
1.076758 -0.067835 6.674988
1.071493 0.025074 6.674988
-0.735187 1.139989 6.613536
-0.177729 1.232899 6.584693
1.030095 0.210893 6.657783
1.030095 0.303803 6.589453
1.030095 0.396712 6.643469
1.030095 0.489622 6.618879
0.100999 1.232899 6.607342
0.193909 1.232899 6.661949
0.565547 1.047080 6.582731
0.937186 0.675441 6.599929
0.844276 0.768351 6.646084
0.751367 0.861260 6.651142
1.030095 0.582531 6.609661
-0.921006 1.059193 6.674988
0.756702 -1.740208 6.674988
-0.921006 -1.821257 6.674988
0.848993 -1.554389 6.674988
-1.023924 -1.740208 6.674988
0.937186 -1.465873 6.674988
-0.549367 -1.957344 6.674988
-0.600115 -1.926027 6.674988
1.043213 -1.368569 6.674988
-0.735187 -1.865259 6.674988
1.123005 -1.286849 6.674988
-0.363548 -2.051249 6.674988
1.308824 -1.191270 6.674988
1.308824 -0.847188 6.674988
-1.664282 -1.123382 6.674988
1.288319 -0.811112 6.674988
-1.768720 -0.996931 6.674988
-1.799487 -0.811112 6.674988
-1.850101 -0.633255 6.674988
1.314488 -1.182750 6.674988
1.324988 -0.996931 6.674988
-1.852094 -0.625293 6.674988
-1.850101 -0.617630 6.674988
-1.846487 -0.439474 6.674988
-1.807758 -0.253654 6.674988
-1.707655 -0.067835 6.674988
-1.664282 0.117917 6.674988
-1.664273 0.117984 6.674988
-1.600309 0.303803 6.674988
-1.549981 0.489622 6.674988
-1.478463 0.602582 6.674988
-1.421866 0.675441 6.674988
-1.292644 0.792607 6.674988
-1.292644 -1.450392 6.674988
-1.380818 -1.368569 6.674988
-1.149758 0.861260 6.674988
-1.106825 -1.596195 6.674988
-1.142964 -1.554389 6.674988
-1.106825 0.893515 6.674988
-0.942510 1.047080 6.674988
-1.478463 -1.304994 6.674988
-1.592618 -1.182750 6.674988
0.379728 -1.939624 6.674988
0.400529 -1.926027 6.674988
0.565547 -1.839337 6.674988
0.751367 -1.745260 6.674988
-1.106825 -1.740208 6.614269
0.751367 -1.740208 6.668179
0.937186 -1.554389 6.509143
-0.735187 -1.926027 6.519999
-0.549367 -1.926027 6.532051
1.308824 -1.182750 6.649431
-1.664282 -1.182750 6.505322
1.308824 -0.811112 6.653319
1.308824 -0.625293 6.544819
-1.850101 -0.439474 6.667606
-1.478463 -1.554389 6.525659
-1.292644 -1.554389 6.589917
-1.478463 -1.368569 6.525149
-1.664282 0.117984 6.674967
-0.177729 -1.988155 6.767898
0.937186 0.559063 6.767898
-0.084820 -1.987022 6.767898
0.919526 0.582531 6.767898
0.008090 -1.981632 6.767898
0.868843 0.675441 6.767898
0.100999 -1.971280 6.767898
0.751367 0.811526 6.767898
0.193909 -1.957225 6.767898
0.698222 0.861260 6.767898
0.844276 0.756145 6.767898
0.833180 0.768351 6.767898
1.215914 -0.575746 6.767898
1.196937 -0.532383 6.767898
0.658457 0.898311 6.767898
1.226553 -0.625293 6.767898
0.568462 0.954170 6.767898
1.155485 -0.439474 6.767898
0.565547 0.955401 6.767898
1.147191 -0.346564 6.767898
1.151855 -0.253654 6.767898
-0.735187 1.095188 6.767898
-0.642277 1.106376 6.767898
-0.576132 1.139989 6.767898
-0.549367 1.151620 6.767898
-0.456458 1.175348 6.767898
-0.363548 1.165816 6.767898
-0.270638 1.164401 6.767898
-0.177729 1.178288 6.767898
1.123005 -0.137585 6.767898
1.051725 -0.067835 6.767898
1.215914 -0.210284 6.767898
1.239147 -0.160745 6.767898
1.215914 -0.104825 6.767898
1.054784 0.025074 6.767898
1.030095 0.106181 6.767898
1.026231 0.117984 6.767898
1.029280 0.210893 6.767898
1.030095 0.212025 6.767898
1.050109 0.303803 6.767898
-0.084820 1.188035 6.767898
0.008090 1.183846 6.767898
0.193909 1.133461 6.767898
0.178398 1.139989 6.767898
0.100999 1.178388 6.767898
0.472638 1.011480 6.767898
0.425714 1.047080 6.767898
0.286819 1.093687 6.767898
0.379728 1.070416 6.767898
-0.177729 -2.018936 6.720432
0.937186 0.582531 6.719795
-0.084820 -2.018936 6.715189
0.008090 -2.018936 6.701384
0.658457 0.954170 6.729688
0.100999 -2.018936 6.682834
0.193909 -2.018936 6.686283
-0.084820 1.232899 6.677244
1.215914 -0.532383 6.694398
0.008090 1.232899 6.677426
0.100999 1.232899 6.728939
-0.642277 1.139989 6.678321
1.123005 -0.160745 6.757557
1.215914 -0.160745 6.750447
1.030095 0.117984 6.753936
1.030095 0.210893 6.751207
0.193909 1.139989 6.754615
0.472638 1.047080 6.680274
-0.084820 -1.933935 6.860807
0.937186 0.499256 6.860807
-0.093681 -1.926027 6.860807
0.004879 -1.926027 6.860807
0.875150 0.582531 6.860807
-0.177729 -1.901893 6.860807
0.008090 -1.917994 6.860807
0.844276 0.615235 6.860807
0.100999 -1.908479 6.860807
0.787429 0.675441 6.860807
0.193909 -1.866658 6.860807
0.751367 0.752357 6.860807
0.744117 0.768351 6.860807
1.228662 -0.625293 6.860807
1.227601 -0.532383 6.860807
0.658457 0.854353 6.860807
1.231425 -0.439474 6.860807
0.650433 0.861260 6.860807
1.030095 -0.322654 6.860807
1.004661 -0.253654 6.860807
0.565547 0.907748 6.860807
1.033464 -0.253654 6.860807
1.245100 -0.346564 6.860807
-0.131939 1.232899 6.860807
1.308824 -0.296893 6.860807
-0.177729 1.255386 6.860807
-0.735187 1.087721 6.860807
-0.642277 1.081252 6.860807
-0.549367 1.121189 6.860807
-0.456458 1.134915 6.860807
-0.451769 1.139989 6.860807
-0.363548 1.168061 6.860807
-0.270638 1.113333 6.860807
-0.349394 1.139989 6.860807
-0.204858 1.139989 6.860807
-0.239740 1.232899 6.860807
1.030095 -0.237754 6.860807
1.308824 -0.220441 6.860807
1.239381 -0.160745 6.860807
1.215914 -0.139863 6.860807
1.163968 -0.067835 6.860807
1.123005 -0.026370 6.860807
1.088812 0.025074 6.860807
1.053125 0.117984 6.860807
1.060390 0.210893 6.860807
1.079596 0.303803 6.860807
-0.084820 1.154203 6.860807
0.008090 1.149527 6.860807
0.100999 1.131606 6.860807
0.071749 1.139989 6.860807
0.193909 1.089539 6.860807
0.379728 1.041224 6.860807
0.370981 1.047080 6.860807
0.501356 0.954170 6.860807
0.472638 0.987655 6.860807
0.286819 1.082351 6.860807
-0.363548 -1.937662 6.860807
-0.270638 -1.939415 6.860807
-0.254426 -1.926027 6.860807
0.946019 0.489622 6.860807
0.844276 0.675441 6.795692
-0.177729 -1.926027 6.822745
0.751367 0.768351 6.844776
0.008090 -1.926027 6.848172
0.658457 0.861260 6.837791
0.100999 -1.926027 6.831198
0.193909 -1.926027 6.803297
0.565547 0.954170 6.769973
1.215914 -0.532383 6.833735
-0.177729 1.232899 6.783216
1.215914 -0.439474 6.848311
1.030095 -0.253654 6.790388
1.215914 -0.346564 6.852223
1.215914 -0.253654 6.842309
1.308824 -0.253654 6.852737
-0.549367 1.139989 6.797409
-0.456458 1.139989 6.850574
-0.270638 1.139989 6.794962
1.123005 -0.067835 6.805337
1.030095 0.117984 6.837068
1.030095 0.210893 6.785865
0.100999 1.139989 6.843760
0.379728 1.047080 6.841480
-0.921006 1.072818 6.860807
0.622234 -1.740208 6.860807
-0.549367 -1.956442 6.860807
0.751367 -1.620122 6.860807
-0.649431 -1.926027 6.860807
0.796803 -1.554389 6.860807
-0.735187 -1.865618 6.860807
0.937186 -1.403794 6.860807
-0.819154 -1.740208 6.860807
1.312828 -0.253654 6.860807
0.960427 -1.368569 6.860807
1.080166 -1.182750 6.860807
-1.664282 -0.926454 6.860807
1.123005 -1.143924 6.860807
-1.697491 -0.811112 6.860807
1.216417 -0.996931 6.860807
-1.722001 -0.625293 6.860807
1.268251 -0.811112 6.860807
-1.737058 -0.439474 6.860807
-1.694419 -0.253654 6.860807
-1.292644 -1.404505 6.860807
-1.342503 -1.368569 6.860807
-1.668045 -0.067835 6.860807
-1.106825 -1.568466 6.860807
-1.664282 -0.043520 6.860807
-1.119348 -1.554389 6.860807
-0.921006 -1.660275 6.860807
-1.602081 0.117984 6.860807
-1.478463 -1.269319 6.860807
-1.595973 0.303803 6.860807
-1.527593 -1.182750 6.860807
-1.566628 0.489622 6.860807
-1.609577 -0.996931 6.860807
-1.478463 0.573291 6.860807
-1.364911 0.675441 6.860807
0.379728 -1.859463 6.860807
-1.292644 0.778258 6.860807
0.565547 -1.771881 6.860807
-1.163956 0.861260 6.860807
-1.106825 0.975917 6.860807
-1.058033 1.047080 6.860807
0.751367 -1.740208 6.693458
-0.921006 -1.740208 6.713545
1.123005 -1.182750 6.826693
1.308824 -1.182750 6.765789
-1.664282 -0.996931 6.816519
1.308824 -0.996931 6.729172
-1.850101 -0.625293 6.679440
0.379728 -1.926027 6.694172
-0.363548 -1.879497 6.953716
-0.084820 1.111602 6.953716
-0.270638 -1.888273 6.953716
-0.141715 1.139989 6.953716
-0.177729 -1.886739 6.953716
0.008090 1.104623 6.953716
-0.084820 -1.842505 6.953716
0.008090 -1.836360 6.953716
-0.177729 1.155191 6.953716
0.100999 -1.855210 6.953716
0.100999 1.111865 6.953716
0.193909 -1.838502 6.953716
0.193909 1.089986 6.953716
1.274122 -0.625293 6.953716
1.283206 -0.532383 6.953716
0.379728 1.034395 6.953716
1.294505 -0.439474 6.953716
0.358213 1.047080 6.953716
1.301550 -0.346564 6.953716
0.472638 0.932963 6.953716
1.304852 -0.253654 6.953716
0.465462 0.954170 6.953716
0.504001 0.861260 6.953716
-0.735187 1.072155 6.953716
-0.642277 1.087314 6.953716
0.286819 1.070445 6.953716
-0.549367 1.102396 6.953716
0.751367 0.572384 6.953716
-0.456458 1.107744 6.953716
0.737780 0.582531 6.953716
-0.363548 1.101740 6.953716
0.751367 0.627369 6.953716
-0.292576 1.139989 6.953716
-0.270638 1.154893 6.953716
0.844276 0.564150 6.953716
0.933950 0.489622 6.953716
1.278782 -0.160745 6.953716
1.236092 -0.067835 6.953716
0.844276 0.630582 6.953716
0.852003 0.675441 6.953716
1.215914 -0.012173 6.953716
1.186059 0.025074 6.953716
0.751367 0.761848 6.953716
1.138361 0.117984 6.953716
0.747278 0.768351 6.953716
1.123005 0.193776 6.953716
0.565547 0.830117 6.953716
1.113731 0.210893 6.953716
0.658457 0.815595 6.953716
1.123005 0.257510 6.953716
0.844276 0.682576 6.953716
1.215914 0.132871 6.953716
1.135843 0.210893 6.953716
1.240654 0.210893 6.953716
1.215914 0.257176 6.953716
1.127490 0.303803 6.953716
-0.084820 1.139989 6.883383
0.008090 1.139989 6.880233
-0.363548 -1.926027 6.878879
-0.177729 1.232899 6.894867
-0.270638 -1.926027 6.882733
-0.084820 -1.926027 6.875196
0.472638 0.954170 6.932450
0.565547 0.861260 6.922648
1.030095 -0.253654 6.875107
0.751367 0.582531 6.915078
1.308824 -0.253654 6.886164
0.844276 0.582531 6.916712
0.937186 0.489622 6.889620
-0.363548 1.139989 6.893594
0.844276 0.675441 6.951972
-0.270638 1.139989 6.865433
1.215914 -0.067835 6.925241
1.123005 0.025074 6.914064
1.123005 0.117984 6.918204
1.123005 0.303803 6.942095
1.215914 0.210893 6.892317
-0.177729 1.136977 7.046626
-0.363548 -1.833766 7.046626
-0.084820 1.103167 7.046626
0.008090 1.113809 7.046626
-0.353820 -1.833117 7.046626
0.100999 1.105197 7.046626
-0.177729 -1.860805 7.046626
0.193909 1.075505 7.046626
-0.256624 -1.833117 7.046626
0.379728 1.031624 7.046626
0.291852 1.047080 7.046626
-0.270638 -1.825643 7.046626
0.440539 0.861260 7.046626
0.449996 0.954170 7.046626
0.286819 1.048567 7.046626
-0.084820 -1.851803 7.046626
0.937186 0.518658 7.046626
-0.021832 -1.833117 7.046626
0.871629 0.582531 7.046626
0.844276 0.630815 7.046626
0.008090 -1.823815 7.046626
0.812560 0.675441 7.046626
0.751367 0.726763 7.046626
0.100999 -1.808448 7.046626
0.664195 0.768351 7.046626
0.565547 0.781193 7.046626
0.193909 -1.814780 7.046626
0.658457 0.769425 7.046626
0.966058 0.489622 7.046626
1.308824 -0.310663 7.046626
0.658457 0.952452 7.046626
1.294627 -0.253654 7.046626
0.657699 0.954170 7.046626
0.659792 0.954170 7.046626
-0.735187 1.026731 7.046626
0.658457 0.955180 7.046626
-0.671978 1.047080 7.046626
-0.642277 1.093309 7.046626
-0.549367 1.135839 7.046626
-0.456458 1.119771 7.046626
-0.363548 1.051619 7.046626
-0.270638 1.115806 7.046626
1.266416 -0.160745 7.046626
1.232014 -0.067835 7.046626
1.215914 -0.040613 7.046626
1.189119 0.025074 7.046626
1.145853 0.117984 7.046626
1.126173 0.210893 7.046626
1.142268 0.303803 7.046626
0.472638 0.837460 7.046626
1.123005 0.372101 7.046626
1.097153 0.396712 7.046626
1.030095 0.429187 7.046626
-0.177729 1.139989 7.038529
-0.270638 -1.833117 7.037333
0.472638 0.861260 6.954048
0.008090 -1.833117 6.960556
0.751367 0.582531 7.024051
0.100999 -1.833117 6.988128
0.844276 0.582531 7.009262
0.193909 -1.833117 6.977758
0.937186 0.489622 6.963767
0.844276 0.675441 6.954347
1.308824 -0.625293 7.007177
1.308824 -0.532383 6.983235
0.658457 0.954170 7.025231
1.308824 -0.439474 6.964252
1.308824 -0.346564 7.038234
-0.735187 1.047080 6.995732
-0.270638 1.139989 7.012935
1.123005 0.210893 6.954268
1.215914 0.210893 7.004380
0.373534 -1.740208 7.046626
-0.921006 -1.745323 7.046626
0.379728 -1.737780 7.046626
-0.759187 1.047080 7.046626
-0.928819 -1.740208 7.046626
0.423522 -1.740208 7.046626
-0.735187 -1.745028 7.046626
-0.921006 1.066879 7.046626
-0.549367 -1.796132 7.046626
0.576381 -1.740208 7.046626
0.751367 -1.588607 7.046626
0.784306 -1.554389 7.046626
-1.664282 -0.441034 7.046626
0.902246 -1.368569 7.046626
-1.665233 -0.439474 7.046626
-1.664282 -0.437759 7.046626
0.937186 -1.266497 7.046626
0.958926 -1.182750 7.046626
-1.292644 -1.405704 7.046626
-1.336737 -1.368569 7.046626
0.990689 -0.996931 7.046626
-1.084406 -1.554389 7.046626
-1.106825 -1.538894 7.046626
1.123005 -0.900856 7.046626
-1.422721 -1.182750 7.046626
1.185431 -0.811112 7.046626
-1.478463 -1.048158 7.046626
-1.496691 -0.996931 7.046626
1.308824 -0.646252 7.046626
-1.594143 -0.811112 7.046626
1.319369 -0.625293 7.046626
-1.603638 -0.625293 7.046626
1.326636 -0.439474 7.046626
-1.577118 -0.253654 7.046626
0.565547 -1.747471 7.046626
-1.587311 -0.067835 7.046626
-1.483906 0.117984 7.046626
-1.553205 0.303803 7.046626
-1.505323 0.489622 7.046626
-1.478463 0.525864 7.046626
-1.313938 0.675441 7.046626
-1.292644 0.714239 7.046626
-1.212486 0.861260 7.046626
-1.107478 1.047080 7.046626
-1.106825 1.047513 7.046626
-0.921006 -1.740208 6.867777
0.379728 -1.740208 7.044659
-0.549367 -1.926027 6.887355
0.937186 -1.368569 6.936294
-1.664282 -0.811112 6.932696
-1.664282 -0.625293 7.015067
1.123005 -0.996931 6.948531
-1.664282 -0.253654 6.902201
-1.106825 -1.554389 6.917431
-1.478463 -1.182750 6.934048
-1.664282 -0.067835 6.871076
-1.106825 1.047080 7.045882
-0.177729 -1.896160 7.139536
0.565547 0.878235 7.139536
-0.209099 -1.833117 7.139536
0.502786 0.954170 7.139536
-0.363548 -1.785285 7.139536
-0.270638 -1.801467 7.139536
0.379728 0.985686 7.139536
0.463105 1.047080 7.139536
0.486177 1.047080 7.139536
-0.084820 -1.897926 7.139536
0.008090 -1.833485 7.139536
0.193909 1.069772 7.139536
0.009573 -1.833117 7.139536
0.286819 1.066426 7.139536
0.100999 -1.806498 7.139536
0.299986 1.047080 7.139536
0.193909 -1.772787 7.139536
0.472638 1.057895 7.139536
-0.735187 1.049682 7.139536
0.658457 0.669685 7.139536
-0.642277 1.057422 7.139536
0.568195 0.675441 7.139536
-0.549367 1.078535 7.139536
0.728064 0.675441 7.139536
0.937186 0.540981 7.139536
-0.456458 1.089684 7.139536
0.896011 0.582531 7.139536
-0.363548 1.065288 7.139536
0.844276 0.652324 7.139536
0.807176 0.675441 7.139536
-0.270638 1.065473 7.139536
0.565547 0.680689 7.139536
-0.177729 1.073792 7.139536
0.751367 0.689215 7.139536
0.565547 0.857604 7.139536
0.566845 0.861260 7.139536
0.844276 0.107009 7.139536
0.816159 0.117984 7.139536
1.022258 0.489622 7.139536
0.894549 0.117984 7.139536
1.123005 0.102308 7.139536
1.117768 0.117984 7.139536
0.844276 0.203142 7.139536
1.095460 0.210893 7.139536
1.078870 0.303803 7.139536
1.123005 0.389606 7.139536
1.030095 0.465759 7.139536
1.123005 0.413888 7.139536
1.137429 0.396712 7.139536
0.472638 0.699653 7.139536
0.471442 0.768351 7.139536
0.472638 0.772368 7.139536
-0.084820 1.081514 7.139536
0.008090 1.091976 7.139536
0.472638 0.861260 7.073275
-0.363548 -1.833117 7.047917
0.472638 0.954170 7.112761
0.565547 0.861260 7.137315
0.472638 1.047080 7.129713
0.008090 -1.833117 7.138119
0.658457 0.675441 7.135093
-0.735187 1.047080 7.137303
0.565547 0.768351 7.067200
0.658457 0.768351 7.048591
0.844276 0.117984 7.084908
1.123005 0.117984 7.126700
0.658457 0.954170 7.053303
1.123005 0.210893 7.057887
1.123005 0.303803 7.077613
1.123005 0.396712 7.127339
0.472638 0.768351 7.135102
0.379728 0.916874 7.232446
-0.363548 -1.770331 7.232446
0.464797 0.954170 7.232446
-0.270638 -1.809059 7.232446
0.515929 0.861260 7.232446
0.515965 0.954170 7.232446
-0.177729 -1.831852 7.232446
0.472638 0.959125 7.232446
-0.084820 -1.838066 7.232446
0.565547 0.574100 7.232446
0.658457 0.523616 7.232446
-0.160451 -1.833117 7.232446
0.692750 0.582531 7.232446
0.008090 -1.846303 7.232446
0.751367 0.660655 7.232446
0.937186 0.551805 7.232446
0.033777 -1.833117 7.232446
0.911462 0.582531 7.232446
0.753475 0.675441 7.232446
0.100999 -1.789802 7.232446
0.895763 0.675441 7.232446
0.192145 -1.740208 7.232446
0.844276 0.705188 7.232446
1.014085 0.489622 7.232446
0.193909 -1.739396 7.232446
-0.735187 1.065846 7.232446
-0.642277 1.051685 7.232446
-0.620871 1.047080 7.232446
-0.549367 1.033531 7.232446
-0.456458 1.035157 7.232446
-0.363548 1.036757 7.232446
-0.270638 1.046838 7.232446
-0.268785 1.047080 7.232446
-0.177729 1.056087 7.232446
1.123005 -0.030371 7.232446
1.115571 0.025074 7.232446
1.081674 0.117984 7.232446
1.030095 0.175266 7.232446
1.008811 0.210893 7.232446
1.030095 0.222109 7.232446
1.039846 0.303803 7.232446
1.033411 0.396712 7.232446
1.030095 0.437832 7.232446
0.552910 0.582531 7.232446
0.472638 0.638188 7.232446
0.437719 0.675441 7.232446
0.462221 0.768351 7.232446
0.472638 0.796487 7.232446
-0.084820 1.061081 7.232446
0.008090 1.065759 7.232446
0.288223 0.954170 7.232446
0.193909 0.994340 7.232446
0.286819 0.955284 7.232446
-0.177729 -1.833117 7.225199
0.379728 0.954170 7.177430
0.565547 0.861260 7.187141
0.472638 1.047080 7.154000
0.193909 -1.740208 7.230566
0.193909 1.047080 7.175445
0.286819 1.047080 7.161836
-0.549367 1.047080 7.204936
-0.456458 1.047080 7.210147
0.565547 0.582531 7.218800
0.658457 0.582531 7.174407
-0.363548 1.047080 7.214992
0.565547 0.675441 7.145452
-0.270638 1.047080 7.231379
0.751367 0.675441 7.184300
0.844276 0.675441 7.149336
0.844276 0.117984 7.155414
1.123005 0.025074 7.211263
1.030095 0.210893 7.196463
1.123005 0.396712 7.154552
0.472638 0.675441 7.152155
-0.406247 -1.740208 7.232446
1.219386 -0.253654 7.232446
1.128642 -0.067835 7.232446
0.101648 1.047080 7.232446
-1.292644 -1.404159 7.232446
0.807614 -1.368569 7.232446
-1.315298 -1.368569 7.232446
0.906349 -1.182750 7.232446
0.937186 -1.009901 7.232446
-0.921006 -1.674104 7.232446
0.940845 -0.996931 7.232446
-1.084891 -1.554389 7.232446
1.123005 -0.880611 7.232446
-1.106825 -1.541851 7.232446
1.176567 -0.811112 7.232446
1.250095 -0.625293 7.232446
-1.419436 -1.182750 7.232446
1.235624 -0.439474 7.232446
-1.478463 -1.052197 7.232446
-1.493470 -0.996931 7.232446
-1.478463 -0.252337 7.232446
-0.735187 -1.720386 7.232446
-1.495883 -0.067835 7.232446
-1.445019 -0.253654 7.232446
-0.549367 -1.704133 7.232446
-1.480356 0.117984 7.232446
-1.478463 0.152149 7.232446
-1.494543 -0.811112 7.232446
-1.454555 0.303803 7.232446
-1.361129 0.489622 7.232446
-1.292644 0.581358 7.232446
-1.226216 0.675441 7.232446
-1.537570 -0.625293 7.232446
-1.106854 0.861260 7.232446
-1.106825 0.861294 7.232446
-0.921006 1.029567 7.232446
-1.540688 -0.439474 7.232446
-0.872761 1.047080 7.232446
-1.478463 -0.348414 7.232446
0.379728 -1.731269 7.232446
0.565547 -1.690974 7.232446
0.714797 -1.554389 7.232446
0.751367 -1.467903 7.232446
-0.921006 -1.740208 7.134099
0.937186 -1.182750 7.121443
-0.735187 -1.740208 7.077351
1.308824 -0.625293 7.160731
1.308824 -0.439474 7.114868
-0.549367 -1.740208 7.127508
-1.664282 -0.439474 7.048166
-1.478463 -0.253654 7.171477
-1.478463 0.303803 7.206162
-1.478463 0.489622 7.091372
-1.292644 0.675441 7.081871
0.565547 -1.740208 7.088589
-1.106825 1.047080 7.047544
-0.921006 1.047080 7.185849
0.751367 -1.554389 7.156408
1.092887 -0.067835 7.325355
1.085628 0.025074 7.325355
1.103059 0.117984 7.325355
0.937186 0.459881 7.325355
0.908629 0.489622 7.325355
1.050723 0.210893 7.325355
1.030095 0.253668 7.325355
1.003039 0.303803 7.325355
0.980994 0.396712 7.325355
0.472638 0.635234 7.325355
0.442225 0.675441 7.325355
0.565547 0.594393 7.325355
0.379728 0.838965 7.325355
0.370021 0.861260 7.325355
0.397662 0.768351 7.325355
0.193909 0.934809 7.325355
0.286819 0.895810 7.325355
0.751367 0.581584 7.325355
0.734437 0.582531 7.325355
0.658457 0.583862 7.325355
0.826193 0.582531 7.325355
0.894217 0.582531 7.325355
0.844276 0.666416 7.325355
1.123005 -0.067835 7.245035
0.937186 0.489622 7.299679
1.030095 0.210893 7.274654
1.030095 0.303803 7.253869
1.030095 0.396712 7.242093
0.565547 0.582531 7.256743
0.379728 0.861260 7.318844
0.472638 0.861260 7.245250
0.193909 0.954170 7.296665
0.286819 0.954170 7.234235
0.472638 0.954170 7.235619
0.658457 0.582531 7.321732
0.751367 0.582531 7.324317
0.844276 0.675441 7.317126
1.030095 -0.019569 7.418264
1.025693 0.025074 7.418264
1.040137 -0.067835 7.418264
1.011730 0.117984 7.418264
0.751367 0.456496 7.418264
0.683828 0.489622 7.418264
0.937186 0.341526 7.418264
0.895943 0.396712 7.418264
0.839450 0.489622 7.418264
0.850855 0.489622 7.418264
0.968400 0.210893 7.418264
0.967063 0.303803 7.418264
0.565547 0.551566 7.418264
0.518877 0.582531 7.418264
0.472638 0.611046 7.418264
0.380646 0.675441 7.418264
0.379728 0.677468 7.418264
0.325222 0.768351 7.418264
0.286819 0.833528 7.418264
0.270976 0.861260 7.418264
0.193909 0.894090 7.418264
0.658457 0.505580 7.418264
0.844276 0.491434 7.418264
1.030095 0.025074 7.413311
1.030095 0.117984 7.368283
0.751367 0.489622 7.397701
0.937186 0.396712 7.381032
1.030095 0.210893 7.370266
0.565547 0.582531 7.367688
0.379728 0.768351 7.367688
0.286819 0.861260 7.404283
0.658457 0.582531 7.329941
0.844276 0.582531 7.363124
1.123005 -0.179175 7.418264
-0.177729 -1.789743 7.418264
0.687323 -1.368569 7.418264
1.154224 -0.253654 7.418264
-0.308443 -1.740208 7.418264
0.751367 -1.260211 7.418264
0.805351 -1.182750 7.418264
-0.177729 1.000401 7.418264
-1.106825 -1.444421 7.418264
0.862135 -0.996931 7.418264
0.008090 0.934984 7.418264
-1.184244 -1.368569 7.418264
0.937186 -0.852513 7.418264
-0.921006 -1.551331 7.418264
0.964743 -0.811112 7.418264
-1.292644 -1.212997 7.418264
1.076684 -0.625293 7.418264
-1.311082 -1.182750 7.418264
1.123005 -0.544477 7.418264
-1.372191 -0.996931 7.418264
1.156434 -0.439474 7.418264
-0.735187 -1.625955 7.418264
-0.915492 -1.554389 7.418264
-0.549367 -1.714129 7.418264
-1.436991 -0.253654 7.418264
-1.412708 -0.067835 7.418264
-0.363548 -1.715099 7.418264
-1.362854 0.117984 7.418264
-1.432167 -0.811112 7.418264
-1.304669 0.303803 7.418264
-1.478463 -0.665616 7.418264
-1.292644 0.327661 7.418264
-1.484422 -0.625293 7.418264
-1.199171 0.489622 7.418264
-1.478463 -0.444456 7.418264
-1.127635 0.675441 7.418264
-1.473990 -0.439474 7.418264
-1.106825 0.698654 7.418264
-0.921219 0.861260 7.418264
0.008090 -1.788328 7.418264
-0.921006 0.861421 7.418264
0.094182 -1.740208 7.418264
0.193909 -1.675395 7.418264
0.379728 -1.610950 7.418264
0.565547 -1.561876 7.418264
-0.735187 0.961623 7.418264
0.577199 -1.554389 7.418264
-0.549367 0.981141 7.418264
-0.363548 0.980457 7.418264
-0.363548 -1.740208 7.333505
-0.177729 1.047080 7.277695
0.751367 -1.368569 7.302089
0.008090 1.047080 7.263850
0.937186 -0.996931 7.240024
-1.292644 -1.368569 7.272725
-0.921006 -1.554389 7.412941
1.123005 -0.811112 7.284352
-1.478463 -0.996931 7.262256
1.123005 -0.625293 7.344372
-1.478463 -0.811112 7.286464
-1.478463 -0.067835 7.266490
-1.478463 -0.439474 7.409225
-1.478463 0.117984 7.238136
-1.292644 0.489622 7.311455
-1.106825 0.861260 7.232486
-0.735187 1.047080 7.301141
0.937186 0.063808 7.511174
0.896231 0.117984 7.511174
0.751367 0.298810 7.511174
0.697874 0.303803 7.511174
0.854788 0.210893 7.511174
0.844276 0.220909 7.511174
0.658457 0.346080 7.511174
0.652043 0.396712 7.511174
0.586126 0.489622 7.511174
0.986538 0.117984 7.511174
1.030095 0.149490 7.511174
1.065898 0.117984 7.511174
0.100999 0.704627 7.511174
0.063046 0.768351 7.511174
0.193909 0.729913 7.511174
0.057365 0.861260 7.511174
0.286819 0.661446 7.511174
0.271949 0.675441 7.511174
0.379728 0.606016 7.511174
0.472638 0.559338 7.511174
0.434389 0.582531 7.511174
0.565547 0.507100 7.511174
0.937186 0.117984 7.484799
0.751367 0.303803 7.508182
0.937186 0.210893 7.449486
0.844276 0.303803 7.461670
0.937186 0.303803 7.434640
0.658457 0.396712 7.505390
0.751367 0.396712 7.460941
0.658457 0.489622 7.435865
0.844276 0.396712 7.441691
0.844276 0.489622 7.419375
1.030095 0.117984 7.467847
0.100999 0.768351 7.481331
0.193909 0.768351 7.482062
0.100999 0.861260 7.488139
0.193909 0.861260 7.452251
0.286819 0.675441 7.498916
0.379728 0.675441 7.418964
0.472638 0.582531 7.471247
0.286819 0.768351 7.432841
0.472638 0.275465 7.604084
0.466618 0.303803 7.604084
0.487705 0.303803 7.604084
0.456798 0.396712 7.604084
0.565547 0.346156 7.604084
0.472638 0.472739 7.604084
0.507328 0.489622 7.604084
0.937186 -0.069144 7.604084
0.936360 -0.067835 7.604084
0.844276 0.004587 7.604084
0.795635 0.025074 7.604084
0.783158 0.117984 7.604084
0.751367 0.153256 7.604084
0.687355 0.210893 7.604084
0.658457 0.223753 7.604084
0.607785 0.303803 7.604084
0.193909 0.574586 7.604084
0.119194 0.582531 7.604084
0.100999 0.589777 7.604084
0.053218 0.675441 7.604084
0.008090 0.725186 7.604084
-0.074086 0.768351 7.604084
-0.177729 0.774265 7.604084
-0.084820 0.774848 7.604084
0.264909 0.582531 7.604084
0.379728 0.500923 7.604084
0.309950 0.582531 7.604084
0.286819 0.588144 7.604084
0.472638 0.527238 7.604084
0.975679 -0.439474 7.604084
0.985682 -0.346564 7.604084
0.976471 -0.253654 7.604084
0.964550 -0.160745 7.604084
0.472638 0.303803 7.600217
0.472638 0.396712 7.578862
0.565547 0.396712 7.556152
0.565547 0.489622 7.532875
0.937186 -0.067835 7.603106
0.844276 0.025074 7.589483
0.937186 0.025074 7.537945
0.844276 0.117984 7.572715
0.751367 0.210893 7.568190
0.658457 0.303803 7.517879
0.844276 0.210893 7.517241
1.030095 0.117984 7.539243
0.193909 0.582531 7.597222
0.100999 0.675441 7.545408
0.193909 0.675441 7.564079
0.008090 0.768351 7.577373
-0.177729 0.861260 7.547607
-0.084820 0.861260 7.546082
0.008090 0.861260 7.542983
0.379728 0.582531 7.560720
0.452755 -1.368569 7.604084
-0.921006 -1.364706 7.604084
0.565547 -1.243886 7.604084
-1.044852 -1.182750 7.604084
-1.106825 -1.048080 7.604084
0.604995 -1.182750 7.604084
-1.145916 -0.996931 7.604084
0.704437 -0.996931 7.604084
-0.735187 -1.459521 7.604084
0.751367 -0.899252 7.604084
-0.913786 -1.368569 7.604084
0.801741 -0.811112 7.604084
-0.549367 -1.504539 7.604084
0.928430 -0.625293 7.604084
-0.363548 -1.557050 7.604084
-0.373807 -1.554389 7.604084
0.937186 -0.601408 7.604084
-0.177729 -1.592638 7.604084
-1.292644 -0.647234 7.604084
-1.296216 -0.625293 7.604084
-1.309346 -0.253654 7.604084
-1.259063 -0.811112 7.604084
-1.292644 -0.198927 7.604084
-1.312421 -0.439474 7.604084
-1.240584 -0.067835 7.604084
-1.191176 0.117984 7.604084
0.008090 -1.593119 7.604084
-1.106825 0.297208 7.604084
0.121652 -1.554389 7.604084
-1.103032 0.303803 7.604084
0.193909 -1.514810 7.604084
-0.935117 0.489622 7.604084
0.379728 -1.424692 7.604084
-0.921006 0.517797 7.604084
-0.809112 0.675441 7.604084
-0.735187 0.713368 7.604084
-0.566359 0.861260 7.604084
-0.296866 0.861260 7.604084
-0.549367 0.870790 7.604084
-0.363548 0.885754 7.604084
-0.177729 -1.740208 7.491082
1.123005 -0.253654 7.461678
0.565547 -1.368569 7.535747
-1.106825 -1.368569 7.493196
-0.921006 -1.368569 7.601358
0.565547 -1.554389 7.426032
-1.292644 -1.182750 7.436973
0.751367 -1.182750 7.467588
-1.292644 -0.996931 7.513753
0.751367 -0.996931 7.556736
-1.106825 -1.182750 7.559332
0.937186 -0.811112 7.462833
-0.735187 -1.554389 7.524392
0.937186 -0.625293 7.595015
-0.549367 -1.554389 7.560456
1.123005 -0.439474 7.459327
-1.292644 -0.811112 7.577198
-1.292644 -0.067835 7.563594
-1.478463 -0.625293 7.431050
-1.292644 0.117984 7.500211
-1.292644 0.303803 7.431868
0.008090 -1.740208 7.480502
-1.106825 0.303803 7.601296
-1.106825 0.489622 7.509935
0.193909 -1.554389 7.576776
-1.106825 0.675441 7.434933
-0.921006 0.675441 7.563457
0.379728 -1.554389 7.496932
-0.921006 0.861260 7.418430
-0.735187 0.861260 7.502113
0.852118 -0.439474 7.696993
0.915565 -0.346564 7.696993
0.853992 -0.253654 7.696993
0.565547 0.300804 7.696993
0.552571 0.303803 7.696993
0.286819 0.478595 7.696993
0.263517 0.489622 7.696993
0.379728 0.401829 7.696993
0.517513 0.396712 7.696993
0.472638 0.412616 7.696993
0.933336 -0.160745 7.696993
0.844276 -0.134851 7.696993
0.784286 -0.067835 7.696993
0.751367 -0.029644 7.696993
0.676915 0.025074 7.696993
0.658457 0.033940 7.696993
0.567671 0.117984 7.696993
0.627724 0.210893 7.696993
0.008090 0.648177 7.696993
-0.022751 0.675441 7.696993
0.100999 0.580681 7.696993
0.098531 0.582531 7.696993
0.193909 0.518410 7.696993
-0.177729 0.728740 7.696993
-0.084820 0.708970 7.696993
0.937186 -0.439474 7.636508
0.937186 -0.346564 7.680445
0.937186 -0.253654 7.651539
0.472638 0.303803 7.626735
0.565547 0.303803 7.686132
0.286819 0.489622 7.689890
0.379728 0.489622 7.610902
0.472638 0.396712 7.628669
0.472638 0.489622 7.627606
0.937186 -0.160745 7.695332
0.844276 -0.067835 7.646243
0.751367 0.025074 7.623585
0.658457 0.117984 7.641366
0.751367 0.117984 7.619723
0.658457 0.210893 7.631345
0.008090 0.675441 7.656158
0.100999 0.582531 7.672842
-0.177729 0.768351 7.611482
-0.084820 0.768351 7.608198
0.286819 0.582531 7.610044
0.844276 -0.439474 7.702224
0.844276 -0.253654 7.700877
0.565547 0.117984 7.701894
0.379728 0.396712 7.699764
-0.921006 -1.182750 7.674534
-1.106825 -0.996931 7.622009
0.379728 -1.368569 7.643643
-0.921006 -0.996931 7.693738
0.565547 -1.182750 7.634086
-0.735187 -1.368569 7.647750
-0.549367 -1.368569 7.687645
-0.363548 -1.554389 7.606306
-0.177729 -1.554389 7.630988
0.751367 -0.811112 7.634529
-1.292644 -0.625293 7.606257
-1.292644 -0.253654 7.616187
-1.106825 -0.811112 7.687102
-1.106825 -0.253654 7.706377
-1.106825 -0.067835 7.686874
-1.292644 -0.439474 7.619616
-1.106825 0.117984 7.672291
0.008090 -1.554389 7.631633
-0.921006 0.489622 7.611747
-0.735187 0.675441 7.629021
-0.549367 0.861260 7.612972
-0.363548 0.861260 7.645010
0.937737 -0.795366 -2.614608
0.637737 -0.695366 -2.614608
0.737737 -0.695366 -2.614608
0.837737 -0.695366 -2.614608
0.937737 -0.695366 -2.614608
0.437737 -0.595366 -2.614608
0.537737 -0.595366 -2.614608
0.637737 -0.595366 -2.614608
0.737737 -0.595366 -2.614608
0.837737 -0.595366 -2.614608
0.937737 -0.595366 -2.614608
0.137737 -0.495366 -2.614608
0.237737 -0.495366 -2.614608
0.337737 -0.495366 -2.614608
0.437737 -0.495366 -2.614608
0.537737 -0.495366 -2.614608
0.637737 -0.495366 -2.614608
0.737737 -0.495366 -2.614608
0.837737 -0.495366 -2.614608
0.937737 -0.495366 -2.614608
-0.062263 -0.395366 -2.614608
0.037737 -0.395366 -2.614608
0.137737 -0.395366 -2.614608
0.237737 -0.395366 -2.614608
0.337737 -0.395366 -2.614608
0.437737 -0.395366 -2.614608
0.537737 -0.395366 -2.614608
0.637737 -0.395366 -2.614608
0.737737 -0.395366 -2.614608
0.837737 -0.395366 -2.614608
0.937737 -0.395366 -2.614608
-0.362263 -0.295366 -2.614608
-0.262263 -0.295366 -2.614608
-0.162263 -0.295366 -2.614608
-0.062263 -0.295366 -2.614608
0.037737 -0.295366 -2.614608
0.137737 -0.295366 -2.614608
0.237737 -0.295366 -2.614608
0.337737 -0.295366 -2.614608
0.437737 -0.295366 -2.614608
0.537737 -0.295366 -2.614608
0.637737 -0.295366 -2.614608
0.737737 -0.295366 -2.614608
0.837737 -0.295366 -2.614608
0.937737 -0.295366 -2.614608
-0.662263 -0.195366 -2.614608
-0.562263 -0.195366 -2.614608
-0.462263 -0.195366 -2.614608
-0.362263 -0.195366 -2.614608
-0.262263 -0.195366 -2.614608
-0.162263 -0.195366 -2.614608
-0.062263 -0.195366 -2.614608
0.037737 -0.195366 -2.614608
0.137737 -0.195366 -2.614608
0.237737 -0.195366 -2.614608
0.337737 -0.195366 -2.614608
0.437737 -0.195366 -2.614608
0.537737 -0.195366 -2.614608
0.637737 -0.195366 -2.614608
0.737737 -0.195366 -2.614608
0.837737 -0.195366 -2.614608
0.937737 -0.195366 -2.614608
-0.862263 -0.095366 -2.614608
-0.762263 -0.095366 -2.614608
-0.662263 -0.095366 -2.614608
-0.562263 -0.095366 -2.614608
-0.462263 -0.095366 -2.614608
-0.362263 -0.095366 -2.614608
-0.262263 -0.095366 -2.614608
-0.162263 -0.095366 -2.614608
-0.062263 -0.095366 -2.614608
0.037737 -0.095366 -2.614608
0.137737 -0.095366 -2.614608
0.237737 -0.095366 -2.614608
0.337737 -0.095366 -2.614608
0.437737 -0.095366 -2.614608
0.537737 -0.095366 -2.614608
0.637737 -0.095366 -2.614608
0.737737 -0.095366 -2.614608
0.837737 -0.095366 -2.614608
0.937737 -0.095366 -2.614608
1.037737 -0.095366 -2.614608
-1.162263 0.004634 -2.614608
-1.062263 0.004634 -2.614608
-0.962263 0.004634 -2.614608
-0.862263 0.004634 -2.614608
-0.762263 0.004634 -2.614608
-0.662263 0.004634 -2.614608
-0.562263 0.004634 -2.614608
-0.462263 0.004634 -2.614608
-0.362263 0.004634 -2.614608
-0.262263 0.004634 -2.614608
-0.162263 0.004634 -2.614608
-0.062263 0.004634 -2.614608
0.037737 0.004634 -2.614608
0.137737 0.004634 -2.614608
0.237737 0.004634 -2.614608
0.337737 0.004634 -2.614608
0.437737 0.004634 -2.614608
0.537737 0.004634 -2.614608
0.637737 0.004634 -2.614608
0.737737 0.004634 -2.614608
0.837737 0.004634 -2.614608
0.937737 0.004634 -2.614608
1.037737 0.004634 -2.614608
-1.362263 0.104634 -2.614608
-1.262263 0.104634 -2.614608
-1.162263 0.104634 -2.614608
-1.062263 0.104634 -2.614608
-0.962263 0.104634 -2.614608
-0.862263 0.104634 -2.614608
-0.762263 0.104634 -2.614608
-0.662263 0.104634 -2.614608
-0.562263 0.104634 -2.614608
-0.462263 0.104634 -2.614608
-0.362263 0.104634 -2.614608
-0.262263 0.104634 -2.614608
-0.162263 0.104634 -2.614608
-0.062263 0.104634 -2.614608
0.037737 0.104634 -2.614608
0.137737 0.104634 -2.614608
0.237737 0.104634 -2.614608
0.337737 0.104634 -2.614608
0.437737 0.104634 -2.614608
0.537737 0.104634 -2.614608
0.637737 0.104634 -2.614608
0.737737 0.104634 -2.614608
0.837737 0.104634 -2.614608
0.937737 0.104634 -2.614608
1.037737 0.104634 -2.614608
-1.362263 0.204634 -2.614608
-1.262263 0.204634 -2.614608
-1.162263 0.204634 -2.614608
-1.062263 0.204634 -2.614608
-0.962263 0.204634 -2.614608
-0.862263 0.204634 -2.614608
-0.762263 0.204634 -2.614608
-0.662263 0.204634 -2.614608
-0.562263 0.204634 -2.614608
-0.462263 0.204634 -2.614608
-0.362263 0.204634 -2.614608
-0.262263 0.204634 -2.614608
-0.162263 0.204634 -2.614608
-0.062263 0.204634 -2.614608
0.037737 0.204634 -2.614608
0.137737 0.204634 -2.614608
0.237737 0.204634 -2.614608
0.337737 0.204634 -2.614608
0.437737 0.204634 -2.614608
0.537737 0.204634 -2.614608
0.637737 0.204634 -2.614608
0.737737 0.204634 -2.614608
0.837737 0.204634 -2.614608
0.937737 0.204634 -2.614608
1.037737 0.204634 -2.614608
-1.362263 0.304634 -2.614608
-1.262263 0.304634 -2.614608
-1.162263 0.304634 -2.614608
-1.062263 0.304634 -2.614608
-0.962263 0.304634 -2.614608
-0.862263 0.304634 -2.614608
-0.762263 0.304634 -2.614608
-0.662263 0.304634 -2.614608
-0.562263 0.304634 -2.614608
-0.462263 0.304634 -2.614608
-0.362263 0.304634 -2.614608
-0.262263 0.304634 -2.614608
-0.162263 0.304634 -2.614608
-0.062263 0.304634 -2.614608
0.037737 0.304634 -2.614608
0.137737 0.304634 -2.614608
0.237737 0.304634 -2.614608
0.337737 0.304634 -2.614608
0.437737 0.304634 -2.614608
0.537737 0.304634 -2.614608
0.637737 0.304634 -2.614608
0.737737 0.304634 -2.614608
0.837737 0.304634 -2.614608
0.937737 0.304634 -2.614608
1.037737 0.304634 -2.614608
-1.362263 0.404634 -2.614608
-1.262263 0.404634 -2.614608
-1.162263 0.404634 -2.614608
-1.062263 0.404634 -2.614608
-0.962263 0.404634 -2.614608
-0.862263 0.404634 -2.614608
-0.762263 0.404634 -2.614608
-0.662263 0.404634 -2.614608
-0.562263 0.404634 -2.614608
-0.462263 0.404634 -2.614608
-0.362263 0.404634 -2.614608
-0.262263 0.404634 -2.614608
-0.162263 0.404634 -2.614608
-0.062263 0.404634 -2.614608
0.037737 0.404634 -2.614608
0.137737 0.404634 -2.614608
0.237737 0.404634 -2.614608
0.337737 0.404634 -2.614608
0.437737 0.404634 -2.614608
0.537737 0.404634 -2.614608
0.637737 0.404634 -2.614608
0.737737 0.404634 -2.614608
0.837737 0.404634 -2.614608
0.937737 0.404634 -2.614608
1.037737 0.404634 -2.614608
-1.262263 0.504634 -2.614608
-1.162263 0.504634 -2.614608
-1.062263 0.504634 -2.614608
-0.962263 0.504634 -2.614608
-0.862263 0.504634 -2.614608
-0.762263 0.504634 -2.614608
-0.662263 0.504634 -2.614608
-0.562263 0.504634 -2.614608
-0.462263 0.504634 -2.614608
-0.362263 0.504634 -2.614608
-0.262263 0.504634 -2.614608
-0.162263 0.504634 -2.614608
-0.062263 0.504634 -2.614608
0.037737 0.504634 -2.614608
0.137737 0.504634 -2.614608
0.237737 0.504634 -2.614608
0.337737 0.504634 -2.614608
0.437737 0.504634 -2.614608
0.537737 0.504634 -2.614608
0.637737 0.504634 -2.614608
0.737737 0.504634 -2.614608
0.837737 0.504634 -2.614608
0.937737 0.504634 -2.614608
1.037737 0.504634 -2.614608
-1.262263 0.604634 -2.614608
-1.162263 0.604634 -2.614608
-1.062263 0.604634 -2.614608
-0.962263 0.604634 -2.614608
-0.862263 0.604634 -2.614608
-0.762263 0.604634 -2.614608
-0.662263 0.604634 -2.614608
-0.562263 0.604634 -2.614608
-0.462263 0.604634 -2.614608
-0.362263 0.604634 -2.614608
-0.262263 0.604634 -2.614608
-0.162263 0.604634 -2.614608
-0.062263 0.604634 -2.614608
0.037737 0.604634 -2.614608
0.137737 0.604634 -2.614608
0.237737 0.604634 -2.614608
0.337737 0.604634 -2.614608
0.437737 0.604634 -2.614608
0.537737 0.604634 -2.614608
0.637737 0.604634 -2.614608
0.737737 0.604634 -2.614608
0.837737 0.604634 -2.614608
-1.162263 0.704634 -2.614608
-1.062263 0.704634 -2.614608
-0.962263 0.704634 -2.614608
-0.862263 0.704634 -2.614608
-0.762263 0.704634 -2.614608
-0.662263 0.704634 -2.614608
-0.562263 0.704634 -2.614608
-0.462263 0.704634 -2.614608
-0.362263 0.704634 -2.614608
-0.262263 0.704634 -2.614608
-0.162263 0.704634 -2.614608
-0.062263 0.704634 -2.614608
0.037737 0.704634 -2.614608
0.137737 0.704634 -2.614608
0.237737 0.704634 -2.614608
0.337737 0.704634 -2.614608
0.437737 0.704634 -2.614608
0.537737 0.704634 -2.614608
0.637737 0.704634 -2.614608
-1.062263 0.804634 -2.614608
-0.962263 0.804634 -2.614608
-0.862263 0.804634 -2.614608
-0.762263 0.804634 -2.614608
-0.662263 0.804634 -2.614608
-0.562263 0.804634 -2.614608
-0.462263 0.804634 -2.614608
-0.362263 0.804634 -2.614608
-0.262263 0.804634 -2.614608
-0.162263 0.804634 -2.614608
-0.062263 0.804634 -2.614608
0.037737 0.804634 -2.614608
0.137737 0.804634 -2.614608
0.237737 0.804634 -2.614608
0.337737 0.804634 -2.614608
0.437737 0.804634 -2.614608
-0.862263 0.904634 -2.614608
-0.762263 0.904634 -2.614608
-0.662263 0.904634 -2.614608
-0.562263 0.904634 -2.614608
-0.462263 0.904634 -2.614608
-0.362263 0.904634 -2.614608
-0.262263 0.904634 -2.614608
-0.162263 0.904634 -2.614608
-0.062263 0.904634 -2.614608
0.037737 0.904634 -2.614608
0.137737 0.904634 -2.614608
0.237737 0.904634 -2.614608
-0.662263 1.004634 -2.614608
-0.562263 1.004634 -2.614608
-0.462263 1.004634 -2.614608
-0.362263 1.004634 -2.614608
-0.262263 1.004634 -2.614608
-0.162263 1.004634 -2.614608
-0.062263 1.004634 -2.614608
0.037737 1.004634 -2.614608
-0.562263 1.104634 -2.614608
-0.462263 1.104634 -2.614608
-0.362263 1.104634 -2.614608
-0.262263 1.104634 -2.614608
-0.162263 1.104634 -2.614608
-0.362263 1.204634 -2.614608
-0.462263 -1.295366 7.807264
-0.362263 -1.295366 7.807264
-0.262263 -1.295366 7.807264
-0.162263 -1.295366 7.807264
-0.062263 -1.295366 7.807264
0.037737 -1.295366 7.807264
0.137737 -1.295366 7.807264
0.237737 -1.295366 7.807264
-0.662263 -1.195366 7.807264
-0.562263 -1.195366 7.807264
-0.462263 -1.195366 7.807264
-0.362263 -1.195366 7.807264
-0.262263 -1.195366 7.807264
-0.162263 -1.195366 7.807264
-0.062263 -1.195366 7.807264
0.037737 -1.195366 7.807264
0.137737 -1.195366 7.807264
0.237737 -1.195366 7.807264
0.337737 -1.195366 7.807264
-0.762263 -1.095366 7.807264
-0.662263 -1.095366 7.807264
-0.562263 -1.095366 7.807264
-0.462263 -1.095366 7.807264
-0.362263 -1.095366 7.807264
-0.262263 -1.095366 7.807264
-0.162263 -1.095366 7.807264
-0.062263 -1.095366 7.807264
0.037737 -1.095366 7.807264
0.137737 -1.095366 7.807264
0.237737 -1.095366 7.807264
0.337737 -1.095366 7.807264
0.437737 -1.095366 7.807264
-0.762263 -0.995366 7.807264
-0.662263 -0.995366 7.807264
-0.562263 -0.995366 7.807264
-0.462263 -0.995366 7.807264
-0.362263 -0.995366 7.807264
-0.262263 -0.995366 7.807264
-0.162263 -0.995366 7.807264
-0.062263 -0.995366 7.807264
0.037737 -0.995366 7.807264
0.137737 -0.995366 7.807264
0.237737 -0.995366 7.807264
0.337737 -0.995366 7.807264
0.437737 -0.995366 7.807264
0.537737 -0.995366 7.807264
-0.862263 -0.895366 7.807264
-0.762263 -0.895366 7.807264
-0.662263 -0.895366 7.807264
-0.562263 -0.895366 7.807264
-0.462263 -0.895366 7.807264
-0.362263 -0.895366 7.807264
-0.262263 -0.895366 7.807264
-0.162263 -0.895366 7.807264
-0.062263 -0.895366 7.807264
0.037737 -0.895366 7.807264
0.137737 -0.895366 7.807264
0.237737 -0.895366 7.807264
0.337737 -0.895366 7.807264
0.437737 -0.895366 7.807264
0.537737 -0.895366 7.807264
-0.962263 -0.795366 7.807264
-0.862263 -0.795366 7.807264
-0.762263 -0.795366 7.807264
-0.662263 -0.795366 7.807264
-0.562263 -0.795366 7.807264
-0.462263 -0.795366 7.807264
-0.362263 -0.795366 7.807264
-0.262263 -0.795366 7.807264
-0.162263 -0.795366 7.807264
-0.062263 -0.795366 7.807264
0.037737 -0.795366 7.807264
0.137737 -0.795366 7.807264
0.237737 -0.795366 7.807264
0.337737 -0.795366 7.807264
0.437737 -0.795366 7.807264
0.537737 -0.795366 7.807264
0.637737 -0.795366 7.807264
-0.962263 -0.695366 7.807264
-0.862263 -0.695366 7.807264
-0.762263 -0.695366 7.807264
-0.662263 -0.695366 7.807264
-0.562263 -0.695366 7.807264
-0.462263 -0.695366 7.807264
-0.362263 -0.695366 7.807264
-0.262263 -0.695366 7.807264
-0.162263 -0.695366 7.807264
-0.062263 -0.695366 7.807264
0.037737 -0.695366 7.807264
0.137737 -0.695366 7.807264
0.237737 -0.695366 7.807264
0.337737 -0.695366 7.807264
0.437737 -0.695366 7.807264
0.537737 -0.695366 7.807264
0.637737 -0.695366 7.807264
-1.062263 -0.595366 7.807264
-0.962263 -0.595366 7.807264
-0.862263 -0.595366 7.807264
-0.762263 -0.595366 7.807264
-0.662263 -0.595366 7.807264
-0.562263 -0.595366 7.807264
-0.462263 -0.595366 7.807264
-0.362263 -0.595366 7.807264
-0.262263 -0.595366 7.807264
-0.162263 -0.595366 7.807264
-0.062263 -0.595366 7.807264
0.037737 -0.595366 7.807264
0.137737 -0.595366 7.807264
0.237737 -0.595366 7.807264
0.337737 -0.595366 7.807264
0.437737 -0.595366 7.807264
0.537737 -0.595366 7.807264
0.637737 -0.595366 7.807264
0.737737 -0.595366 7.807264
-1.062263 -0.495366 7.807264
-0.962263 -0.495366 7.807264
-0.862263 -0.495366 7.807264
-0.762263 -0.495366 7.807264
-0.662263 -0.495366 7.807264
-0.562263 -0.495366 7.807264
-0.462263 -0.495366 7.807264
-0.362263 -0.495366 7.807264
-0.262263 -0.495366 7.807264
-0.162263 -0.495366 7.807264
-0.062263 -0.495366 7.807264
0.037737 -0.495366 7.807264
0.137737 -0.495366 7.807264
0.237737 -0.495366 7.807264
0.337737 -0.495366 7.807264
0.437737 -0.495366 7.807264
0.537737 -0.495366 7.807264
0.637737 -0.495366 7.807264
0.737737 -0.495366 7.807264
-1.062263 -0.395366 7.807264
-0.962263 -0.395366 7.807264
-0.862263 -0.395366 7.807264
-0.762263 -0.395366 7.807264
-0.662263 -0.395366 7.807264
-0.562263 -0.395366 7.807264
-0.462263 -0.395366 7.807264
-0.362263 -0.395366 7.807264
-0.262263 -0.395366 7.807264
-0.162263 -0.395366 7.807264
