-2.841733 0.791513 9.259165
-2.786666 -0.313061 9.259165
-0.828416 -2.432215 9.259165
-2.083340 2.290922 9.259165
-2.806252 0.866484 9.259165
0.811915 2.972274 9.259165
2.611205 -0.780013 9.259165
2.804560 0.866484 9.259165
-2.786666 0.898453 9.259165
0.814802 2.965655 9.259165
1.636590 -2.006921 9.259165
0.212152 -2.500886 9.259165
0.886886 3.009992 9.259165
-0.987375 -2.349931 9.259165
2.657102 -0.707895 9.259165
0.867437 3.040627 9.259165
2.805684 0.941454 9.259165
-2.754184 0.941454 9.259165
0.287122 -2.489027 9.259165
-0.912405 -2.352077 9.259165
2.686175 -0.660013 9.259165
-2.711695 1.009845 9.259165
0.811915 3.098832 9.259165
-0.837435 -2.414472 9.259165
2.791479 1.016424 9.259165
0.351698 -2.432215 9.259165
2.698546 -0.632925 9.259165
-0.898532 -2.357245 9.259165
-2.085236 2.365892 9.259165
0.765347 3.115597 9.259165
0.437063 -2.433783 9.259165
2.774999 1.091395 9.259165
2.743601 -0.557955 9.259165
0.403421 -2.432215 9.259165
-0.748800 -2.432215 9.259165
0.961856 3.013749 9.259165
2.761147 -0.536361 9.259165
-1.812050 2.536139 9.259165
-2.705506 1.016424 9.259165
1.662388 -1.982393 9.259165
-2.636725 1.059668 9.259165
1.671122 -1.907423 9.259165
-0.762465 3.147657 9.259165
1.711560 -1.886910 9.259165
-2.581352 1.091395 9.259165
1.838887 2.515833 9.259165
1.036826 2.987548 9.259165
2.761147 1.118931 9.259165
1.786530 -1.843310 9.259165
1.786530 2.577928 9.259165
0.362092 -2.416904 9.259165
2.746884 1.166366 9.259165
1.836610 -1.832452 9.259165
2.794681 -0.482985 9.259165
-1.362227 -2.278230 9.259165
-2.561754 1.102555 9.259165
-1.737080 2.563011 9.259165
1.861501 -1.824019 9.259165
-0.687493 -2.381860 9.259165
-0.162701 3.160402 9.259165
0.490459 -2.432215 9.259165
1.911012 -1.757482 9.259165
-2.411814 -0.972275 9.259165
-0.087730 3.169374 9.259165
2.780171 -0.408013 9.259165
1.679374 2.665774 9.259165
-1.675401 2.590803 9.259165
1.936471 -1.732747 9.259165
1.636590 2.732867 9.259165
-2.474201 -0.932807 9.259165
-1.662109 2.597140 9.259165
-2.776839 -0.258073 9.259165
1.983505 -1.682511 9.259165
-2.339442 -1.082747 9.259165
-2.486784 1.161351 9.259165
-1.587139 2.631761 9.259165
0.587004 -2.440526 9.259165
-2.786666 -0.203003 9.259165
-0.612523 -2.363876 9.259165
0.544065 -2.432215 9.259165
-1.512169 2.654745 9.259165
-2.793780 -0.183103 9.259165
0.613764 -2.432215 9.259165
-0.012760 3.185809 9.259165
-1.488336 2.665774 9.259165
0.512033 -2.431761 9.259165
-2.786666 -0.168880 9.259165
2.791368 -0.333043 9.259165
-0.537553 -2.360556 9.259165
-1.437198 2.710567 9.259165
2.011442 -1.630976 9.259165
-0.462583 -2.369514 9.259165
2.027558 -1.607541 9.259165
-1.414608 2.740745 9.259165
2.761147 -0.307828 9.259165
2.086412 -1.555660 9.259165
0.010396 3.190567 9.259165
-0.687493 3.163321 9.259165
-2.483501 1.166366 9.259165
0.062211 3.215213 9.259165
2.754543 -0.258073 9.259165
-0.612523 3.148790 9.259165
-0.312641 -2.446321 9.259165
-2.453723 1.241336 9.259165
0.137181 3.207646 9.259165
-1.411654 2.815715 9.259165
-2.731762 -0.108132 9.259165
-0.537553 3.130861 9.259165
0.212152 3.210211 9.259165
-0.462583 3.143986 9.259165
0.287122 3.198937 9.259165
-1.362227 2.879050 9.259165
-2.462743 1.316306 9.259165
-0.337987 -2.432215 9.259165
0.661974 -2.387194 9.259165
0.362092 3.157308 9.259165
2.112047 -1.532570 9.259165
0.306116 3.190567 9.259165
-0.237671 -2.468123 9.259165
-1.347133 2.890685 9.259165
-2.436066 1.391276 9.259165
-0.387612 3.182925 9.259165
0.736944 -2.364042 9.259165
-2.717517 -0.033161 9.259165
0.437063 3.146359 9.259165
-2.429742 1.466248 9.259165
2.161383 -1.483028 9.259165
-1.287257 2.933827 9.259165
-0.374496 3.190567 9.259165
0.770739 -2.357245 9.259165
-0.162701 -2.448870 9.259165
-2.417892 1.541218 9.259165
-1.243185 2.965655 9.259165
-0.312641 3.204505 9.259165
0.811915 -2.341969 9.259165
-2.036962 -1.770941 9.259165
0.512033 3.133361 9.259165
-2.411814 1.578358 9.259165
-1.212287 2.994309 9.259165
-0.387612 -2.395154 9.259165
-2.046453 -1.757482 9.259165
0.587004 3.134480 9.259165
-2.406738 1.616188 9.259165
0.886886 -2.323231 9.259165
-1.961991 -1.790205 9.259165
-1.137317 2.983752 9.259165
-0.237164 3.190567 9.259165
0.661974 3.189468 9.259165
2.761147 -0.233589 9.259165
-2.093563 -1.682511 9.259165
0.961856 -2.304635 9.259165
-2.393227 1.691158 9.259165
0.736944 3.134051 9.259165
-1.062346 2.994236 9.259165
2.179081 -1.457600 9.259165
-0.237671 3.190760 9.259165
-0.987375 3.033525 9.259165
1.411678 2.810772 9.259165
2.221182 -1.382629 9.259165
-0.968054 3.040627 9.259165
1.403890 2.815715 9.259165
-2.561754 -0.845169 9.259165
2.802359 -0.183103 9.259165
2.236353 2.139975 9.259165
2.732759 1.241336 9.259165
1.486649 2.795931 9.259165
2.233466 -1.307659 9.259165
-0.912405 3.074049 9.259165
-1.737080 -2.062937 9.259165
2.826455 -0.108132 9.259165
2.717260 1.316306 9.259165
-2.622890 -0.782866 9.259165
2.836117 -0.091394 9.259165
0.992287 -2.282274 9.259165
2.234576 2.140981 9.259165
-2.711695 -0.718595 9.259165
2.843549 0.716543 9.259165
2.236353 -1.294004 9.259165
2.161383 2.197001 9.259165
-1.751749 -2.057363 9.259165
-2.727613 -0.707895 9.259165
2.145927 2.215951 9.259165
-2.370185 1.766129 9.259165
-1.724260 -2.057363 9.259165
1.036826 -2.234583 9.259165
-2.772725 -0.632925 9.259165
2.311323 -1.240301 9.259165
2.836117 0.733678 9.259165
-1.737080 -2.015228 9.259165
1.936471 2.413703 9.259165
2.880178 -0.033161 9.259165
1.908999 2.440863 9.259165
-1.662109 -2.035465 9.259165
1.111796 -2.211715 9.259165
1.861501 2.484260 9.259165
-2.336843 1.796617 9.259165
-2.636725 -0.771673 9.259165
-1.731908 -1.982393 9.259165
2.876026 0.041809 9.259165
2.086412 2.265030 9.259165
-2.261873 1.823606 9.259165
1.133706 -2.207304 9.259165
2.320700 -1.232689 9.259165
2.045315 2.290922 9.259165
2.861585 0.116779 9.259165
-2.768282 -0.557955 9.259165
1.186768 -2.182720 9.259165
2.011442 2.316701 9.259165
-1.587139 -2.138457 9.259165
-2.250648 1.841099 9.259165
2.377511 -1.157718 9.259165
-2.210547 1.916070 9.259165
-2.758484 -0.482985 9.259165
2.386294 -1.144488 9.259165
1.614639 2.740745 9.259165
2.426091 -1.082747 9.259165
-2.752071 -0.408013 9.259165
1.261738 -2.165783 9.259165
1.561619 2.745872 9.259165
1.976870 2.365892 9.259165
-2.786666 -0.356416 9.259165
-1.592485 -2.132334 9.259165
1.111796 2.956157 9.259165
1.336708 -2.145596 9.259165
1.091672 2.965655 9.259165
2.461265 -1.011902 9.259165
-2.861636 0.320338 9.259165
1.186768 2.893964 9.259165
2.466051 -1.007777 9.259165
-1.512169 -2.149971 9.259165
1.351304 -2.132334 9.259165
2.536235 -0.951817 9.259165
1.261738 2.881420 9.259165
-2.885175 0.341691 9.259165
1.411678 -2.103024 9.259165
-1.437198 -2.219490 9.259165
1.202653 2.890685 9.259165
-2.930860 0.416661 9.259165
1.486649 -2.062480 9.259165
-1.441513 -2.207304 9.259165
2.867387 0.191750 9.259165
1.492536 -2.057363 9.259165
-2.786666 0.307458 9.259165
1.336708 2.858054 9.259165
1.561619 -2.019772 9.259165
2.911087 0.255676 9.259165
-2.711695 0.297878 9.259165
-1.596702 -2.057363 9.259165
2.914468 0.266720 9.259165
-2.698436 0.266720 9.259165
2.911087 0.270244 9.259165
-1.812050 -1.897703 9.259165
-2.936606 0.423041 9.259165
2.898118 0.341691 9.259165
-1.862924 -1.832452 9.259165
-2.964898 0.491632 9.259165
1.767687 2.590803 9.259165
2.686175 1.428243 9.259165
-1.737080 -1.974515 9.259165
-2.942627 0.566602 9.259165
-1.806539 -1.907423 9.259165
2.899389 0.416661 9.259165
1.711560 2.643621 9.259165
-2.936606 0.577246 9.259165
-2.910146 0.641572 9.259165
2.673342 1.466248 9.259165
-2.402988 -1.007777 9.259165
-2.486784 -0.929229 9.259165
-2.550459 -0.857837 9.259165
-1.887021 -1.813514 9.259165
2.691063 1.391276 9.259165
-0.087730 -2.485443 9.259165
2.903725 0.491632 9.259165
-2.261873 -1.496056 9.259165
-0.012760 -2.495954 9.259165
-2.288057 -1.457600 9.259165
2.615855 1.541218 9.259165
2.896146 0.566602 9.259165
0.062211 -2.503938 9.259165
-2.334391 -1.382629 9.259165
2.611205 1.548543 9.259165
2.866829 0.641572 9.259165
2.561824 1.616188 9.259165
-2.111932 -1.621289 9.259165
-2.117978 -1.607541 9.259165
-2.186903 -1.548258 9.259165
2.787613 0.791513 9.259165
-2.206506 -1.532570 9.259165
2.536235 1.645895 9.259165
2.524829 1.691158 9.259165
2.536235 1.735890 9.259165
-2.299308 -1.307659 9.259165
2.536235 1.800231 9.259165
-2.299392 -1.232689 9.259165
2.498585 1.841099 9.259165
-2.309125 -1.157718 9.259165
2.461265 1.890357 9.259165
-2.336843 -1.086527 9.259165
2.426918 1.916070 9.259165
2.544323 1.766129 9.259165
2.386294 2.030622 9.259165
2.335486 2.066010 9.259165
2.416058 1.991040 9.259165
2.311323 2.082859 9.259165
0.811915 2.958599 9.259165
-2.711695 0.008263 9.259165
-2.704351 0.041809 9.259165
-2.675244 0.116779 9.259165
-2.111932 2.060627 9.259165
-2.048626 2.440863 9.259165
-2.036962 2.458102 9.259165
-1.961991 2.498719 9.259165
-1.897768 2.515833 9.259165
-2.786666 -0.333043 9.249133
2.536235 -0.932807 9.209508
0.362092 -2.432215 9.204287
-2.786666 -0.183103 9.227992
2.611205 -0.782866 9.187429
0.437063 -2.432215 9.255240
-0.837435 -2.357245 9.229520
-2.486784 -0.932807 9.190999
2.086412 -1.532570 9.189143
2.686175 -0.632925 9.217427
0.587004 -2.432215 9.251212
-2.336843 -1.082747 9.245643
-2.861636 0.791513 9.186998
0.811915 2.965655 9.229117
2.761147 -0.258073 9.252509
-2.561754 -0.857837 9.240467
2.836117 -0.258073 9.225235
-0.837435 3.115597 9.241705
0.736944 -2.357245 9.195898
-2.036962 -1.757482 9.251085
2.836117 0.716543 9.251575
-2.111932 2.066010 9.254621
2.836117 -0.033161 9.201016
-0.762465 3.115597 9.188356
2.161383 -1.457600 9.219990
0.886886 3.040627 9.229276
-1.737080 -2.057363 9.226544
1.861501 2.515833 9.199758
2.536235 1.616188 9.229049
-2.111932 2.140981 9.218427
-0.312641 -2.432215 9.232702
-1.737080 -1.982393 9.195108
2.236353 -1.307659 9.238749
-0.312641 3.190567 9.194444
-1.587139 -2.132334 9.253459
-2.111932 2.215951 9.212215
-0.087730 3.190567 9.186780
-1.512169 -2.132334 9.239098
-0.237671 3.190567 9.254584
-2.936606 0.341691 9.189529
1.261738 -2.132334 9.189600
-2.786666 0.941454 9.208560
-1.437198 -2.207304 9.252367
-2.861636 0.341691 9.229988
2.386294 -1.157718 9.240726
-2.111932 2.290922 9.232985
2.536235 1.766129 9.232409
-2.936606 0.416661 9.197083
-2.636725 -0.782866 9.204281
-1.587139 -2.057363 9.244040
-2.786666 1.016424 9.206868
-2.111932 2.365892 9.232000
-2.786666 0.341691 9.232357
-2.711695 1.016424 9.254916
-2.711695 0.341691 9.241261
1.336708 -2.132334 9.243973
-2.711695 -0.707895 9.217545
-2.561754 0.341691 9.184484
-2.711695 1.091395 9.209847
-2.711695 -0.482985 9.191847
1.336708 2.815715 9.194860
-2.636725 1.091395 9.223708
2.836117 0.641572 9.195934
2.386294 1.991040 9.196487
-1.512169 2.665774 9.191006
-2.711695 -0.408013 9.192539
-2.111932 -1.607541 9.239262
1.411678 2.815715 9.245637
2.911087 0.266720 9.252726
-1.362227 2.890685 9.234135
-2.486784 1.166366 9.248626
1.561619 2.740745 9.201539
-2.486784 1.241336 9.188239
2.911087 0.416661 9.193280
-1.212287 2.965655 9.199354
2.911087 0.491632 9.186494
-0.912405 2.965655 9.200737
-2.336843 1.766129 9.238283
-1.961991 2.515833 9.119391
-2.736487 -0.482985 9.334135
1.036826 -2.213171 9.334135
2.236353 -1.326826 9.334135
-1.212287 -2.363320 9.334135
-2.881097 0.266720 9.334135
-2.751977 -0.408013 9.334135
2.243979 -1.307659 9.334135
-1.228539 -2.357245 9.334135
-0.162701 -2.510572 9.334135
-2.235210 -1.532570 9.334135
-1.287257 -2.319990 9.334135
-0.087730 -2.519819 9.334135
-1.333387 -2.282274 9.334135
2.309671 -1.232689 9.334135
-2.261873 -1.521039 9.334135
-1.062346 2.991843 9.334135
-0.012760 -2.537470 9.334135
-2.910719 0.341691 9.334135
-2.771630 -0.333043 9.334135
2.311323 -1.230592 9.334135
0.062211 -2.534819 9.334135
-2.499377 1.766129 9.334135
-2.774360 -0.258073 9.334135
2.875007 0.116779 9.334135
2.359078 -1.157718 9.334135
-2.486784 1.787472 9.334135
-2.752246 -0.183103 9.334135
2.874906 0.191750 9.334135
2.386294 -1.110742 9.334135
-2.435126 1.841099 9.334135
0.137181 -2.544703 9.334135
-2.734678 -0.108132 9.334135
-2.411814 1.852295 9.334135
1.111796 -2.215327 9.334135
2.908506 0.266720 9.334135
-2.717688 -0.033161 9.334135
1.165666 -2.207304 9.334135
-2.336843 1.846017 9.334135
0.212152 -2.531674 9.334135
-2.289858 -1.382629 9.334135
2.894628 0.341691 9.334135
1.186768 -2.202654 9.334135
-0.987375 3.017740 9.334135
0.287122 -2.526182 9.334135
-2.290139 -1.307659 9.334135
-2.299725 -1.232689 9.334135
-1.137317 -2.371933 9.334135
2.386294 2.020535 9.334135
1.486649 2.782678 9.334135
-2.336843 -1.163101 9.334135
2.343113 2.066010 9.334135
-1.100294 -2.357245 9.334135
1.448249 2.815715 9.334135
-2.340250 -1.157718 9.334135
-2.402322 -1.082747 9.334135
2.908519 0.416661 9.334135
-1.062346 -2.348501 9.334135
-2.711695 0.047252 9.334135
-2.934338 0.416661 9.334135
1.561619 2.738056 9.334135
-2.261873 1.889384 9.334135
1.556190 2.740745 9.334135
-0.953338 3.040627 9.334135
1.636590 2.717902 9.334135
-2.687588 0.116779 9.334135
-1.362227 -2.267334 9.334135
-2.915242 0.491632 9.334135
-0.762465 -2.438136 9.334135
0.362092 -2.527058 9.334135
1.111796 2.941016 9.334135
-2.896643 0.566602 9.334135
-0.825354 -2.432215 9.334135
-0.912405 3.075148 9.334135
1.086762 2.965655 9.334135
1.261738 -2.176158 9.334135
-0.987375 -2.370853 9.334135
-2.411814 -1.066131 9.334135
-2.036962 -1.698361 9.334135
-1.012729 -2.357245 9.334135
-2.229730 1.916070 9.334135
-2.440868 -1.007777 9.334135
-2.875972 0.641572 9.334135
1.336708 -2.161034 9.334135
-0.912405 -2.408149 9.334135
1.186768 2.912301 9.334135
-2.561754 -0.979923 9.334135
2.911087 0.450254 9.334135
-2.861636 0.667713 9.334135
0.421386 -2.507186 9.334135
-2.066319 -1.682511 9.334135
1.261738 2.888122 9.334135
-0.862837 3.115597 9.334135
0.437063 -2.494999 9.334135
-2.111932 2.013792 9.334135
1.260060 2.890685 9.334135
-2.845613 0.716543 9.334135
2.986057 0.444331 9.334135
1.393400 -2.132334 9.334135
-2.486784 -0.942310 9.334135
-1.961991 -1.721769 9.334135
-0.837435 -2.428976 9.334135
2.911087 0.530804 9.334135
-2.077005 2.066010 9.334135
2.908427 0.566602 9.334135
2.986057 0.509573 9.334135
-2.036962 2.113945 9.334135
2.449925 1.916070 9.334135
-2.861636 0.787372 9.334135
2.409587 1.991040 9.334135
2.997769 0.491632 9.334135
-2.019820 2.140981 9.334135
1.336708 2.841979 9.334135
-0.537553 3.114118 9.334135
2.236353 2.127762 9.334135
-2.863209 0.791513 9.334135
-2.004556 2.215951 9.334135
1.411678 -2.118549 9.334135
2.283860 2.140981 9.334135
0.512033 -2.480001 9.334135
-0.544043 3.115597 9.334135
2.316844 2.140981 9.334135
-2.010935 2.290922 9.334135
-0.704766 -2.432215 9.334135
1.036826 3.004335 9.334135
2.311323 2.144715 9.334135
-2.036962 2.354863 9.334135
0.587004 -2.472777 9.334135
-0.483283 3.115597 9.334135
1.485061 -2.057363 9.334135
-2.039134 2.365892 9.334135
-2.861636 0.793448 9.334135
1.411678 2.833165 9.334135
-0.687493 -2.426198 9.334135
0.661974 -2.434348 9.334135
1.486649 -2.056039 9.334135
1.486649 2.884155 9.334135
2.882067 0.641572 9.334135
-0.612523 -2.357246 9.334135
0.668525 -2.432215 9.334135
-1.662109 -2.057786 9.334135
-0.837435 3.130686 9.334135
1.561619 -2.035420 9.334135
2.849463 0.716543 9.334135
1.485902 2.890685 9.334135
0.736944 -2.384766 9.334135
-0.537553 -2.368956 9.334135
1.599157 -1.982393 9.334135
-0.762465 3.177776 9.334135
0.587004 3.101831 9.334135
1.486649 2.893239 9.334135
-1.662498 -2.057363 9.334135
-2.036962 2.401824 9.334135
0.549756 3.115597 9.334135
0.811915 -2.360689 9.334135
1.636590 -1.941469 9.334135
-0.687493 3.158998 9.334135
-2.017521 2.440863 9.334135
0.847412 -2.357245 9.334135
-0.462583 -2.379611 9.334135
0.659399 3.115597 9.334135
-0.312641 -2.487598 9.334135
-2.561754 -0.930321 9.334135
-1.737080 -1.994853 9.334135
-2.559854 -0.857837 9.334135
-0.356725 -2.432215 9.334135
-1.760240 -1.982393 9.334135
-1.961991 2.494479 9.334135
1.698758 -1.907423 9.334135
-1.926561 2.515833 9.334135
-2.561754 -0.784973 9.334135
-2.561754 -0.574455 9.334135
2.836117 0.828282 9.334135
-2.486784 -0.571412 9.334135
0.886886 3.026181 9.334135
-2.480313 -0.557955 9.334135
2.819711 0.866484 9.334135
-0.175364 -2.507186 9.334135
-2.561754 -0.550703 9.334135
2.811706 0.941454 9.334135
1.492249 2.890685 9.334135
0.857555 3.040627 9.334135
-2.486784 -0.525054 9.334135
-0.237671 -2.482940 9.334135
0.811915 3.093784 9.334135
2.803799 1.016424 9.334135
0.774198 3.115597 9.334135
0.832058 -2.282274 9.334135
-1.512169 -2.165012 9.334135
0.961856 3.034900 9.334135
1.711560 -1.897831 9.334135
-0.612523 3.143715 9.334135
2.836117 1.026377 9.334135
-1.562683 -2.132334 9.334135
1.786530 2.589752 9.334135
-0.162701 3.183561 9.334135
2.761147 1.159155 9.334135
0.961856 -2.283178 9.334135
-0.087730 3.183655 9.334135
1.768867 -1.832452 9.334135
1.786147 2.590803 9.334135
-1.437198 -2.218424 9.334135
0.955940 -2.282274 9.334135
-0.462583 3.124795 9.334135
-0.045592 3.190567 9.334135
-1.442618 -2.207304 9.334135
1.711560 2.660386 9.334135
1.861501 -1.843763 9.334135
-0.012760 3.194391 9.334135
2.758957 1.166366 9.334135
0.964211 -2.282274 9.334135
-0.387612 3.171928 9.334135
1.813078 -1.832452 9.334135
1.701657 2.665774 9.334135
0.062211 3.180494 9.334135
-1.587139 -2.111069 9.334135
2.836117 1.104407 9.334135
0.886886 -2.276929 9.334135
-0.312641 3.183910 9.334135
2.686175 1.230266 9.334135
-0.237671 3.159823 9.334135
1.837636 2.515833 9.334135
0.020806 3.190567 9.334135
2.221405 2.140981 9.334135
1.903358 -1.832452 9.334135
-1.812050 -1.912485 9.334135
0.101934 3.190567 9.334135
-1.816628 -1.907423 9.334135
1.786530 -1.822551 9.334135
2.161383 2.203504 9.334135
0.137181 3.200438 9.334135
-1.662109 2.591912 9.334135
1.936471 -1.802385 9.334135
2.134603 2.215951 9.334135
0.062211 3.336110 9.334135
2.679878 1.241336 9.334135
-1.587139 2.630041 9.334135
1.962022 -1.757482 9.334135
-1.870700 -1.832452 9.334135
0.050257 3.340508 9.334135
1.936471 2.415087 9.334135
2.011442 -1.687790 9.334135
2.686175 1.247613 9.334135
0.090249 3.340508 9.334135
-1.887021 -1.807818 9.334135
2.015918 -1.682511 9.334135
1.922134 2.440863 9.334135
-1.912886 -1.757482 9.334135
2.719599 1.316306 9.334135
1.861501 2.504455 9.334135
0.062211 3.344537 9.334135
2.063567 -1.607541 9.334135
2.011442 2.287085 9.334135
2.852800 0.791513 9.334135
2.068974 -1.532570 9.334135
-1.512169 2.660254 9.334135
2.005195 2.290922 9.334135
0.212152 3.223838 9.334135
-2.307622 -1.457600 9.334135
2.086412 -1.516323 9.334135
0.287122 3.204922 9.334135
-1.502150 2.665774 9.334135
2.841249 1.091395 9.334135
2.051618 2.290922 9.334135
-2.111932 -1.639456 9.334135
0.437063 3.139839 9.334135
2.161383 -1.491220 9.334135
-2.146891 -1.607541 9.334135
-1.438644 2.740745 9.334135
0.375488 3.190567 9.334135
1.959427 2.365892 9.334135
-2.186903 -1.573888 9.334135
2.183239 -1.457600 9.334135
-1.437198 2.748804 9.334135
-2.799205 0.866484 9.334135
-1.426895 2.815715 9.334135
2.686175 1.390699 9.334135
2.685600 1.391276 9.334135
2.660153 1.466248 9.334135
0.362092 3.205944 9.334135
2.620470 1.541218 9.334135
-2.711695 0.840293 9.334135
2.611205 1.556044 9.334135
-1.362227 2.870961 9.334135
-2.762120 0.866484 9.334135
-0.387612 -2.377506 9.334135
0.512033 3.134086 9.334135
2.578471 1.616188 9.334135
-1.316669 2.890685 9.334135
0.661974 3.121213 9.334135
-2.687308 0.866484 9.334135
-1.287257 2.913914 9.334135
2.536235 1.716648 9.334135
0.736944 3.139982 9.334135
-1.238769 2.965655 9.334135
2.521899 1.766129 9.334135
-2.587591 -0.932807 9.334135
-2.786666 0.876157 9.334135
2.495488 1.841099 9.334135
-1.212287 3.009110 9.334135
-2.636725 -0.792588 9.334135
2.461265 1.895261 9.334135
2.086412 2.297469 9.334135
-1.137317 2.996957 9.334135
2.225116 -1.382629 9.334135
-2.648200 -0.782866 9.334135
-2.681599 0.941454 9.334135
2.544338 1.691158 9.334135
2.092488 2.290922 9.334135
-2.636725 1.004619 9.334135
-2.711695 -0.716192 9.334135
-2.714443 -0.707895 9.334135
-2.626331 1.016424 9.334135
-2.750418 -0.632925 9.334135
-2.561754 1.088947 9.334135
-2.747285 -0.557955 9.334135
-2.565256 -0.557955 9.334135
2.402878 -1.082747 9.334135
-2.559494 1.091395 9.334135
-2.486784 1.163900 9.334135
-2.484988 1.166366 9.334135
2.461265 -1.015889 9.334135
-2.431705 1.241336 9.334135
2.468253 -1.007777 9.334135
-2.417273 1.316306 9.334135
2.524477 -0.932807 9.334135
-2.435754 1.391276 9.334135
2.536235 -0.914479 9.334135
-2.456925 1.466248 9.334135
-2.463232 1.541218 9.334135
2.566872 -0.857837 9.334135
-2.486784 1.572685 9.334135
2.611205 -0.803101 9.334135
-2.523481 1.616188 9.334135
2.626401 -0.782866 9.334135
2.646131 -0.707895 9.334135
2.686175 -0.660826 9.334135
2.708499 -0.632925 9.334135
2.744585 -0.557955 9.334135
2.761147 -0.513427 9.334135
2.769882 -0.482985 9.334135
2.781830 -0.408013 9.334135
2.792036 -0.333043 9.334135
2.761147 -0.287465 9.334135
2.748289 -0.258073 9.334135
2.761147 -0.213851 9.334135
2.775878 -0.183103 9.334135
2.836117 -0.128768 9.334135
2.853094 -0.108132 9.334135
2.911087 -0.048400 9.334135
2.919641 -0.033161 9.334135
2.911087 0.026917 9.334135
2.872125 0.041809 9.334135
-0.162701 -2.507186 9.323631
2.236353 -1.307659 9.327044
-2.861636 0.266720 9.310475
-2.786666 -0.333043 9.265169
-0.087730 -2.507186 9.308414
2.311323 -1.232689 9.303257
-2.411814 1.616188 9.264421
-0.012760 -2.507186 9.275120
-2.786666 0.266720 9.284891
-1.212287 -2.357245 9.275450
-2.411814 1.691158 9.269782
-2.786666 -0.183103 9.304000
-2.336843 -1.157718 9.327806
-2.711695 0.266720 9.271352
1.486649 -2.057363 9.331794
-2.411814 1.766129 9.285134
0.062211 -2.507186 9.265272
-1.137317 -2.357245 9.307043
0.137181 -2.507186 9.276500
-2.486784 1.766129 9.323376
2.536235 -0.932807 9.321529
1.636590 -1.982393 9.293897
-2.936606 0.491632 9.293879
-0.537553 3.115597 9.333810
-2.711695 0.041809 9.304441
-2.411814 1.841099 9.325449
-0.987375 -2.357245 9.276011
0.212152 -2.507186 9.271602
2.311323 2.140981 9.310805
-0.912405 -2.357245 9.269060
2.911087 0.266720 9.262765
-2.411814 -1.007777 9.286544
2.611205 -0.782866 9.265786
-2.936606 0.566602 9.269243
-2.336843 1.841099 9.324736
-0.312641 3.190567 9.322346
-2.036962 -1.757482 9.272850
-2.261873 1.841099 9.283487
0.287122 -2.507186 9.295406
-1.961991 -1.757482 9.302902
-0.237671 3.190567 9.259425
2.911087 0.491632 9.263504
-2.561754 -0.932807 9.314404
-2.861636 0.716543 9.310779
2.836117 -0.108132 9.267665
-2.486784 -0.932807 9.305274
2.986057 0.491632 9.321088
-1.737080 -2.057363 9.277498
0.362092 -2.507186 9.305214
1.786530 -1.832452 9.284571
-2.861636 0.791513 9.330761
0.362092 -2.432215 9.269814
-2.036962 2.140981 9.272572
1.411678 2.815715 9.269744
2.911087 -0.033161 9.279700
2.011442 2.290922 9.263896
1.861501 -1.832452 9.269486
-2.036962 2.215951 9.265620
-1.662109 -2.057363 9.296170
2.086412 2.290922 9.321772
1.561619 2.740745 9.318842
-2.561754 -0.557955 9.331889
-2.711695 0.866484 9.311857
-1.737080 -1.982393 9.329189
-2.636725 -0.782866 9.316673
0.512033 -2.432215 9.259923
-2.486784 -0.557955 9.283051
1.936471 -1.757482 9.289207
-2.036962 2.290922 9.303217
2.836117 0.791513 9.305408
-2.711695 0.941454 9.301970
-1.587139 -2.132334 9.259881
0.661974 -2.432215 9.320410
2.011442 -1.682511 9.318819
-2.036962 2.440863 9.276771
-2.636725 1.016424 9.315194
1.486649 2.890685 9.316355
0.811915 -2.357245 9.299772
2.086412 -1.532570 9.259882
-2.561754 1.091395 9.284160
2.836117 1.091395 9.325849
-1.812050 -1.907423 9.287123
0.886886 -2.282274 9.275093
-1.437198 2.740745 9.331459
2.686175 1.241336 9.327138
-2.486784 1.616188 9.311760
0.587004 3.115597 9.291549
0.811915 2.965655 9.273294
2.686175 1.391276 9.333808
-0.012760 3.190567 9.298069
2.536235 1.691158 9.309469
0.062211 3.190567 9.265663
2.536235 1.766129 9.308467
0.062211 3.340508 9.322983
0.362092 3.190567 9.310817
2.236353 -1.338428 9.409105
-2.230676 -1.532570 9.409105
1.036826 -2.249958 9.409105
2.311323 -1.324811 9.409105
-2.920151 0.266720 9.409105
1.111796 -2.234888 9.409105
-1.287257 -2.301864 9.409105
2.318199 -1.307659 9.409105
-2.261873 -1.486992 9.409105
-2.924324 0.341691 9.409105
1.186768 -2.222351 9.409105
2.315866 -1.232689 9.409105
-1.317072 -2.282274 9.409105
-2.711695 -0.481546 9.409105
-2.936606 0.385435 9.409105
-2.283745 -1.382629 9.409105
-2.943125 0.416661 9.409105
-1.212287 -2.345654 9.409105
2.345823 -1.157718 9.409105
-2.543737 1.766129 9.409105
1.261738 -2.210170 9.409105
-1.137317 -2.362898 9.409105
2.384204 -1.082747 9.409105
2.801497 0.266720 9.409105
2.386294 2.011331 9.409105
1.273261 -2.207304 9.409105
-1.174690 -2.357245 9.409105
-2.945328 0.491632 9.409105
-2.263668 -1.307659 9.409105
2.340281 2.066010 9.409105
-1.062346 -2.365040 9.409105
1.336708 -2.132816 9.409105
2.386294 -1.080890 9.409105
-2.936606 0.505564 9.409105
-2.742469 -0.408013 9.409105
-1.062346 2.986148 9.409105
2.461265 -1.061901 9.409105
-2.509770 1.841099 9.409105
2.441456 1.916070 9.409105
1.411678 -2.143476 9.409105
-2.288619 -1.232689 9.409105
-0.987375 2.989016 9.409105
2.472218 -1.007777 9.409105
2.402556 1.991040 9.409105
1.434068 -2.132334 9.409105
-2.767722 -0.333043 9.409105
-0.933886 3.040627 9.409105
2.534448 -0.932807 9.409105
1.486649 -2.089952 9.409105
-2.486784 1.891892 9.409105
-2.486784 -1.097052 9.409105
2.311323 2.091972 9.409105
-0.912405 -2.509035 9.409105
1.529119 -2.057363 9.409105
-2.889526 0.566602 9.409105
-2.710398 -0.482985 9.409105
-0.912405 3.054502 9.409105
1.561619 -2.024742 9.409105
-2.866153 0.641572 9.409105
1.600708 -1.982393 9.409105
2.536235 -0.929292 9.409105
-0.837435 3.087296 9.409105
-2.773902 -0.258073 9.409105
1.411678 2.813995 9.409105
-0.814842 3.115597 9.409105
-2.750712 -0.183103 9.409105
-2.861636 0.653994 9.409105
-2.526843 -1.082747 9.409105
1.636590 -1.915590 9.409105
2.563974 -0.857837 9.409105
-2.737294 -0.108132 9.409105
-0.762465 3.157075 9.409105
1.400038 2.815715 9.409105
-2.820348 0.716543 9.409105
-0.916339 -2.507186 9.409105
-2.411814 -1.130579 9.409105
1.711560 -1.919461 9.409105
2.836117 0.276999 9.409105
1.486649 2.791447 9.409105
2.249053 2.140981 9.409105
-2.336843 -1.191102 9.409105
-2.786666 0.755797 9.409105
-0.930921 -2.432215 9.409105
1.561619 2.734513 9.409105
2.836117 0.707714 9.409105
-2.368919 -1.157718 9.409105
-0.687493 3.145605 9.409105
1.726460 -1.907423 9.409105
-2.711695 -0.071820 9.409105
-2.747149 0.791513 9.409105
2.236353 2.151157 9.409105
1.552413 2.740745 9.409105
1.786530 -1.841279 9.409105
-0.843793 -2.507186 9.409105
2.611205 -0.792326 9.409105
-2.711695 0.837181 9.409105
-2.636725 -0.118205 9.409105
2.833171 0.716543 9.409105
1.636590 2.711103 9.409105
-1.961991 -1.661623 9.409105
2.618567 -0.782866 9.409105
-2.662274 -0.108132 9.409105
-2.687428 0.866484 9.409105
-0.837435 -2.457942 9.409105
1.801537 -1.832452 9.409105
-1.887021 -1.653226 9.409105
2.856260 0.116779 9.409105
-2.629175 -0.108132 9.409105
0.736944 3.107665 9.409105
-0.762465 -2.456756 9.409105
1.186768 2.910397 9.409105
-0.987375 -2.405228 9.409105
-2.475184 1.916070 9.409105
1.123262 2.965655 9.409105
-0.687493 -2.480608 9.409105
-1.848344 -1.682511 9.409105
2.671002 -0.707895 9.409105
1.261738 2.880423 9.409105
-0.644978 -2.432215 9.409105
1.243284 2.890685 9.409105
1.861501 -1.805603 9.409105
2.851953 0.191750 9.409105
1.336708 2.835077 9.409105
-2.657895 0.941454 9.409105
0.702554 3.115597 9.409105
2.836117 0.261729 9.409105
-2.336843 1.909059 9.409105
-0.612523 -2.390268 9.409105
2.882977 0.341691 9.409105
-2.636725 0.991899 9.409105
1.111796 2.985605 9.409105
-1.362227 -2.247738 9.409105
-2.340942 1.916070 9.409105
2.686175 -0.686431 9.409105
-0.585381 -2.357245 9.409105
1.048566 3.040627 9.409105
1.936471 -1.763688 9.409105
0.811915 3.103835 9.409105
-2.261873 1.895305 9.409105
-0.462583 -2.395031 9.409105
-0.987375 -2.207892 9.409105
-2.606487 1.016424 9.409105
-0.516537 -2.357245 9.409105
-1.025290 -2.207304 9.409105
0.886886 3.081794 9.409105
-0.162701 -2.519773 9.409105
-2.236958 1.916070 9.409105
-0.537553 -2.350445 9.409105
-0.978395 -2.207304 9.409105
-2.581430 1.091395 9.409105
-0.087730 -2.556496 9.409105
2.911087 0.403928 9.409105
-0.987375 -2.201740 9.409105
1.036826 3.046443 9.409105
-0.312641 -2.524205 9.409105
-2.561754 1.132311 9.409105
-0.012760 -2.577093 9.409105
-2.411814 1.964327 9.409105
2.918749 0.416661 9.409105
0.961856 3.072439 9.409105
2.716508 -0.632925 9.409105
-2.561754 -1.047580 9.409105
1.786530 2.591519 9.409105
2.928243 0.491632 9.409105
-2.519056 1.166366 9.409105
0.062211 -2.535253 9.409105
-2.111932 2.037251 9.409105
1.731106 2.665774 9.409105
-2.087967 2.066010 9.409105
1.861501 2.520424 9.409105
1.787083 2.590803 9.409105
-2.036962 2.090054 9.409105
2.744922 -0.557955 9.409105
-0.162701 3.215903 9.409105
0.137181 -2.562181 9.409105
-1.991632 2.140981 9.409105
2.761147 -0.516745 9.409105
-1.973328 2.215951 9.409105
-0.087730 3.198492 9.409105
-0.612523 3.138817 9.409105
-2.486784 1.199205 9.409105
-0.022699 3.265537 9.409105
2.913092 0.566602 9.409105
-1.961991 2.270527 9.409105
-2.411814 1.240337 9.409105
2.772270 -0.482985 9.409105
1.868724 2.515833 9.409105
-1.961991 2.306600 9.409105
-2.410971 1.241336 9.409105
0.137181 3.187240 9.409105
-1.974914 2.365892 9.409105
-0.537553 3.149928 9.409105
0.122077 3.190567 9.409105
2.780928 -0.408013 9.409105
-2.401086 1.316306 9.409105
-2.036962 2.381269 9.409105
0.212152 -2.568838 9.409105
0.062211 3.208178 9.409105
-0.462583 3.157395 9.409105
-0.330435 -2.507186 9.409105
0.027061 3.265537 9.409105
0.287122 -2.554904 9.409105
2.784820 -0.333043 9.409105
-2.065770 2.440863 9.409105
1.711560 2.681355 9.409105
-2.411814 1.337311 9.409105
-0.387612 3.172226 9.409105
0.362092 -2.538747 9.409105
-0.012760 3.271460 9.409105
2.784903 -0.258073 9.409105
-0.312641 3.180586 9.409105
0.437063 -2.523568 9.409105
-2.036962 2.468858 9.409105
2.802559 -0.183103 9.409105
-2.456457 1.391276 9.409105
-0.387612 -2.435890 9.409105
-0.237671 3.186954 9.409105
-1.961991 2.463632 9.409105
0.159279 3.190567 9.409105
-0.392015 -2.432215 9.409105
2.818923 -0.108132 9.409105
0.287122 3.184874 9.409105
-2.486784 1.451832 9.409105
2.836117 -0.082601 9.409105
-0.233489 3.190567 9.409105
-2.636725 -0.056969 9.409105
2.867496 -0.033161 9.409105
0.482645 -2.507186 9.409105
-1.957914 2.290922 9.409105
1.943933 -1.757482 9.409105
2.166241 2.215951 9.409105
-2.708909 -0.033161 9.409105
2.866054 0.041809 9.409105
0.512033 -2.491619 9.409105
2.011442 -1.685635 9.409105
0.587004 -2.475854 9.409105
-2.711695 -0.028154 9.409105
0.260055 3.190567 9.409105
-0.237671 -2.508777 9.409105
2.014584 -1.682511 9.409105
0.661974 -2.460323 9.409105
1.936471 2.410991 9.409105
-1.941290 2.515833 9.409105
1.916940 2.440863 9.409105
2.086412 -1.612927 9.409105
0.709479 -2.432215 9.409105
-1.662109 -2.015958 9.409105
0.212152 3.196390 9.409105
-1.711149 -1.982393 9.409105
2.097216 -1.607541 9.409105
2.086412 2.279330 9.409105
0.736944 -2.418499 9.409105
-1.662109 2.621761 9.409105
2.109843 -1.532570 9.409105
2.068830 2.290922 9.409105
-1.512169 -2.134694 9.409105
-1.587139 2.646186 9.409105
-2.576906 -1.007777 9.409105
0.799379 -2.357245 9.409105
0.362092 3.181061 9.409105
2.236353 -1.546094 9.409105
-1.517478 -2.132334 9.409105
-2.600356 -0.932807 9.409105
0.437063 3.152207 9.409105
-1.512169 2.661145 9.409105
2.220904 -1.532570 9.409105
2.018594 2.365892 9.409105
0.811915 -2.346563 9.409105
-1.407672 -2.207304 9.409105
-2.578421 -0.857837 9.409105
-1.492782 2.665774 9.409105
0.512033 3.154846 9.409105
2.161383 2.221357 9.409105
2.161383 -1.471663 9.409105
-1.437198 -2.159194 9.409105
-2.636725 -0.805647 9.409105
0.578955 3.190567 9.409105
-1.458193 2.740745 9.409105
-2.652246 -0.782866 9.409105
2.236353 -1.528219 9.409105
0.587004 3.204715 9.409105
0.661974 3.130313 9.409105
0.886886 -2.328601 9.409105
-2.494862 1.466248 9.409105
0.961856 -2.284724 9.409105
0.589957 3.190567 9.409105
2.911087 0.575251 9.409105
0.965678 -2.282274 9.409105
0.736944 3.150807 9.409105
2.890410 0.641572 9.409105
-2.538930 1.541218 9.409105
0.720358 3.190567 9.409105
2.011442 2.372993 9.409105
-2.561754 1.561151 9.409105
0.736944 3.197200 9.409105
-2.711695 -0.696537 9.409105
0.771783 3.190567 9.409105
2.173429 -1.457600 9.409105
2.836117 0.725680 9.409105
-1.587139 -2.084087 9.409105
-2.726427 -0.632925 9.409105
-1.611693 -2.057363 9.409105
2.836117 0.852766 9.409105
2.830146 0.866484 9.409105
-1.438437 2.815715 9.409105
-2.698858 -0.707895 9.409105
2.200098 -1.382629 9.409105
-1.812050 -1.898774 9.409105
2.814670 0.941454 9.409105
-1.836965 -1.832452 9.409105
-2.711695 -0.575928 9.409105
2.822811 1.016424 9.409105
-1.437198 2.819122 9.409105
-1.737080 -1.958759 9.409105
-1.805083 -1.907423 9.409105
-1.362227 2.882354 9.409105
-2.664003 -0.557955 9.409105
2.805094 1.091395 9.409105
2.761618 1.166366 9.409105
2.247157 -1.532570 9.409105
-1.838534 -1.757482 9.409105
2.761147 1.166842 9.409105
-1.348400 2.890685 9.409105
2.736321 1.241336 9.409105
-1.662109 -1.818686 9.409105
-1.287257 2.936827 9.409105
2.761147 1.309418 9.409105
-1.673104 -1.757482 9.409105
-1.212287 2.950546 9.409105
2.772462 1.316306 9.409105
-1.662109 -1.728985 9.409105
-1.204974 2.965655 9.409105
2.848382 0.791513 9.409105
-1.643867 -1.757482 9.409105
-1.137317 3.009974 9.409105
-2.281000 -1.457600 9.409105
2.686175 1.407976 9.409105
-2.186903 -1.636853 9.409105
2.648874 1.466248 9.409105
-2.209721 -1.607541 9.409105
-2.111932 -1.635530 9.409105
2.761147 1.334528 9.409105
-2.036962 -1.661012 9.409105
2.697371 1.391276 9.409105
2.635756 1.541218 9.409105
2.611205 1.589680 9.409105
2.594624 1.616188 9.409105
2.536235 1.734588 9.409105
2.516582 1.766129 9.409105
2.484615 1.841099 9.409105
2.461265 1.881368 9.409105
2.563228 1.691158 9.409105
-2.861636 0.099005 9.409105
-2.871664 0.116779 9.409105
-2.776667 0.041809 9.409105
-2.786666 0.046704 9.409105
-2.899353 0.191750 9.409105
-1.212287 -2.357245 9.372607
-2.711695 -0.482985 9.406922
0.437063 -2.507186 9.340193
-1.062346 -2.357245 9.368796
-2.486784 -1.082747 9.393950
-2.411814 -1.082747 9.343843
-2.711695 -0.033161 9.384407
1.186768 -2.207304 9.349055
-0.912405 -2.507186 9.398381
-2.636725 -0.108132 9.394666
0.811915 -2.357245 9.371641
-0.912405 -2.432215 9.384621
2.311323 -1.307659 9.397457
1.261738 -2.207304 9.401142
-1.961991 -1.682511 9.372657
0.886886 -2.282274 9.352597
-1.887021 -1.682511 9.336542
2.311323 -1.232689 9.345305
-0.837435 -2.432215 9.341386
-2.711695 0.116779 9.408894
1.411678 -2.132334 9.366953
2.386294 -1.082747 9.379004
1.486649 -2.057363 9.336931
-0.987375 -2.207304 9.406138
-0.687493 -2.432215 9.339922
-2.036962 -1.682511 9.369733
-2.936606 0.416661 9.335016
-0.537553 -2.357245 9.401446
-2.561754 -1.007777 9.377169
-1.662109 -2.057363 9.336920
1.711560 -1.907423 9.368337
-2.486784 -1.007777 9.353984
-2.936606 0.491632 9.362214
-1.737080 -1.982393 9.380714
1.786530 -1.832452 9.402654
-0.312641 -2.507186 9.357523
-0.387612 -2.432215 9.401749
-2.561754 -0.857837 9.348332
-2.486784 1.841099 9.378694
2.836117 0.266720 9.397869
-2.411814 1.916070 9.380926
-2.561754 -0.557955 9.334470
2.836117 0.716543 9.408380
-0.837435 3.115597 9.368413
1.861501 -1.832452 9.372700
-0.537553 3.115597 9.338192
-2.486784 -0.557955 9.345211
-1.437198 -2.207304 9.353027
-2.861636 0.791513 9.335555
2.911087 0.416661 9.346521
2.761147 -0.258073 9.359073
-0.237671 -2.507186 9.405227
-2.786666 0.791513 9.347948
2.986057 0.491632 9.398109
-1.961991 2.290922 9.403393
2.911087 0.566602 9.361879
-2.786666 0.866484 9.339609
2.836117 -0.108132 9.378119
1.411678 2.815715 9.406500
-2.036962 2.365892 9.337246
2.086412 -1.607541 9.372828
-1.812050 -1.907423 9.393649
-0.162701 3.190567 9.347830
2.086412 -1.532570 9.370278
-2.036962 2.440863 9.381787
2.911087 -0.033161 9.350805
1.111796 2.965655 9.396993
-1.887021 -1.757482 9.350013
-2.561754 1.091395 9.339098
2.236353 -1.532570 9.361832
2.236353 2.140981 9.366224
2.836117 1.091395 9.396761
-2.711695 -0.707895 9.379128
-1.662109 -1.757482 9.376964
1.036826 3.040627 9.396586
2.161383 2.215951 9.386806
-2.486784 1.166366 9.342446
2.761147 1.166366 9.383167
-2.711695 -0.557955 9.393007
-1.437198 2.815715 9.400093
1.861501 2.515833 9.375277
-2.411814 1.241336 9.407451
1.486649 2.890685 9.345886
2.686175 1.241336 9.341716
-2.411814 1.316306 9.387835
-2.186903 -1.607541 9.388061
2.011442 2.290922 9.340965
2.761147 1.316306 9.391623
1.786530 2.590803 9.357200
2.086412 2.290922 9.346946
-1.212287 2.965655 9.386486
2.311323 2.140981 9.356205
1.711560 2.665774 9.340646
2.011442 2.365892 9.399568
-2.486784 1.466248 9.395164
2.686175 1.391276 9.338548
-2.486784 1.541218 9.355130
0.587004 3.115597 9.380093
0.736944 3.115597 9.404821
-2.561754 1.616188 9.362226
0.886886 3.040627 9.361929
0.961856 3.040627 9.343684
-0.087730 3.190567 9.374652
-0.012760 3.265537 9.390683
0.062211 3.190567 9.372182
0.137181 3.190567 9.369505
0.062211 3.340508 9.366005
0.287122 3.190567 9.341629
0.362092 3.190567 9.405374
0.587004 3.190567 9.405589
0.736944 3.190567 9.380362
-2.619372 1.616188 9.409105
-2.561754 1.743321 9.409105
-1.812050 2.611856 9.409105
-2.861636 0.116779 9.376395
-1.212287 -2.345859 9.484076
-2.792325 -0.333043 9.484076
1.336708 -2.184864 9.484076
2.310020 -1.232689 9.484076
-1.905863 2.365892 9.484076
-0.162701 -2.554831 9.484076
2.311323 -1.227036 9.484076
-2.803689 -0.258073 9.484076
1.411678 -2.152282 9.484076
-1.961991 2.426627 9.484076
-0.087730 -2.546420 9.484076
2.359310 -1.157718 9.484076
1.448776 -2.132334 9.484076
-2.801141 -0.183103 9.484076
-2.111932 -1.613547 9.484076
-2.814619 0.716543 9.484076
1.486649 -2.098055 9.484076
-1.662109 2.656515 9.484076
-2.786666 0.761625 9.484076
-2.861636 -0.058348 9.484076
-0.012760 -2.552805 9.484076
-0.462583 3.159177 9.484076
0.137181 3.206025 9.484076
1.519630 -2.057363 9.484076
2.686175 1.414548 9.484076
-1.627024 2.665774 9.484076
-2.762173 0.791513 9.484076
0.212152 3.200819 9.484076
2.386294 -1.108545 9.484076
-2.892943 -0.033161 9.484076
1.561619 -1.992741 9.484076
0.062211 -2.509024 9.484076
0.287122 3.210838 9.484076
2.669662 1.466248 9.484076
-0.387612 3.175280 9.484076
2.426963 -1.082747 9.484076
0.137181 -2.540916 9.484076
-1.587139 2.680853 9.484076
-2.892313 0.041809 9.484076
-2.727728 0.866484 9.484076
0.362092 3.172525 9.484076
-0.312641 3.183240 9.484076
1.594499 -1.982393 9.484076
-1.512169 2.702435 9.484076
0.323460 3.190567 9.484076
-2.908754 0.116779 9.484076
-1.284206 -2.282274 9.484076
2.743940 1.316306 9.484076
2.461265 -1.057956 9.484076
-2.711695 0.882792 9.484076
-2.036962 -1.628909 9.484076
2.695905 1.391276 9.484076
1.627951 -1.907423 9.484076
2.482770 -1.007777 9.484076
-1.137317 -2.358816 9.484076
-1.476958 2.740745 9.484076
-2.680755 0.941454 9.484076
-1.961991 -1.650882 9.484076
-1.150530 -2.357245 9.484076
0.371911 3.190567 9.484076
2.525584 -0.932807 9.484076
-1.458939 2.815715 9.484076
-2.636725 0.995380 9.484076
0.437063 3.195652 9.484076
-2.258574 -1.532570 9.484076
2.536235 -0.908990 9.484076
-1.437198 2.848738 9.484076
-2.611002 1.016424 9.484076
-2.261873 -1.527600 9.484076
-1.062346 -2.373367 9.484076
-1.396097 2.890685 9.484076
2.611205 -0.873470 9.484076
2.536235 1.750655 9.484076
0.512033 3.186512 9.484076
-2.861636 1.217130 9.484076
-1.362227 2.910048 9.484076
-0.282589 3.190567 9.484076
-0.987375 -2.445103 9.484076
0.505732 3.190567 9.484076
-2.870026 1.241336 9.484076
-0.237671 3.198999 9.484076
-1.003345 -2.432215 9.484076
2.620111 -0.857837 9.484076
-2.486784 -1.239536 9.484076
0.587004 3.171093 9.484076
-1.287257 2.948038 9.484076
-0.162701 3.209417 9.484076
-2.500784 -1.232689 9.484076
-1.265027 2.965655 9.484076
2.524333 1.766129 9.484076
0.661974 3.167760 9.484076
-0.912405 -2.456830 9.484076
0.736944 3.177456 9.484076
-1.212287 2.987464 9.484076
2.476234 1.841099 9.484076
-2.786666 -0.150813 9.484076
2.611205 -0.799618 9.484076
-0.837435 -2.475231 9.484076
2.236353 2.152672 9.484076
2.461265 1.860796 9.484076
-2.477372 -1.232689 9.484076
-2.711695 -0.153223 9.484076
2.172963 2.215951 9.484076
2.386495 1.916070 9.484076
-0.762465 -2.476881 9.484076
2.607908 -0.782866 9.484076
-1.137317 2.998421 9.484076
0.811915 3.138532 9.484076
-2.786666 -0.073273 9.484076
-1.062346 2.980747 9.484076
-2.317880 -1.382629 9.484076
1.936471 2.438386 9.484076
2.611205 1.637757 9.484076
-2.711695 -0.034849 9.484076
-2.274029 -1.307659 9.484076
-0.987375 2.976474 9.484076
2.578824 1.691158 9.484076
0.860332 3.115597 9.484076
2.771504 -0.482985 9.484076
-0.912405 2.996486 9.484076
-0.687493 -2.444558 9.484076
-2.651799 -0.108132 9.484076
-2.288129 -1.232689 9.484076
2.624940 1.616188 9.484076
1.932828 2.440863 9.484076
2.778111 -0.408013 9.484076
-0.893380 3.040627 9.484076
1.861501 2.514871 9.484076
-0.638714 -2.432215 9.484076
2.801991 -0.333043 9.484076
-0.837435 3.094028 9.484076
1.860960 2.515833 9.484076
1.411678 2.815509 9.484076
-2.561754 -1.194113 9.484076
-0.807182 3.115597 9.484076
2.386294 2.002410 9.484076
1.410991 2.815715 9.484076
-0.612523 -2.423233 9.484076
-2.411814 -1.222934 9.484076
2.333591 2.066010 9.484076
2.011442 2.349660 9.484076
-0.762465 3.127369 9.484076
-0.537553 -2.398561 9.484076
-1.662109 -1.983136 9.484076
2.836117 -0.295112 9.484076
-2.861636 1.282469 9.484076
-0.462583 -2.392429 9.484076
1.486649 2.788273 9.484076
-1.662781 -1.982393 9.484076
-0.687493 3.133111 9.484076
2.007264 2.365892 9.484076
-2.336843 -1.219897 9.484076
-2.573619 1.091395 9.484076
-0.312641 -2.509315 9.484076
-0.612523 3.135153 9.484076
2.836117 -0.191038 9.484076
2.086412 2.301096 9.484076
-2.561754 1.117661 9.484076
2.823808 -0.183103 9.484076
-1.362227 -2.214656 9.484076
-0.537553 3.160346 9.484076
2.161383 2.229892 9.484076
-1.370004 -2.207304 9.484076
-2.857359 1.241336 9.484076
-0.315639 -2.507186 9.484076
1.561619 2.718723 9.484076
-1.887021 -1.655898 9.484076
2.824150 -0.108132 9.484076
2.101367 2.290922 9.484076
0.212152 -2.548705 9.484076
1.539674 2.740745 9.484076
-0.387612 -2.453330 9.484076
-1.437198 -2.140408 9.484076
2.836117 -0.080826 9.484076
0.287122 -2.531791 9.484076
-2.711695 1.405578 9.484076
2.391191 1.991040 9.484076
-1.449316 -2.132334 9.484076
1.636590 2.702208 9.484076
-1.873587 -1.682511 9.484076
-0.419380 -2.432215 9.484076
-2.722864 1.466248 9.484076
2.849825 -0.258073 9.484076
0.362092 -2.516428 9.484076
2.311323 2.094512 9.484076
-1.512169 -2.097389 9.484076
2.863386 0.116779 9.484076
1.186768 2.943397 9.484076
0.389452 -2.507186 9.484076
-1.577771 -2.057363 9.484076
1.172200 2.965655 9.484076
-0.237671 -2.557477 9.484076
-1.287257 -2.279581 9.484076
0.437063 -2.487601 9.484076
-1.587139 -2.046529 9.484076
-2.544650 1.166366 9.484076
1.336708 2.844219 9.484076
2.856492 -0.033161 9.484076
2.855723 0.191750 9.484076
2.250793 2.140981 9.484076
-2.503036 1.241336 9.484076
2.860554 0.266720 9.484076
2.870843 0.041809 9.484076
0.512033 -2.476359 9.484076
-2.577441 -1.157718 9.484076
-1.887021 -1.929379 9.484076
0.587004 -2.478356 9.484076
1.268414 2.890685 9.484076
2.887322 0.341691 9.484076
-1.899105 -1.907423 9.484076
1.261738 2.901026 9.484076
-2.486784 1.255936 9.484076
0.661974 -2.513196 9.484076
2.905226 0.416661 9.484076
-2.932994 0.191750 9.484076
-1.877812 -1.907423 9.484076
0.628180 -2.507186 9.484076
1.111796 3.039445 9.484076
-2.932907 0.266720 9.484076
-2.607821 -1.082747 9.484076
1.109786 3.040627 9.484076
2.908370 0.566602 9.484076
0.698217 -2.507186 9.484076
-1.887021 -1.847259 9.484076
0.886886 3.110281 9.484076
1.036826 3.109851 9.484076
2.911087 0.580998 9.484076
-2.933874 0.341691 9.484076
0.736944 -2.467763 9.484076
-2.611079 -1.007777 9.484076
0.961856 3.095900 9.484076
2.917850 0.641572 9.484076
-2.925841 0.416661 9.484076
-2.636725 -0.957090 9.484076
-1.713142 -1.907423 9.484076
0.811915 -2.447411 9.484076
1.711560 2.656584 9.484076
-2.647535 -0.932807 9.484076
-0.087730 3.221561 9.484076
-2.918279 0.491632 9.484076
1.699137 2.665774 9.484076
0.816517 -2.432215 9.484076
-0.012760 3.226981 9.484076
-1.701307 -1.832452 9.484076
1.786530 2.594408 9.484076
-2.906186 0.566602 9.484076
2.911087 0.696832 9.484076
0.883953 -2.357245 9.484076
0.062211 3.228810 9.484076
2.899987 0.716543 9.484076
-2.636725 -0.920310 9.484076
1.791460 2.590803 9.484076
-1.812050 -1.779728 9.484076
0.886886 -2.355317 9.484076
-2.614900 -0.857837 9.484076
2.836117 0.863433 9.484076
-1.824149 -1.757482 9.484076
2.834157 0.866484 9.484076
-2.608180 -0.782866 9.484076
2.763795 0.941454 9.484076
0.961856 -2.311407 9.484076
-1.737080 -1.789023 9.484076
1.030411 -2.282274 9.484076
2.761172 1.016424 9.484076
-2.636725 -0.716910 9.484076
2.785747 1.091395 9.484076
-2.640203 -0.707895 9.484076
2.763762 1.166366 9.484076
1.036826 -2.280378 9.484076
-2.283913 -1.457600 9.484076
2.761147 1.170741 9.484076
-2.661880 -0.632925 9.484076
2.739717 1.241336 9.484076
1.111796 -2.259690 9.484076
1.186768 -2.231229 9.484076
-2.186903 -1.609537 9.484076
-2.667239 -0.557955 9.484076
-2.462782 1.316306 9.484076
2.881571 0.791513 9.484076
-2.190875 -1.607541 9.484076
1.261738 -2.236974 9.484076
-2.701489 -0.482985 9.484076
1.317907 -2.207304 9.484076
-2.486784 1.375719 9.484076
-2.526148 1.391276 9.484076
-2.711695 -0.470834 9.484076
-2.531961 1.466248 9.484076
-2.561754 1.768758 9.484076
-2.527781 1.841099 9.484076
-2.486784 1.898258 9.484076
-2.469960 1.916070 9.484076
1.636590 -1.899990 9.484076
-2.411814 1.967816 9.484076
-2.346348 1.991040 9.484076
1.711560 -1.901929 9.484076
1.786530 -1.867069 9.484076
-2.336843 1.992510 9.484076
-2.261873 1.998020 9.484076
1.832493 -1.832452 9.484076
1.861501 -1.814100 9.484076
1.932117 -1.757482 9.484076
-2.164745 2.066010 9.484076
1.936471 -1.751202 9.484076
-2.111932 2.090985 9.484076
1.988841 -1.682511 9.484076
-2.036962 2.103810 9.484076
-1.991442 2.140981 9.484076
2.011442 -1.661808 9.484076
-1.974881 2.215951 9.484076
2.074096 -1.607541 9.484076
-1.961991 2.240964 9.484076
2.086412 -1.597442 9.484076
-2.036962 2.392387 9.484076
-2.062006 2.440863 9.484076
-2.036962 2.484187 9.484076
-1.998707 2.515833 9.484076
-1.917682 2.290922 9.484076
2.129850 -1.532570 9.484076
2.161383 -1.467181 9.484076
2.168032 -1.457600 9.484076
2.213310 -1.382629 9.484076
2.236353 -1.377855 9.484076
2.311323 -1.356252 9.484076
2.330979 -1.307659 9.484076
2.311323 -1.237836 9.484076
-2.786666 -0.333043 9.470537
-1.287257 -2.282274 9.476344
-2.786666 -0.258073 9.452906
-2.486784 -1.232689 9.469607
2.311323 -1.232689 9.474021
-2.786666 -0.183103 9.471559
-2.711695 0.866484 9.457295
-1.961991 2.365892 9.416319
1.636590 -1.907423 9.417705
-2.561754 -1.157718 9.460419
0.437063 -2.507186 9.460047
-2.486784 -1.157718 9.447502
2.386294 -1.082747 9.431523
-2.861636 -0.033161 9.476622
-1.961991 2.515833 9.446578
-0.912405 -2.507186 9.436235
1.711560 -1.907423 9.468355
-0.237671 3.190567 9.419096
-2.411814 -1.157718 9.443900
-2.861636 0.041809 9.445261
-0.987375 -2.432215 9.441181
-2.561754 -1.082747 9.422459
-2.861636 1.241336 9.474025
0.661974 -2.507186 9.458962
-1.587139 2.665774 9.457783
1.936471 -1.757482 9.435729
-2.711695 -0.108132 9.418780
0.736944 -2.432215 9.430876
2.761147 1.316306 9.429317
-0.012760 3.265537 9.444426
-2.786666 -0.033161 9.468032
-1.512169 2.665774 9.427436
2.011442 -1.682511 9.412648
-2.711695 -0.033161 9.462181
0.811915 -2.432215 9.446080
2.611205 -0.857837 9.461294
0.137181 3.190567 9.449649
1.861501 2.515833 9.476563
-2.711695 1.466248 9.449722
-0.537553 -2.357245 9.433333
0.287122 3.190567 9.430480
0.811915 -2.357245 9.424191
-0.987375 -2.207304 9.410958
2.086412 -1.607541 9.421536
2.086412 2.290922 9.462693
2.611205 -0.782866 9.438086
-2.636725 -0.108132 9.474251
2.611205 1.616188 9.452648
-1.362227 2.890685 9.440168
2.011442 2.365892 9.435925
0.437063 3.190567 9.478441
-2.486784 1.241336 9.456888
2.236353 -1.532570 9.425626
-2.786666 0.041809 9.412901
-2.411814 1.241336 9.410550
0.587004 3.190567 9.411933
-1.212287 2.965655 9.447032
2.836117 -0.258073 9.464008
-2.411814 1.316306 9.425261
0.736944 3.115597 9.418452
2.836117 0.266720 9.461525
0.736944 3.190567 9.480960
-1.512169 -2.132334 9.411974
-2.636725 -0.932807 9.463496
0.811915 3.115597 9.442716
-0.912405 3.040627 9.446932
2.836117 0.716543 9.428272
-1.587139 -2.057363 9.458541
-2.486784 1.391276 9.458141
-2.636725 -0.782866 9.437065
2.911087 0.416661 9.456969
-1.887021 -1.907423 9.458200
-1.812050 -1.832452 9.439723
-2.561754 1.766129 9.479827
2.911087 0.566602 9.455690
1.261738 2.890685 9.465052
-1.737080 -1.907423 9.454221
-2.936606 0.416661 9.444770
2.911087 0.641572 9.446238
