2.803564 0.691764 7.492543
0.029217 -2.254007 7.492543
1.289387 -2.187572 7.492543
-2.149741 -0.646445 7.492543
2.441634 1.632524 7.492543
2.837655 0.613944 7.492543
2.363814 -1.378181 7.492543
2.387983 1.703424 7.492543
0.184856 -2.307154 7.492543
2.560153 1.469963 7.492543
2.395451 -1.331553 7.492543
2.797022 0.769585 7.492543
0.262676 -2.321642 7.492543
2.365074 1.781243 7.492543
2.798844 -0.008615 7.492543
2.535378 1.547784 7.492543
-2.158508 -0.631174 7.492543
1.352155 -2.134219 7.492543
2.766326 0.847404 7.492543
2.363814 1.782326 7.492543
2.315587 1.859063 7.492543
2.829348 0.069205 7.492543
2.441634 -1.285054 7.492543
1.429975 -2.126277 7.492543
-2.227561 -0.562644 7.492543
2.830733 0.072707 7.492543
-1.966323 1.236504 7.492543
-2.233696 -0.553354 7.492543
2.850848 0.147025 7.492543
-2.227561 -0.536353 7.492543
0.262676 2.816255 7.492543
-2.220728 -0.475534 7.492543
2.850616 0.224845 7.492543
2.519454 1.567671 7.492543
1.482214 -2.109753 7.492543
-2.227561 -0.340834 7.492543
2.447033 1.625604 7.492543
2.842984 0.302665 7.492543
-2.216271 -0.397715 7.492543
-2.232241 -0.319895 7.492543
2.496217 -1.253734 7.492543
1.507795 -2.100884 7.492543
-1.994101 1.248669 7.492543
-1.994359 1.314323 7.492543
2.285994 1.918207 7.492543
-2.279223 -0.242075 7.492543
0.807416 2.781382 7.492543
2.510080 -1.175914 7.492543
-1.998383 1.392143 7.492543
2.252373 1.936883 7.492543
0.784857 2.792902 7.492543
-2.235669 -0.164255 7.492543
-2.291019 0.302665 7.492543
1.583215 -2.031933 7.492543
2.208174 1.988046 7.492543
0.885236 2.741704 7.492543
0.340496 -2.326625 7.492543
-2.242683 -0.086434 7.492543
-2.265759 0.380485 7.492543
2.185804 2.014703 7.492543
0.418316 -2.315664 7.492543
-2.268738 -0.008615 7.492543
-1.138083 -1.889673 7.492543
-1.994101 1.396815 7.492543
0.963056 2.712738 7.492543
-2.227561 0.440420 7.492543
0.496136 -2.305073 7.492543
0.949624 2.715082 7.492543
-2.305368 0.069205 7.492543
-1.060263 -1.931018 7.492543
0.972509 2.715082 7.492543
-1.926296 1.469963 7.492543
1.663435 2.457331 7.492543
-2.227561 0.488948 7.492543
0.340496 2.832549 7.492543
1.624275 2.481623 7.492543
-1.916281 1.483159 7.492543
1.040875 2.731524 7.492543
-2.241021 0.536124 7.492543
-1.293722 -1.757883 7.492543
1.819075 2.382717 7.492543
-2.227561 0.578963 7.492543
1.759302 2.403803 7.492543
0.418316 2.848589 7.492543
-1.838461 1.543056 7.492543
1.118695 2.709110 7.492543
-1.322945 -1.720653 7.492543
1.741255 2.411788 7.492543
1.102646 2.715082 7.492543
-1.832519 1.547784 7.492543
-0.904622 2.403605 7.492543
-2.227561 0.701291 7.492543
1.585615 -2.029763 7.492543
-1.449362 -1.611204 7.492543
-2.248529 0.769585 7.492543
1.974714 2.218776 7.492543
-1.479029 -1.565013 7.492543
1.196515 2.695554 7.492543
1.941669 2.248162 7.492543
-1.808001 1.625604 7.492543
1.663435 -1.963798 7.492543
-1.371542 -1.669909 7.492543
-0.904104 2.403803 7.492543
1.914352 2.325982 7.492543
-1.767651 1.703424 7.492543
1.352155 2.616342 7.492543
-2.227561 0.824242 7.492543
2.519454 -1.150328 7.492543
1.666400 -1.954113 7.492543
1.896894 2.355597 7.492543
-1.416418 -1.642833 7.492543
-0.840063 2.481623 7.492543
-1.760642 1.711497 7.492543
1.322126 2.637262 7.492543
1.741255 -1.903599 7.492543
0.496136 2.828310 7.492543
-2.219191 0.458304 7.492543
1.507795 2.555353 7.492543
-1.711429 1.781243 7.492543
-0.826802 2.488778 7.492543
1.585615 2.510040 7.492543
-2.213220 0.613944 7.492543
1.497372 2.559443 7.492543
0.573956 2.831614 7.492543
-1.682821 1.822266 7.492543
-0.748982 2.542184 7.492543
1.429975 2.585059 7.492543
1.819075 -1.876990 7.492543
-2.192492 0.691764 7.492543
-1.631479 1.859063 7.492543
2.541472 -1.098094 7.492543
-0.717974 2.559443 7.492543
-1.215902 -1.832168 7.492543
2.861411 0.380485 7.492543
1.274335 2.665136 7.492543
1.822000 -1.876293 7.492543
-1.255518 -1.798473 7.492543
0.651775 2.821104 7.492543
-1.605001 1.903776 7.492543
2.845880 0.458304 7.492543
-0.671163 2.573486 7.492543
-1.154119 -1.876293 7.492543
2.578356 -1.020274 7.492543
2.860235 0.536124 7.492543
1.896894 -1.863588 7.492543
-2.213789 0.847404 7.492543
-0.593343 2.603522 7.492543
1.974714 -1.821466 7.492543
2.597274 -0.965639 7.492543
-1.605001 -1.511665 7.492543
-2.149741 0.920477 7.492543
-1.658813 -1.487193 7.492543
-2.138671 0.925224 7.492543
-0.552006 2.637262 7.492543
-1.581161 1.936883 7.492543
2.604923 -0.942454 7.492543
-1.682821 -1.463618 7.492543
-2.118447 1.003044 7.492543
-0.515523 2.660287 7.492543
-1.728512 -1.409373 7.492543
-2.076673 1.080864 7.492543
-1.527182 2.003942 7.492543
-0.437703 2.657677 7.492543
1.993203 -1.798473 7.492543
-1.760642 -1.376382 7.492543
-0.359883 2.694126 7.492543
-1.522870 2.014703 7.492543
2.052534 -1.740126 7.492543
-1.782686 -1.331553 7.492543
2.645213 -0.864634 7.492543
-1.838461 -1.255865 7.492543
-0.313607 2.715082 7.492543
-1.469952 2.092523 7.492543
0.729596 2.825873 7.492543
-0.282063 2.727798 7.492543
2.675094 -0.815029 7.492543
-0.204244 2.745652 7.492543
-1.840663 -1.253734 7.492543
2.687330 -0.786814 7.492543
-0.126423 2.752584 7.492543
-0.048603 2.734390 7.492543
-1.449362 2.123122 7.492543
2.701250 -0.708994 7.492543
0.029217 2.753633 7.492543
-1.916281 -1.145839 7.492543
-1.394096 2.170342 7.492543
2.737547 -0.631174 7.492543
0.107037 2.776587 7.492543
-1.941714 -1.098094 7.492543
0.184856 2.792055 7.492543
0.188003 2.792902 7.492543
-1.977467 -1.020274 7.492543
-1.374971 2.248162 7.492543
-2.302597 0.147025 7.492543
-1.371542 2.252671 7.492543
-1.994101 -0.994326 7.492543
-1.293722 2.294003 7.492543
-2.305381 0.147882 7.492543
-2.323511 0.224845 7.492543
-1.901466 -1.175914 7.492543
-1.215902 2.240735 7.492543
-2.305381 0.280619 7.492543
-1.219709 2.248162 7.492543
-1.198331 2.248162 7.492543
-1.527182 -1.519445 7.492543
-0.826802 -2.042501 7.492543
-0.869953 -2.031933 7.492543
-0.671163 -2.116373 7.492543
-0.693365 -2.109753 7.492543
-0.748982 -2.039275 7.492543
-0.904622 -2.014126 7.492543
-0.593343 -2.123426 7.492543
-0.515523 -2.154576 7.492543
-0.437703 -2.172795 7.492543
0.729596 -2.265392 7.461248
2.130354 -1.565013 7.436786
-0.126423 -2.187572 7.432177
0.807416 -2.265392 7.433256
2.752913 -0.086434 7.436028
2.752913 -0.008615 7.432060
0.029217 -2.265392 7.421699
-2.071921 1.080864 7.421217
1.274335 -2.187572 7.465406
-2.149741 -0.631174 7.475085
-1.138083 2.248162 7.426885
2.752913 0.847404 7.467085
2.830733 0.147025 7.446280
2.441634 -1.253734 7.433148
-1.916281 -1.175914 7.457698
-1.994101 1.314323 7.482278
-0.982443 2.403803 7.450618
-2.227561 -0.553354 7.415645
2.441634 1.625604 7.480989
-1.994101 1.392143 7.476234
-2.149741 -0.553354 7.422496
2.675094 1.236504 7.471251
1.507795 -2.109753 7.424448
2.363814 1.703424 7.459797
-0.904622 2.403803 7.492267
-2.227561 0.458304 7.433366
-1.916281 1.469963 7.420446
2.597274 -0.942454 7.458453
-2.227561 -0.397715 7.457654
2.363814 1.781243 7.490046
1.585615 -2.031933 7.491022
0.496136 2.792902 7.440287
-0.671163 -2.109753 7.460412
2.519454 1.547784 7.421533
-1.838461 1.547784 7.489085
2.597274 -0.864634 7.450536
-0.671163 2.559443 7.435597
0.729596 2.792902 7.437277
2.675094 -0.786814 7.465345
2.285994 1.936883 7.437859
-2.305381 0.147025 7.442065
-0.515523 2.637262 7.449790
-2.305381 0.224845 7.432857
1.741255 2.403803 7.467892
1.352155 2.637262 7.416142
-0.282063 2.715082 7.451674
-1.371542 2.248162 7.470027
-1.215902 2.248162 7.471385
0.029217 2.792902 7.439815
0.107037 2.792902 7.478295
-0.982443 -1.966576 7.570363
-0.437703 -2.205937 7.570363
-1.024013 -1.954113 7.570363
-2.071921 -0.807688 7.570363
-1.060263 -1.937706 7.570363
0.573956 -2.281466 7.570363
-0.513665 -2.187572 7.570363
-1.129870 -1.876293 7.570363
-2.082862 -0.786814 7.570363
0.612326 -2.265392 7.570363
-0.359883 -2.204865 7.570363
0.651775 -2.256194 7.570363
-2.009994 -0.942454 7.570363
-1.293722 -1.807546 7.570363
2.047780 -1.720653 7.570363
0.729596 -2.255606 7.570363
-1.305994 -1.798473 7.570363
-0.282063 -2.205840 7.570363
2.752913 -0.727927 7.570363
2.052534 -1.711279 7.570363
-1.293722 -1.766279 7.570363
0.807416 -2.228488 7.570363
-1.138083 2.313396 7.570363
2.812565 0.613944 7.570363
-2.071921 1.090278 7.570363
-1.527182 -1.565660 7.570363
2.130354 2.046829 7.570363
2.752913 1.067718 7.570363
-0.204244 -2.231099 7.570363
-1.529306 -1.565013 7.570363
2.744649 1.080864 7.570363
-1.060263 2.313007 7.570363
-1.519228 -1.565013 7.570363
2.678166 1.158684 7.570363
2.821239 0.691764 7.570363
-1.044795 2.325982 7.570363
-1.371542 -1.682973 7.570363
0.885236 -2.258631 7.570363
2.675094 1.162031 7.570363
2.830733 0.759709 7.570363
-1.435692 -1.642833 7.570363
-0.126423 -2.226316 7.570363
-1.060263 2.397961 7.570363
2.644864 1.236504 7.570363
2.836353 0.769585 7.570363
2.081952 2.092523 7.570363
-1.061351 2.403803 7.570363
-0.048603 -2.232041 7.570363
0.963056 -2.259835 7.570363
2.092973 -1.642833 7.570363
2.052534 2.115854 7.570363
-0.982443 2.378724 7.570363
1.040875 -2.242701 7.570363
-1.293722 -1.704249 7.570363
0.107037 -2.321039 7.570363
2.130354 -1.565722 7.570363
-2.036599 1.158684 7.570363
-2.029599 -0.864634 7.570363
1.118695 -2.222314 7.570363
-1.439730 -1.565013 7.570363
2.004286 2.170342 7.570363
2.597274 1.309696 7.570363
2.830733 0.784484 7.570363
2.130755 -1.565013 7.570363
2.590894 1.314323 7.570363
-2.131597 -0.708994 7.570363
2.786256 0.847404 7.570363
2.765304 -0.708994 7.570363
1.196515 -2.206746 7.570363
2.549576 1.392143 7.570363
2.441634 1.681030 7.570363
2.777512 0.925224 7.570363
2.208174 -1.499546 7.570363
-1.235811 -1.798473 7.570363
-2.149741 -0.671677 7.570363
2.422398 1.703424 7.570363
1.274335 -2.197510 7.570363
0.032427 -2.265392 7.570363
-2.165936 -0.631174 7.570363
2.236903 -1.487193 7.570363
2.551092 1.469963 7.570363
1.296856 -2.187572 7.570363
2.778023 1.003044 7.570363
2.368139 1.781243 7.570363
0.029217 -2.262751 7.570363
-1.138083 -1.871515 7.570363
2.285994 -1.431063 7.570363
-1.997958 1.236504 7.570363
-2.189293 -0.553354 7.570363
2.363814 1.787623 7.570363
-1.209616 -1.798473 7.570363
2.317997 1.859063 7.570363
2.756435 -0.631174 7.570363
-2.198857 -0.475534 7.570363
-1.215902 -1.791921 7.570363
2.519454 1.527616 7.570363
0.262676 2.841383 7.570363
1.352155 -2.154530 7.570363
2.363814 -1.413507 7.570363
2.486150 1.547784 7.570363
0.184856 -2.297715 7.570363
-1.994101 1.246119 7.570363
-1.058971 2.403803 7.570363
1.429975 -2.125328 7.570363
2.478211 1.625604 7.570363
0.262676 -2.314174 7.570363
-1.060263 2.404990 7.570363
-1.979245 1.314323 7.570363
-1.274013 -1.720653 7.570363
0.885236 2.770418 7.570363
0.340496 2.824803 7.570363
2.799335 -0.553354 7.570363
1.468301 -2.109753 7.570363
-1.969586 1.392143 7.570363
0.418316 2.842552 7.570363
2.794769 -0.475534 7.570363
-0.904622 2.393041 7.570363
-2.227561 -0.411202 7.570363
-1.916281 1.445454 7.570363
-1.605001 -1.518028 7.570363
2.814523 -0.397715 7.570363
-0.888955 2.403803 7.570363
-2.232940 -0.397715 7.570363
-1.641463 -1.487193 7.570363
2.830733 -0.347299 7.570363
2.366586 -1.409373 7.570363
-1.867636 1.469963 7.570363
0.496136 2.847276 7.570363
-0.826802 2.480257 7.570363
2.837567 -0.319895 7.570363
-1.838461 1.499881 7.570363
2.415894 -1.331553 7.570363
0.573956 2.850153 7.570363
-1.682821 -1.452440 7.570363
-1.812774 1.547784 7.570363
2.851916 -0.242075 7.570363
-1.735178 -1.409373 7.570363
0.651775 2.834550 7.570363
2.843879 -0.164255 7.570363
0.729596 2.806634 7.570363
-0.825518 2.481623 7.570363
2.441634 -1.294629 7.570363
2.830733 -0.131876 7.570363
-1.785956 1.625604 7.570363
2.285994 1.907074 7.570363
0.807416 2.811430 7.570363
-1.760642 -1.374367 7.570363
2.256223 1.936883 7.570363
2.467355 -1.253734 7.570363
0.853971 2.792902 7.570363
-1.796282 -1.331553 7.570363
-2.254085 -0.319895 7.570363
2.208174 1.974186 7.570363
1.507795 -2.095805 7.570363
2.813835 -0.086434 7.570363
2.158455 2.014703 7.570363
-0.748982 2.526450 7.570363
2.827623 -0.008615 7.570363
-2.265260 -0.242075 7.570363
1.585615 -2.062785 7.570363
-0.671163 2.554881 7.570363
1.040875 2.697356 7.570363
2.516452 -1.175914 7.570363
2.830733 -0.000842 7.570363
-2.248525 -0.164255 7.570363
1.000415 2.715082 7.570363
2.519454 -1.161914 7.570363
-0.659106 2.559443 7.570363
1.663435 2.453393 7.570363
2.849075 0.069205 7.570363
0.963056 2.737087 7.570363
-2.263725 -0.086434 7.570363
1.625739 2.481623 7.570363
2.534275 -1.098094 7.570363
2.852306 0.147025 7.570363
1.118695 2.709653 7.570363
1.741255 2.401765 7.570363
-0.593343 2.590853 7.570363
-2.285454 -0.008615 7.570363
2.579189 -1.020274 7.570363
1.737634 2.403803 7.570363
1.196515 2.696992 7.570363
1.663435 -2.044908 7.570363
2.597274 -0.987081 7.570363
1.819075 2.371430 7.570363
2.851349 0.224845 7.570363
1.352155 2.601479 7.570363
-1.838461 -1.282664 7.570363
2.621017 -0.942454 7.570363
-2.305381 0.066841 7.570363
-1.852666 -1.253734 7.570363
2.844272 0.302665 7.570363
1.334040 2.637262 7.570363
-2.306374 0.069205 7.570363
1.974714 2.201303 7.570363
2.662376 -0.864634 7.570363
-0.529895 2.637262 7.570363
1.933991 2.248162 7.570363
1.429975 2.585555 7.570363
-2.337010 0.147025 7.570363
-1.916281 -1.161027 7.570363
-0.515523 2.646106 7.570363
1.896894 2.311829 7.570363
-2.302161 0.302665 7.570363
2.675094 -0.841144 7.570363
1.886596 2.325982 7.570363
-2.309740 0.224845 7.570363
-0.437703 2.646555 7.570363
1.507795 2.565500 7.570363
-1.953836 -1.098094 7.570363
-0.371486 2.715082 7.570363
-2.305381 0.272348 7.570363
-1.760642 1.680758 7.570363
2.698481 -0.786814 7.570363
-2.280567 0.380485 7.570363
-0.359883 2.725519 7.570363
-1.982845 -1.020274 7.570363
1.274335 2.667493 7.570363
-1.742868 1.703424 7.570363
-1.994101 -0.995963 7.570363
1.585615 2.510923 7.570363
-0.282063 2.749054 7.570363
-1.682821 1.766884 7.570363
1.521315 2.559443 7.570363
-1.898235 -1.175914 7.570363
-0.204244 2.747388 7.570363
-2.273601 0.458304 7.570363
-2.264946 0.536124 7.570363
-1.671146 1.781243 7.570363
-2.252406 0.613944 7.570363
-2.247188 0.691764 7.570363
2.876549 0.380485 7.570363
-1.605001 1.843906 7.570363
2.851182 0.458304 7.570363
-1.449362 -1.556078 7.570363
2.851089 0.536124 7.570363
2.830733 0.586393 7.570363
-1.594565 1.859063 7.570363
-0.048603 2.709331 7.570363
-1.543159 1.936883 7.570363
-2.227561 0.754274 7.570363
-1.527182 1.991241 7.570363
-0.904622 -2.034731 7.570363
-1.522412 2.014703 7.570363
-0.067071 2.715082 7.570363
-0.909289 -2.031933 7.570363
-2.220973 0.769585 7.570363
-1.474748 2.092523 7.570363
-0.826802 -2.057360 7.570363
-0.126423 2.742503 7.570363
-1.449362 2.123339 7.570363
-0.671163 -2.116318 7.570363
-2.193874 0.847404 7.570363
-0.694660 -2.109753 7.570363
-2.149741 0.908593 7.570363
-1.391372 2.170342 7.570363
-0.748982 -2.083348 7.570363
-2.131457 0.925224 7.570363
0.019891 2.715082 7.570363
-2.101071 1.003044 7.570363
-1.371542 2.192117 7.570363
-0.593343 -2.138596 7.570363
0.029217 2.746848 7.570363
-2.076941 1.080864 7.570363
-1.307222 2.248162 7.570363
-0.515523 -2.186710 7.570363
0.107037 2.748044 7.570363
-1.293722 2.255937 7.570363
1.689366 -2.031933 7.570363
-1.215902 2.291507 7.570363
0.184856 2.785980 7.570363
0.340496 -2.321114 7.570363
0.196623 2.792902 7.570363
0.418316 -2.318889 7.570363
1.725435 -1.954113 7.570363
0.496136 -2.304906 7.570363
1.741255 -1.930823 7.570363
1.819075 -1.887339 7.570363
1.844955 -1.876293 7.570363
1.896894 -1.857889 7.570363
1.974714 -1.814776 7.570363
1.989824 -1.798473 7.570363
-0.437703 -2.187572 7.525688
0.651775 -2.265392 7.549921
-1.138083 -1.876293 7.538157
2.052534 -1.720653 7.506791
-0.359883 -2.187572 7.495154
-1.293722 -1.798473 7.531849
-1.293722 -1.720653 7.566741
2.752913 -0.708994 7.540431
-2.071921 -0.786814 7.539074
-1.527182 -1.565013 7.569321
-1.994101 1.236504 7.557553
2.752913 -0.631174 7.535899
2.363814 -1.409373 7.564052
-1.060263 2.325982 7.509383
-1.449362 -1.565013 7.524144
-1.994101 1.314323 7.501321
2.752913 0.925224 7.506088
-1.060263 2.403803 7.560963
-1.994101 1.392143 7.549677
2.830733 -0.319895 7.509346
1.585615 -2.031933 7.505583
-2.227561 -0.553354 7.501456
2.752913 1.003044 7.500038
-1.215902 -1.798473 7.543278
1.663435 -2.031933 7.518414
-1.916281 1.469963 7.526223
2.830733 0.613944 7.501904
2.830733 -0.242075 7.532389
-2.227561 -0.397715 7.493053
2.519454 1.547784 7.532108
2.675094 1.236504 7.548787
2.830733 -0.164255 7.545361
2.830733 0.769585 7.545901
-0.826802 2.481623 7.544079
-1.760642 1.703424 7.529496
2.597274 1.314323 7.545101
2.830733 0.069205 7.496166
-2.305381 0.069205 7.493715
-0.671163 2.559443 7.564876
-2.305381 0.147025 7.494766
1.741255 2.403803 7.565377
-1.682821 1.781243 7.550849
1.896894 2.325982 7.550098
-0.359883 2.715082 7.507538
-1.605001 1.859063 7.529490
-0.904622 -2.031933 7.553473
0.807416 2.792902 7.519064
-0.048603 2.715082 7.528936
-2.227561 0.458304 7.510281
1.507795 2.559443 7.507072
-2.227561 0.613944 7.528846
0.963056 2.715082 7.500656
1.040875 2.715082 7.509303
-2.227561 0.691764 7.511931
-1.371542 2.248162 7.517844
-2.227561 0.769585 7.542718
-1.215902 2.248162 7.506017
-0.515523 -2.212597 7.648183
1.893669 -1.876293 7.648183
-0.982443 -1.972680 7.648183
-0.538155 -2.187572 7.648183
1.896894 -1.874290 7.648183
-2.071921 -0.804873 7.648183
0.573956 -2.288332 7.648183
2.752913 -0.613167 7.648183
1.974714 -1.813891 7.648183
0.651775 -2.301114 7.648183
2.787937 -0.553354 7.648183
-2.088820 -0.786814 7.648183
-1.001913 -1.954113 7.648183
0.729596 -2.343200 7.648183
1.993670 -1.798473 7.648183
-2.071921 1.022844 7.648183
-1.293722 2.249683 7.648183
0.774093 -2.265392 7.648183
-2.022904 -0.942454 7.648183
-0.437703 -2.225918 7.648183
-1.060263 -1.896714 7.648183
-1.215902 2.286188 7.648183
2.052534 -1.750198 7.648183
-1.124811 -1.876293 7.648183
1.507795 2.550901 7.648183
-1.138083 2.317748 7.648183
-0.359883 -2.214679 7.648183
-2.035314 -0.864634 7.648183
-2.057230 1.080864 7.648183
1.482244 2.559443 7.648183
2.072540 -1.720653 7.648183
-1.119873 2.325982 7.648183
2.878468 0.302665 7.648183
1.352155 2.607941 7.648183
-1.293722 -1.770702 7.648183
-0.282063 -2.212854 7.648183
-1.060263 2.368193 7.648183
-1.371473 -1.720653 7.648183
2.877017 0.380485 7.648183
2.102909 -1.642833 7.648183
-0.982443 2.396469 7.648183
0.008873 2.792902 7.648183
2.878518 0.458304 7.648183
-0.204244 -2.253672 7.648183
-1.449362 -1.613866 7.648183
0.029217 2.799322 7.648183
0.885236 -2.271588 7.648183
2.130354 -1.614778 7.648183
2.864967 0.536124 7.648183
-1.518557 -1.565013 7.648183
-0.959632 2.403803 7.648183
2.789261 -0.475534 7.648183
-2.044701 1.158684 7.648183
2.842276 0.613944 7.648183
-0.904622 2.431758 7.648183
1.429975 2.588908 7.648183
-2.011472 1.236504 7.648183
2.818442 -0.397715 7.648183
2.159274 -1.565013 7.648183
-1.371542 -1.720578 7.648183
2.832328 0.691764 7.648183
2.830733 -0.374688 7.648183
1.196515 2.700805 7.648183
-1.994101 1.279922 7.648183
0.813019 -2.265392 7.648183
2.861493 -0.319895 7.648183
1.274335 2.644819 7.648183
-0.837705 2.481623 7.648183
-1.980678 1.314323 7.648183
0.102069 2.792902 7.648183
2.830733 0.696291 7.648183
-1.423099 -1.642833 7.648183
0.807416 -2.259388 7.648183
-1.945838 1.392143 7.648183
2.805053 0.769585 7.648183
2.852352 -0.242075 7.648183
0.222673 2.792902 7.648183
-2.149741 -0.729644 7.648183
-0.826802 2.487814 7.648183
2.849480 -0.164255 7.648183
0.963056 -2.274458 7.648183
2.793663 0.847404 7.648183
0.262676 2.805396 7.648183
-0.748982 2.521706 7.648183
-0.126423 -2.263375 7.648183
2.777188 0.925224 7.648183
-2.181184 -0.708994 7.648183
1.040875 -2.271587 7.648183
-0.671163 2.533799 7.648183
-1.215902 -1.820033 7.648183
2.836455 -0.086434 7.648183
-2.151192 -0.631174 7.648183
-0.593343 2.554341 7.648183
2.752913 0.994196 7.648183
-1.250418 -1.798473 7.648183
2.840266 -0.008615 7.648183
1.070554 -2.265392 7.648183
-1.916281 1.424841 7.648183
-1.138083 -1.871419 7.648183
-0.048603 -2.247059 7.648183
-0.589039 2.559443 7.648183
1.118695 -2.234261 7.648183
2.854224 0.069205 7.648183
-0.515523 2.617514 7.648183
1.196515 -2.200724 7.648183
0.340496 2.822725 7.648183
-2.156305 -0.553354 7.648183
0.107037 -2.288995 7.648183
-1.847625 1.469963 7.648183
-1.605001 -1.506205 7.648183
-2.187016 -0.475534 7.648183
1.274335 -2.189312 7.648183
-1.838461 1.487021 7.648183
-1.652842 -1.487193 7.648183
0.418316 2.855462 7.648183
0.044554 -2.265392 7.648183
-0.437703 2.636348 7.648183
1.282226 -2.187572 7.648183
-2.227561 -0.401900 7.648183
-1.682821 -1.459976 7.648183
2.747286 1.003044 7.648183
-0.436595 2.637262 7.648183
-1.810889 1.547784 7.648183
0.496136 2.859704 7.648183
0.029217 -2.258060 7.648183
2.700605 1.080864 7.648183
2.870210 0.147025 7.648183
-0.359883 2.678438 7.648183
0.573956 2.818167 7.648183
1.352155 -2.134789 7.648183
2.677584 1.158684 7.648183
0.184856 -2.309749 7.648183
2.208174 -1.530730 7.648183
2.868766 0.224845 7.648183
-1.760642 1.608781 7.648183
2.675094 1.165199 7.648183
0.262676 -2.289882 7.648183
0.651775 2.831676 7.648183
2.646029 1.236504 7.648183
1.282473 2.637262 7.648183
0.340496 -2.294032 7.648183
1.418501 -2.109753 7.648183
2.256106 -1.487193 7.648183
-0.297877 2.715082 7.648183
-1.751142 1.625604 7.648183
0.729596 2.805293 7.648183
1.429975 -2.108663 7.648183
0.418316 -2.306993 7.648183
-2.230441 -0.397715 7.648183
-2.298323 0.302665 7.648183
2.130354 2.000031 7.648183
0.807416 2.808696 7.648183
1.507795 -2.097946 7.648183
-2.298488 0.380485 7.648183
0.496136 -2.304906 7.648183
2.103381 2.014703 7.648183
0.861400 2.792902 7.648183
-2.301919 0.458304 7.648183
-2.245668 -0.319895 7.648183
-1.692908 1.703424 7.648183
2.597274 1.334529 7.648183
1.585615 -2.055454 7.648183
-2.305381 0.515225 7.648183
2.573202 1.392143 7.648183
-2.311782 0.536124 7.648183
-0.282063 2.725251 7.648183
2.608166 1.314323 7.648183
-2.305381 0.549257 7.648183
-1.682821 1.722898 7.648183
-0.204244 2.738495 7.648183
-2.261272 0.613944 7.648183
-1.636933 1.781243 7.648183
2.545705 1.469963 7.648183
-2.260614 -0.242075 7.648183
-0.126423 2.724363 7.648183
-1.605001 1.818668 7.648183
-2.247174 0.691764 7.648183
2.529487 1.547784 7.648183
-2.275403 -0.164255 7.648183
-2.230704 0.769585 7.648183
1.629642 -2.031933 7.648183
2.285994 -1.463929 7.648183
-1.590704 1.859063 7.648183
-2.291574 -0.086434 7.648183
-2.227561 0.777602 7.648183
1.663435 -2.017230 7.648183
-1.718843 -1.409373 7.648183
0.885236 2.759592 7.648183
-2.298978 -0.008615 7.648183
-1.553290 1.936883 7.648183
2.363814 -1.422802 7.648183
1.734696 -1.954113 7.648183
-1.527182 1.984398 7.648183
-2.305381 0.014052 7.648183
0.963056 2.745338 7.648183
-1.512107 2.014703 7.648183
-2.178301 0.847404 7.648183
-2.319086 0.069205 7.648183
-1.760642 -1.326905 7.648183
-2.149741 0.884089 7.648183
2.374959 -1.409373 7.648183
-1.473538 2.092523 7.648183
-2.322711 0.147025 7.648183
1.741255 -1.949224 7.648183
-1.449362 2.134130 7.648183
1.040875 2.724864 7.648183
-2.316123 0.224845 7.648183
2.439733 -1.331553 7.648183
-2.117812 0.925224 7.648183
1.118695 2.697761 7.648183
1.819075 -1.911467 7.648183
1.061071 2.715082 7.648183
-1.407788 2.170342 7.648183
-2.305381 0.269696 7.648183
2.441634 -1.329920 7.648183
-2.078161 1.003044 7.648183
-1.371542 2.196594 7.648183
-1.296129 2.248162 7.648183
2.483811 -1.253734 7.648183
-1.804663 -1.253734 7.648183
2.052534 2.090982 7.648183
2.499681 -1.175914 7.648183
2.051977 2.092523 7.648183
2.519454 -1.115591 7.648183
-1.756828 -1.331553 7.648183
1.979989 2.170342 7.648183
2.524886 -1.098094 7.648183
-0.048603 2.723362 7.648183
-1.916281 -1.150909 7.648183
2.597274 -1.025648 7.648183
-1.931633 -1.098094 7.648183
2.441634 1.703538 7.648183
2.366046 1.781243 7.648183
2.599535 -1.020274 7.648183
0.107037 2.752576 7.648183
2.363814 1.798515 7.648183
-1.992525 -1.020274 7.648183
2.618088 -0.942454 7.648183
2.347583 1.859063 7.648183
0.184856 2.778518 7.648183
-1.994101 -1.017722 7.648183
2.519454 1.597585 7.648183
2.655369 -0.864634 7.648183
-1.838461 -1.194707 7.648183
2.498929 1.625604 7.648183
-1.887575 -1.175914 7.648183
2.675094 -0.810241 7.648183
2.441741 1.703424 7.648183
2.684043 -0.786814 7.648183
-1.527182 -1.561074 7.648183
2.208174 1.931855 7.648183
2.724803 -0.708994 7.648183
2.203183 1.936883 7.648183
2.740685 -0.631174 7.648183
2.285994 1.897194 7.648183
-0.826802 -2.064960 7.648183
-0.902701 -2.031933 7.648183
1.585615 2.480531 7.648183
-0.748982 -2.082667 7.648183
1.584369 2.481623 7.648183
-0.671163 -2.095775 7.648183
1.663435 2.438808 7.648183
-0.904622 -2.030992 7.648183
1.741255 2.380321 7.648183
1.701789 2.403803 7.648183
-0.593343 -2.142529 7.648183
1.819075 2.372606 7.648183
-0.641714 -2.109753 7.648183
1.974714 2.176804 7.648183
1.933910 2.248162 7.648183
1.896894 2.312006 7.648183
1.882782 2.325982 7.648183
-2.071921 1.080864 7.581307
-0.515523 -2.187572 7.571886
2.752913 -0.708994 7.627079
0.651775 -2.265392 7.597878
2.052534 -1.720653 7.586568
2.752913 -0.631174 7.628544
0.729596 -2.265392 7.610994
-1.293722 -1.798473 7.610292
-1.293722 -1.720653 7.592552
0.885236 -2.265392 7.590025
-1.060263 2.325982 7.601271
-1.527182 -1.565013 7.575216
-2.149741 -0.708994 7.602913
0.029217 2.792902 7.633782
-1.449362 -1.565013 7.603642
1.507795 2.559443 7.615862
-1.760642 1.625604 7.622432
2.830733 -0.086434 7.616976
-1.060263 2.403803 7.589215
0.963056 -2.265392 7.636238
2.830733 0.613944 7.624759
2.830733 -0.008615 7.583508
-1.215902 -1.798473 7.590951
1.040875 -2.265392 7.627067
2.597274 -1.020274 7.588325
2.130354 2.014703 7.603325
-0.904622 2.403803 7.601480
2.830733 0.691764 7.635518
2.052534 2.092523 7.594024
-0.826802 2.481623 7.598982
2.830733 0.769585 7.624093
2.752913 1.003044 7.639093
-2.305381 0.536124 7.630874
-1.760642 -1.331553 7.642053
2.441634 1.703424 7.647835
-0.593343 2.559443 7.609532
-1.838461 -1.253734 7.599369
-0.515523 2.637262 7.582520
1.429975 -2.109753 7.641421
2.597274 1.314323 7.604945
-2.227561 0.769585 7.641495
-0.437703 2.637262 7.638786
2.519454 1.547784 7.639530
-0.359883 2.715082 7.598491
1.663435 -2.031933 7.620543
2.208174 1.936883 7.635614
-0.048603 2.715082 7.632108
1.040875 2.715082 7.635555
-0.904622 -2.031933 7.629253
1.585615 2.481623 7.645472
-0.671163 -2.109753 7.592214
1.879139 -1.876293 7.726003
2.752913 -0.551140 7.726003
1.896894 -1.864630 7.726003
-2.096356 1.080864 7.726003
-0.982443 -1.971929 7.726003
-0.437703 -2.227088 7.726003
1.974714 -1.801375 7.726003
-2.071921 1.111291 7.726003
0.573956 -2.330498 7.726003
-0.510535 -2.187572 7.726003
-1.004357 -1.954113 7.726003
2.790845 -0.475534 7.726003
1.979465 -1.798473 7.726003
-2.045266 1.158684 7.726003
-0.362188 -2.187572 7.726003
-1.060263 -1.909832 7.726003
2.052534 -1.733435 7.726003
-2.022597 1.236504 7.726003
-1.134573 -1.876293 7.726003
-0.282063 -2.209717 7.726003
2.061263 -1.720653 7.726003
-1.293722 2.263757 7.726003
-0.353872 -2.187572 7.726003
-1.293722 -1.778725 7.726003
2.122582 -1.642833 7.726003
-0.206946 -2.187572 7.726003
-1.356632 -1.720653 7.726003
1.507795 2.505862 7.726003
0.218315 2.792902 7.726003
-1.215902 2.310406 7.726003
2.130354 -1.635842 7.726003
-1.994101 1.301137 7.726003
2.884196 0.302665 7.726003
0.262676 2.809069 7.726003
-1.449362 -1.625498 7.726003
-1.138083 2.315305 7.726003
-1.986154 1.314323 7.726003
2.891238 0.380485 7.726003
2.188471 -1.565013 7.726003
-0.126423 -2.284883 7.726003
-1.969087 1.392143 7.726003
-1.110506 2.325982 7.726003
2.891177 0.458304 7.726003
-0.161696 -2.265392 7.726003
1.444304 2.559443 7.726003
-1.916281 1.429301 7.726003
2.208174 -1.539319 7.726003
-0.048603 -2.272381 7.726003
-1.060263 2.347184 7.726003
2.752913 0.970244 7.726003
1.352155 2.632186 7.726003
2.874175 0.536124 7.726003
-0.203081 -2.187572 7.726003
2.738481 1.003044 7.726003
-1.867973 1.469963 7.726003
1.424092 2.637262 7.726003
2.859134 0.613944 7.726003
-1.517128 -1.565013 7.726003
2.717726 1.080864 7.726003
-1.838461 1.509908 7.726003
1.430876 2.637262 7.726003
0.029217 -2.271795 7.726003
-1.371542 -1.684267 7.726003
2.691310 1.158684 7.726003
0.107037 -2.283087 7.726003
1.331869 2.637262 7.726003
2.268693 -1.487193 7.726003
1.282332 2.715082 7.726003
-1.413987 -1.642833 7.726003
2.835320 0.691764 7.726003
2.285994 -1.473983 7.726003
-0.982443 2.397427 7.726003
2.675094 1.194465 7.726003
1.196515 2.719196 7.726003
0.184856 -2.277507 7.726003
2.656772 1.236504 7.726003
1.274335 2.721740 7.726003
-1.215902 -1.830009 7.726003
2.796992 -0.397715 7.726003
0.262676 -2.284035 7.726003
-1.265344 -1.798473 7.726003
2.363814 -1.419854 7.726003
1.429975 2.637869 7.726003
-0.974728 2.403803 7.726003
0.651775 -2.319554 7.726003
2.597274 1.375031 7.726003
2.374382 -1.409373 7.726003
2.805246 -0.319895 7.726003
-2.227561 -0.406425 7.726003
2.441634 -1.352197 7.726003
-2.233499 -0.397715 7.726003
-1.138083 -1.875324 7.726003
-2.239764 -0.319895 7.726003
2.591383 1.392143 7.726003
2.830733 0.710340 7.726003
-1.811364 1.547784 7.726003
2.821121 -0.242075 7.726003
2.623529 1.314323 7.726003
-2.257657 -0.242075 7.726003
2.816577 0.769585 7.726003
2.130354 2.025512 7.726003
-2.287563 -0.164255 7.726003
2.830733 -0.202723 7.726003
0.729596 -2.318303 7.726003
2.797393 0.847404 7.726003
2.553653 1.469963 7.726003
-2.305381 -0.108199 7.726003
-1.605001 -1.495908 7.726003
0.807416 -2.291068 7.726003
2.836266 -0.164255 7.726003
-1.624281 -1.487193 7.726003
2.775552 0.925224 7.726003
0.857896 -2.265392 7.726003
2.525989 1.547784 7.726003
-2.315899 -0.086434 7.726003
0.885236 -2.263094 7.726003
2.840931 -0.086434 7.726003
-2.307565 -0.008615 7.726003
-1.682821 -1.421635 7.726003
0.885236 2.771913 7.726003
2.464105 -1.331553 7.726003
0.963056 -2.280588 7.726003
0.340496 2.810319 7.726003
-1.697495 -1.409373 7.726003
2.848394 -0.008615 7.726003
0.418316 2.832232 7.726003
0.824480 2.792902 7.726003
-1.760642 -1.300642 7.726003
-0.904622 2.458237 7.726003
2.464927 -1.253734 7.726003
0.893594 -2.265392 7.726003
0.496136 2.841255 7.726003
-1.802296 -1.253734 7.726003
-2.366371 0.069205 7.726003
-0.875660 2.481623 7.726003
1.040875 -2.265620 7.726003
2.860176 0.069205 7.726003
-2.325925 0.147025 7.726003
-1.739171 -1.331553 7.726003
0.573956 2.850083 7.726003
2.495665 -1.175914 7.726003
-0.826802 2.515254 7.726003
1.041244 -2.265392 7.726003
-2.370125 0.224845 7.726003
2.519454 -1.143296 7.726003
2.890717 0.147025 7.726003
1.118695 -2.242140 7.726003
-2.340284 0.302665 7.726003
2.564352 -1.098094 7.726003
0.651775 2.844228 7.726003
-0.748982 2.543562 7.726003
1.196515 -2.258862 7.726003
-1.916281 -1.100649 7.726003
0.729596 2.832497 7.726003
-0.707188 2.559443 7.726003
2.566868 -1.020274 7.726003
-1.918550 -1.098094 7.726003
0.963056 2.741838 7.726003
-0.671163 2.574603 7.726003
1.237916 -2.187572 7.726003
2.597274 -0.960403 7.726003
0.807416 2.799931 7.726003
2.889709 0.224845 7.726003
-1.966795 -1.020274 7.726003
-0.593343 2.600599 7.726003
2.611953 -0.942454 7.726003
1.040875 2.729356 7.726003
-0.523465 2.637262 7.726003
-1.994101 -0.965531 7.726003
1.274335 -2.171639 7.726003
-2.030748 -0.942454 7.726003
1.118695 2.729273 7.726003
-0.515523 2.639258 7.726003
1.352155 -2.121119 7.726003
2.089764 2.092523 7.726003
-1.838461 -1.190933 7.726003
-0.437703 2.639153 7.726003
1.429975 -2.114603 7.726003
-1.859908 -1.175914 7.726003
2.070246 2.170342 7.726003
2.632779 -0.864634 7.726003
-2.320565 0.380485 7.726003
1.470540 -2.109753 7.726003
-0.359883 2.664759 7.726003
1.507795 -2.080949 7.726003
2.441634 1.726166 7.726003
2.675094 -0.836298 7.726003
-2.305381 0.417560 7.726003
-1.527182 -1.557102 7.726003
2.405164 1.781243 7.726003
1.585615 -2.047889 7.726003
2.363814 1.824203 7.726003
-2.294209 0.458304 7.726003
2.327330 1.859063 7.726003
1.625289 -2.031933 7.726003
-0.282063 2.700942 7.726003
-0.904622 -2.053544 7.726003
2.696448 -0.786814 7.726003
2.519454 1.589988 7.726003
1.663435 -2.009415 7.726003
-0.935542 -2.031933 7.726003
-2.297369 0.536124 7.726003
-0.252659 2.715082 7.726003
1.727483 -1.954113 7.726003
-0.826802 -2.054951 7.726003
2.510878 1.625604 7.726003
2.719019 -0.708994 7.726003
-2.247306 0.613944 7.726003
1.741255 -1.944468 7.726003
-0.748982 -2.105697 7.726003
-0.204244 2.736186 7.726003
2.738395 -0.631174 7.726003
2.457079 1.703424 7.726003
-0.671163 -2.095444 7.726003
1.819075 -1.907132 7.726003
-2.234925 0.691764 7.726003
-0.126423 2.755322 7.726003
2.285994 1.884390 7.726003
-2.248150 0.769585 7.726003
2.752156 -0.553354 7.726003
2.218100 1.936883 7.726003
-0.048603 2.732026 7.726003
-1.760642 1.591423 7.726003
-0.515523 -2.183532 7.726003
-2.227561 0.807987 7.726003
2.208174 1.945937 7.726003
-1.730225 1.625604 7.726003
2.137935 2.014703 7.726003
-0.582670 -2.109753 7.726003
0.029217 2.785452 7.726003
-1.709177 1.703424 7.726003
-0.593343 -2.103216 7.726003
0.107037 2.774692 7.726003
-1.682821 1.743380 7.726003
1.819075 2.323644 7.726003
-2.175111 0.847404 7.726003
1.810439 2.325982 7.726003
-1.650246 1.781243 7.726003
0.184856 2.781901 7.726003
1.585615 2.472754 7.726003
-2.149741 0.864889 7.726003
-1.605001 1.841693 7.726003
1.542758 2.481623 7.726003
1.663435 2.456120 7.726003
-2.106518 0.925224 7.726003
-1.598631 1.859063 7.726003
1.741255 2.359524 7.726003
1.692821 2.403803 7.726003
-1.561143 1.936883 7.726003
-2.082973 1.003044 7.726003
-1.527182 1.979126 7.726003
1.896894 2.242053 7.726003
1.891905 2.248162 7.726003
-1.496556 2.014703 7.726003
1.974714 2.211023 7.726003
-1.449362 2.084964 7.726003
2.052534 2.205694 7.726003
-1.445270 2.092523 7.726003
-1.412363 2.170342 7.726003
-1.371542 2.217952 7.726003
-1.330434 2.248162 7.726003
-0.359883 -2.185119 7.726003
-0.204244 -2.186924 7.726003
-2.071921 -0.873316 7.726003
-2.073595 -0.864634 7.726003
-2.091580 -0.786814 7.726003
-2.134898 -0.708994 7.726003
-2.118341 -0.631174 7.726003
-2.139798 -0.553354 7.726003
-2.149741 -0.537519 7.726003
-2.184318 -0.475534 7.726003
0.340496 -2.284656 7.726003
0.418316 -2.280339 7.726003
0.496136 -2.292465 7.726003
2.752913 -0.553354 7.719284
-0.515523 -2.187572 7.716774
0.807416 -2.265392 7.664170
-0.359883 -2.187572 7.720985
2.830733 -0.319895 7.691649
0.885236 -2.265392 7.713169
-0.204244 -2.187572 7.674152
2.830733 -0.242075 7.711060
-2.071921 1.080864 7.713293
-0.126423 -2.265392 7.650201
2.441634 -1.331553 7.650748
-0.048603 -2.265392 7.695445
-2.071921 -0.864634 7.723719
1.274335 -2.187572 7.651247
0.029217 2.792902 7.662729
1.429975 2.637262 7.701993
0.029217 -2.265392 7.695281
-2.149741 -0.708994 7.715873
2.597274 -1.020274 7.660102
-2.305381 0.302665 7.660448
1.196515 2.715082 7.707383
-2.149741 -0.631174 7.651704
-2.305381 0.380485 7.662427
1.429975 -2.109753 7.648441
1.274335 2.715082 7.703117
-0.671163 2.559443 7.701092
-2.149741 -0.553354 7.653876
-2.305381 0.536124 7.725556
-0.593343 2.559443 7.666685
-2.305381 -0.086434 7.708648
-0.515523 2.637262 7.722130
2.130354 2.014703 7.718572
-0.904622 -2.031933 7.652155
-0.437703 2.637262 7.718300
2.052534 2.092523 7.650713
-2.305381 -0.008615 7.715647
-1.449362 2.092523 7.716992
2.052534 2.170342 7.703719
1.118695 2.715082 7.705669
-0.282063 2.715082 7.672520
-0.593343 -2.109753 7.703296
2.208174 1.936883 7.713275
1.819075 2.325982 7.719469
1.896894 2.248162 7.706778
1.878986 -1.876293 7.803823
-1.138083 -1.916160 7.803823
-0.671163 -2.171693 7.803823
0.639845 -2.343212 7.803823
2.752913 -0.598836 7.803823
-0.593343 -2.127222 7.803823
1.896894 -1.861141 7.803823
2.766401 -0.553354 7.803823
-0.359883 -2.203267 7.803823
0.651775 -2.338805 7.803823
-0.515523 -2.163804 7.803823
1.933994 -1.798473 7.803823
2.783369 -0.475534 7.803823
-0.436654 -2.187572 7.803823
-1.201466 -1.876293 7.803823
0.729596 -2.285601 7.803823
-1.449362 2.069581 7.803823
-0.437703 -2.187360 7.803823
-2.227561 0.776517 7.803823
2.802991 -0.397715 7.803823
1.974714 -1.784511 7.803823
-1.437491 2.092523 7.803823
-2.158561 0.847404 7.803823
-0.282063 -2.234213 7.803823
-1.411626 2.170342 7.803823
-0.204244 2.749297 7.803823
2.052534 -1.734758 7.803823
2.788101 -0.319895 7.803823
-2.149741 0.879344 7.803823
-0.204244 -2.228641 7.803823
0.885236 2.775767 7.803823
2.066760 -1.720653 7.803823
-0.982443 -1.995034 7.803823
-2.139891 0.925224 7.803823
0.963056 2.732902 7.803823
-1.371542 2.202856 7.803823
-2.071921 -0.882838 7.803823
0.807416 -2.303332 7.803823
2.803286 -0.242075 7.803823
-1.042852 -1.954113 7.803823
1.040875 2.716990 7.803823
2.130354 -1.672666 7.803823
-0.147481 2.792902 7.803823
-1.060263 -1.933704 7.803823
-2.117642 1.003044 7.803823
1.196515 2.709728 7.803823
-0.048603 2.782346 7.803823
-2.084614 -0.864634 7.803823
1.182117 2.715082 7.803823
-2.098083 1.080864 7.803823
-0.121546 2.792902 7.803823
0.885236 -2.294453 7.803823
1.118695 2.738592 7.803823
-2.071921 1.123506 7.803823
2.154201 -1.642833 7.803823
-0.048603 -2.296682 7.803823
0.029217 2.774961 7.803823
-1.293722 -1.800040 7.803823
2.814831 -0.164255 7.803823
-2.098223 -0.786814 7.803823
-0.096990 -2.265392 7.803823
1.352155 2.635430 7.803823
0.107037 2.773512 7.803823
-2.054452 1.158684 7.803823
2.830733 -0.134778 7.803823
0.963056 -2.277719 7.803823
-0.126423 -2.246770 7.803823
1.346854 2.637262 7.803823
-2.031833 1.236504 7.803823
-1.294158 -1.798473 7.803823
1.040875 -2.269291 7.803823
2.847778 -0.086434 7.803823
2.207973 -1.565013 7.803823
-1.365726 -1.720653 7.803823
-1.994101 1.287113 7.803823
0.029217 -2.291455 7.803823
-1.994101 -0.910625 7.803823
1.118695 -2.267344 7.803823
-1.449362 -1.575044 7.803823
2.863083 -0.008615 7.803823
-1.981157 1.314323 7.803823
0.107037 -2.278735 7.803823
-1.981650 -0.942454 7.803823
-1.521251 -1.565013 7.803823
1.124069 -2.265392 7.803823
0.184856 2.785645 7.803823
2.854861 0.069205 7.803823
-1.956399 1.392143 7.803823
-2.107008 -0.708994 7.803823
1.196515 -2.221686 7.803823
0.210174 2.792902 7.803823
2.208174 -1.564733 7.803823
-1.367620 -1.642833 7.803823
-1.916281 1.448192 7.803823
0.184856 -2.282487 7.803823
1.274335 -2.188846 7.803823
-1.371542 -1.635548 7.803823
-2.087703 -0.631174 7.803823
0.260565 -2.265392 7.803823
-1.868672 1.469963 7.803823
1.507795 2.525916 7.803823
2.856316 0.147025 7.803823
2.285994 -1.501900 7.803823
1.276741 -2.187572 7.803823
1.585615 2.493154 7.803823
-2.149741 -0.586639 7.803823
0.262676 -2.259702 7.803823
-1.215902 -1.864544 7.803823
2.301601 -1.487193 7.803823
-2.165019 -0.553354 7.803823
-1.838461 1.488084 7.803823
2.876998 0.224845 7.803823
2.359537 -1.409373 7.803823
1.608685 2.481623 7.803823
-2.200201 -0.475534 7.803823
-1.789224 1.547784 7.803823
-1.605001 -1.491726 7.803823
1.352155 -2.140853 7.803823
2.889823 0.302665 7.803823
-1.608822 -1.487193 7.803823
-2.227561 -0.411200 7.803823
2.363814 -1.405865 7.803823
1.429975 -2.124216 7.803823
-2.227561 -0.378647 7.803823
2.430499 -1.331553 7.803823
1.451389 -2.109753 7.803823
2.441634 -1.283288 7.803823
-2.320335 0.302665 7.803823
1.507795 -2.066559 7.803823
-2.216080 -0.319895 7.803823
-1.760642 1.580879 7.803823
2.459491 -1.253734 7.803823
-2.305381 0.349668 7.803823
2.905940 0.380485 7.803823
-1.646414 -1.409373 7.803823
-2.271503 0.380485 7.803823
-2.227561 -0.300801 7.803823
2.880618 0.458304 7.803823
-1.760642 -1.339048 7.803823
-2.229600 -0.397715 7.803823
-2.280588 0.458304 7.803823
-1.729959 1.625604 7.803823
1.585615 -2.034010 7.803823
-1.765813 -1.331553 7.803823
2.855639 0.536124 7.803823
-1.712087 1.703424 7.803823
-2.271933 0.536124 7.803823
1.621742 -2.031933 7.803823
-1.772455 -1.253734 7.803823
0.573956 -2.346855 7.803823
2.851342 0.613944 7.803823
-2.259361 -0.242075 7.803823
-2.305381 0.548741 7.803823
-1.712078 1.781243 7.803823
1.663435 -2.028855 7.803823
-2.307984 0.613944 7.803823
0.554583 -2.343212 7.803823
-1.312926 2.248162 7.803823
0.340496 -2.293480 7.803823
-1.682821 -1.353350 7.803823
-2.286387 -0.164255 7.803823
1.436939 2.559443 7.803823
-1.682821 1.846058 7.803823
2.821773 0.769585 7.803823
1.741255 -1.970336 7.803823
2.810128 0.847404 7.803823
2.789771 0.925224 7.803823
-2.305381 -0.144556 7.803823
-1.916281 -1.074117 7.803823
-2.349164 -0.086434 7.803823
-1.293722 2.255984 7.803823
0.276593 -2.265392 7.803823
-2.335875 -0.008615 7.803823
2.753726 1.003044 7.803823
1.761566 -1.954113 7.803823
-1.965340 -1.020274 7.803823
-1.605001 1.853895 7.803823
2.752913 1.004560 7.803823
0.418316 -2.284384 7.803823
1.819075 -1.901708 7.803823
-2.342343 0.069205 7.803823
-2.305381 0.620382 7.803823
-1.815218 -1.175914 7.803823
-1.215902 2.271433 7.803823
-2.355224 0.147025 7.803823
-1.593050 1.859063 7.803823
0.496136 -2.320510 7.803823
-1.838461 -1.168884 7.803823
-1.138083 2.291635 7.803823
-1.887187 -1.098094 7.803823
-1.539113 1.936883 7.803823
0.262676 2.812187 7.803823
-1.074789 2.325982 7.803823
-1.527182 1.971535 7.803823
-2.263590 0.691764 7.803823
-1.060263 2.343186 7.803823
-2.346972 0.224845 7.803823
-1.505154 2.014703 7.803823
-1.527182 -1.538273 7.803823
-2.234183 0.769585 7.803823
-0.982443 2.380241 7.803823
0.340496 2.805462 7.803823
2.493680 -1.175914 7.803823
0.418316 2.807808 7.803823
-0.944272 2.403803 7.803823
-0.904622 -2.049728 7.803823
-0.904622 2.456294 7.803823
-0.889359 2.481623 7.803823
2.519454 -1.136204 7.803823
-0.931883 -2.031933 7.803823
0.496136 2.818535 7.803823
-0.126423 2.804672 7.803823
-0.826802 2.535701 7.803823
2.548880 -1.098094 7.803823
-0.826802 -2.091460 7.803823
-0.748982 2.558970 7.803823
0.573956 2.870532 7.803823
-0.747666 2.559443 7.803823
2.565875 -1.020274 7.803823
-0.671163 2.634555 7.803823
-0.748982 -2.146939 7.803823
2.597274 -0.957558 7.803823
1.429975 2.561594 7.803823
0.574158 2.870722 7.803823
-0.664483 2.637262 7.803823
-0.807673 -2.109753 7.803823
2.619974 -0.942454 7.803823
-0.359883 2.634642 7.803823
0.729596 2.853630 7.803823
1.274335 2.664036 7.803823
-0.365657 2.637262 7.803823
0.715616 2.870722 7.803823
2.669291 -0.864634 7.803823
-0.593343 2.645853 7.803823
-0.515523 2.642850 7.803823
0.651775 2.887900 7.803823
2.130354 2.066978 7.803823
2.730415 1.080864 7.803823
2.122205 2.092523 7.803823
2.675094 -0.855586 7.803823
2.083053 2.170342 7.803823
-0.437703 2.650267 7.803823
0.807416 2.803060 7.803823
2.703048 -0.786814 7.803823
2.719943 1.158684 7.803823
0.840328 2.792902 7.803823
2.441634 1.743375 7.803823
-0.350424 2.637262 7.803823
2.725330 -0.708994 7.803823
2.416169 1.781243 7.803823
2.681177 1.236504 7.803823
2.363814 1.825062 7.803823
-0.282063 2.685205 7.803823
2.746468 -0.631174 7.803823
2.329391 1.859063 7.803823
-0.249140 2.715082 7.803823
2.514470 1.547784 7.803823
2.675094 1.245378 7.803823
2.476388 1.625604 7.803823
2.626150 1.314323 7.803823
2.452678 1.703424 7.803823
2.606813 1.392143 7.803823
2.597274 1.413487 7.803823
2.285994 1.889948 7.803823
2.554435 1.469963 7.803823
2.243675 1.936883 7.803823
2.519454 1.538374 7.803823
2.208174 1.967208 7.803823
2.147473 2.014703 7.803823
1.819075 2.313480 7.803823
1.802337 2.325982 7.803823
1.663435 2.434150 7.803823
1.741255 2.399393 7.803823
1.734801 2.403803 7.803823
1.974714 2.216516 7.803823
1.915688 2.248162 7.803823
1.896894 2.258675 7.803823
2.052534 2.199051 7.803823
-1.138083 -1.876293 7.728396
-0.126423 2.792902 7.780723
-0.671163 -2.109753 7.758429
-0.437703 -2.187572 7.803522
2.752913 -0.553354 7.731315
1.974714 -1.798473 7.736240
-0.593343 -2.109753 7.792670
0.573956 -2.343212 7.774003
-1.293722 -1.798473 7.800099
-0.359883 -2.187572 7.731319
2.130354 -1.642833 7.744204
0.885236 -2.265392 7.732918
2.830733 -0.164255 7.735418
-0.204244 -2.187572 7.728443
-1.371542 -1.642833 7.784618
-0.126423 -2.265392 7.780471
1.118695 -2.265392 7.799186
2.285994 -1.487193 7.764491
2.752913 1.003044 7.802254
1.196515 2.715082 7.748780
-1.682821 1.781243 7.741850
-1.994101 -0.942454 7.754318
-0.593343 2.637262 7.780290
2.675094 1.236504 7.789344
2.363814 -1.409373 7.786672
-1.682821 -1.409373 7.739786
-2.305381 0.380485 7.781575
1.429975 2.637262 7.728769
-0.359883 2.637262 7.795298
2.597274 1.392143 7.755760
0.262676 -2.265392 7.799175
-2.149741 -0.553354 7.766112
1.274335 -2.187572 7.800888
2.441634 -1.331553 7.785508
1.274335 2.715082 7.760565
-1.760642 -1.331553 7.797596
-2.305381 0.613944 7.780387
2.519454 1.547784 7.745478
-2.227561 -0.319895 7.801139
1.585615 2.481623 7.766045
-1.916281 -1.098094 7.731046
-1.838461 -1.175914 7.797688
1.741255 -1.954113 7.761253
-0.748982 -2.109753 7.729600
1.896894 2.248162 7.726382
0.651775 2.870722 7.758008
0.641725 -2.343212 7.881642
1.871121 -1.876293 7.881642
-1.138083 -1.934172 7.881642
0.651775 -2.332139 7.881642
2.752913 -0.638680 7.881642
-1.215711 -1.876293 7.881642
1.896894 -1.853186 7.881642
0.729596 -2.297978 7.881642
-0.282063 -2.219335 7.881642
2.755332 -0.631174 7.881642
-1.060263 -1.968805 7.881642
-0.356204 -2.187572 7.881642
0.807416 -2.311482 7.881642
-1.104390 -1.954113 7.881642
-1.449362 2.070941 7.881642
-2.211637 0.769585 7.881642
0.885236 -2.314812 7.881642
-0.204244 -2.232259 7.881642
-1.433072 2.092523 7.881642
-0.204244 2.743907 7.881642
0.885236 2.785275 7.881642
-0.982443 -1.996783 7.881642
-0.126423 2.774489 7.881642
0.963056 -2.282985 7.881642
0.963056 2.768027 7.881642
1.507795 2.547636 7.881642
-0.126423 -2.235836 7.881642
-0.048603 2.764422 7.881642
1.031739 -2.265392 7.881642
-1.293722 -1.722346 7.881642
-0.048603 -2.262776 7.881642
1.040875 -2.264159 7.881642
1.040875 2.751058 7.881642
0.029217 2.791569 7.881642
1.945518 -1.798473 7.881642
1.585615 2.506727 7.881642
-1.293902 -1.720653 7.881642
0.107037 2.781727 7.881642
2.752913 -0.609026 7.881642
0.029217 -2.281624 7.881642
1.118695 2.728230 7.881642
1.118695 -2.266927 7.881642
0.174466 2.792902 7.881642
-0.035715 -2.265392 7.881642
2.752913 -0.539286 7.881642
1.087473 -2.265392 7.881642
1.196515 2.722195 7.881642
1.617997 2.481623 7.881642
-1.527182 -1.570435 7.881642
0.107037 -2.335334 7.881642
1.974714 -1.775647 7.881642
-1.564340 -1.565013 7.881642
-1.371542 2.153566 7.881642
1.122283 -2.265392 7.881642
1.352155 2.599259 7.881642
0.184856 2.794909 7.881642
-2.173945 0.847404 7.881642
-1.449362 -1.589528 7.881642
2.052534 -1.794173 7.881642
1.323156 2.637262 7.881642
1.196515 -2.215558 7.881642
2.859374 0.302665 7.881642
-1.350742 2.170342 7.881642
0.262676 2.821289 7.881642
2.885173 0.380485 7.881642
1.486136 2.559443 7.881642
1.274335 -2.190457 7.881642
-0.671163 -2.166485 7.881642
2.858589 0.458304 7.881642
2.110599 -1.720653 7.881642
-1.293722 2.212817 7.881642
-0.593343 -2.154886 7.881642
1.280714 -2.187572 7.881642
-2.149741 0.899665 7.881642
2.835026 0.536124 7.881642
2.752913 1.020514 7.881642
-0.515523 -2.144058 7.881642
-1.362852 -1.642833 7.881642
-1.215902 2.240830 7.881642
1.429975 2.578815 7.881642
0.184856 -2.324639 7.881642
-2.140056 0.925224 7.881642
2.718053 1.080864 7.881642
2.831543 0.613944 7.881642
-1.371542 -1.635847 7.881642
-0.437703 -2.150622 7.881642
1.352155 -2.147821 7.881642
1.274335 2.657669 7.881642
0.262676 -2.318331 7.881642
2.702313 1.158684 7.881642
-0.359883 -2.185369 7.881642
-1.215902 -1.876116 7.881642
1.207447 2.715082 7.881642
1.429975 -2.114955 7.881642
2.827592 0.769585 7.881642
2.692975 1.236504 7.881642
-1.286029 -1.798473 7.881642
1.434566 -2.109753 7.881642
2.828422 0.847404 7.881642
2.130354 -1.699414 7.881642
2.675094 1.267735 7.881642
-2.122419 1.003044 7.881642
2.786937 0.925224 7.881642
2.636950 1.314323 7.881642
-2.227561 -0.416357 7.881642
-1.605001 -1.469442 7.881642
2.182726 -1.642833 7.881642
1.507795 -2.077165 7.881642
-2.149741 -0.909188 7.881642
-2.232209 -0.397715 7.881642
2.208174 -1.588979 7.881642
2.130354 2.115419 7.881642
2.759781 1.003044 7.881642
2.619436 1.392143 7.881642
2.218998 -1.565013 7.881642
1.585615 -2.075465 7.881642
-2.285361 -0.319895 7.881642
-1.192697 2.248162 7.881642
1.663435 -2.058091 7.881642
2.285994 -1.509294 7.881642
2.597274 1.435835 7.881642
0.340496 2.823218 7.881642
-1.138083 2.268392 7.881642
1.698466 -2.031933 7.881642
2.568680 1.469963 7.881642
2.313996 -1.487193 7.881642
0.418316 2.808640 7.881642
2.054427 2.170342 7.881642
-2.290126 -0.242075 7.881642
1.741255 -1.966409 7.881642
-2.115169 1.080864 7.881642
2.526746 1.547784 7.881642
0.496136 2.829108 7.881642
-2.305381 -0.202834 7.881642
2.357859 -1.409373 7.881642
1.756660 -1.954113 7.881642
-2.325655 -0.164255 7.881642
2.441634 1.659268 7.881642
0.573956 2.847391 7.881642
2.353182 -1.331553 7.881642
2.423232 1.703424 7.881642
-2.319158 -0.086434 7.881642
0.872732 2.792902 7.881642
0.651775 2.863518 7.881642
2.379361 1.781243 7.881642
0.711896 2.870722 7.881642
2.363814 -1.307291 7.881642
2.363814 1.808310 7.881642
1.819075 -1.919594 7.881642
