-1.008229 0.858705 5.065726
-1.076893 0.917734 5.766801
-0.915605 0.780672 6.407946
-0.550492 0.469578 7.061026
-0.807307 0.689141 7.880348
-1.316064 1.124050 8.396512
-1.320874 1.128625 8.905917
-1.245613 1.065149 9.912965
-1.015346 0.868602 10.535693
-0.948373 0.968913 1.150978
-1.054942 1.078361 1.769712
-0.962980 0.984618 2.090597
-0.915642 0.936819 2.860162
-0.904639 0.926219 3.711831
-0.925093 0.947678 4.362493
-0.964951 0.988852 4.773742
-1.040336 1.066863 5.615952
-0.907433 0.931029 6.249807
-0.662494 0.680117 7.041657
-0.833678 0.856256 7.573722
-1.225364 1.259521 8.399071
-1.259999 1.295631 8.877222
-1.188988 1.223213 9.526356
-1.014539 1.044272 10.251968
-1.070314 1.310679 1.431598
-0.921047 1.128587 2.157120
-0.842249 1.032623 2.831156
-0.803743 0.985977 3.505772
-0.813273 0.998152 4.075998
-0.896282 1.100780 4.859373
-0.942428 1.158223 5.633756
-0.749522 0.921430 6.057293
-0.576199 0.708869 6.992496
-0.715306 0.880508 7.644536
-1.030399 1.269100 8.223061
-1.104204 1.360537 8.674276
-1.088016 1.341494 9.510473
-1.016578 1.254207 10.338790
-0.377864 0.561029 1.028682
-0.521464 0.774775 1.791800
-0.753195 1.119733 2.415770
-0.690992 1.027703 2.902559
-0.689333 1.025914 3.636709
-0.762629 1.135703 4.311227
-0.825474 1.230357 5.260484
-0.692071 1.031977 5.797176
-0.597757 0.891888 6.526782
-0.579976 0.865797 7.116365
-0.759287 1.134170 7.751411
-0.989882 1.479694 8.487338
-1.009080 1.509194 9.093360
-0.945877 1.415454 9.777703
-0.756548 1.132597 10.369854
-0.489272 0.909350 1.207521
-0.624617 1.161793 1.959559
-0.678433 1.262179 2.176604
-0.621983 1.158322 3.184698
-0.642483 1.197282 3.831382
-0.683959 1.275231 4.337104
-0.703457 1.312659 5.149701
-0.686320 1.281554 5.842693
-0.588533 1.099487 6.371492
-0.471836 0.882005 7.040315
-0.601818 1.125646 7.592765
-0.818329 1.531849 8.319578
-0.878533 1.645670 8.993872
-0.867650 1.626407 9.725601
-0.742842 1.393433 10.555706
-0.546524 1.288340 0.952840
-0.636987 1.503015 1.745214
-0.620777 1.465723 2.299785
-0.550338 1.300270 2.878255
-0.501214 1.184919 3.404595
-0.646889 1.530889 4.245528
-0.739256 1.751159 5.030742
-0.680316 1.612665 5.653070
-0.558415 1.324403 6.168266
-0.402199 0.954548 6.844299
-0.435274 1.033799 7.476928
-0.582494 1.384567 8.105276
-0.682731 1.624045 8.709596
-0.733364 1.746355 9.633655
-0.638031 1.520015 10.113768
-0.445611 1.378349 1.576341
-0.532118 1.647313 2.139007
-0.456424 1.413804 2.557978
-0.385809 1.196415 3.362344
-0.647957 2.013260 4.604458
-0.590333 1.836552 5.513312
-0.502664 1.565188 6.184364
-0.353575 1.101587 6.688065
-0.262541 0.818626 7.336182
-0.374816 1.169970 8.039961
-0.542869 1.696369 8.685456
-0.589818 1.845290 9.515639
-0.537071 1.681405 10.067785
-0.376067 1.718954 2.190338
-0.360492 1.650096 2.889555
-0.410752 1.882644 3.515885
-0.493584 2.265959 4.256727
-0.494367 2.272236 4.831270
-0.421624 1.939904 5.395475
-0.364986 1.681822 6.188021
-0.274592 1.266472 6.743842
-0.203087 0.937604 7.323700
-0.279242 1.291341 8.102724
-0.379430 1.757258 8.747203
-0.390719 1.811269 9.225493
-0.358656 1.664799 9.951458
-0.182411 1.390272 1.042110
-0.183539 1.402738 1.882217
-0.219298 1.678503 2.310431
-0.206301 1.582419 2.969423
-0.255720 1.967115 3.793892
-0.315965 2.435442 4.335203
-0.155927 1.214255 7.699430
-0.198583 1.550001 8.345338
-0.232899 1.821400 8.888220
-0.229598 1.799755 9.628688
-0.211666 1.662795 10.367911
-0.052236 1.465680 1.423699
-0.056210 1.584402 1.801158
-0.076378 2.206824 3.776232
-0.085554 2.493499 4.435380
-0.081716 2.397496 4.979609
-0.044015 1.336183 7.956638
-0.051835 1.585968 8.538085
-0.059464 1.839405 9.362600
-0.057381 1.783955 9.791350
-0.052643 1.654185 10.707562
0.115304 1.936925 1.878407
0.133674 2.213477 3.854583
0.154664 2.543144 4.797485
0.142402 2.334827 5.238051
0.079483 1.281514 7.950509
0.099364 1.591915 8.859209
0.115732 1.846976 9.397823
0.124981 1.985067 10.113641
0.296383 1.952546 2.034843
0.283417 1.862905 2.827841
0.246515 1.616851 3.610488
0.404324 2.641970 4.787296
0.341259 2.227799 5.180699
0.315585 2.055264 6.065258
0.261984 1.704036 6.591460
0.209906 1.361911 7.588118
0.197813 1.281742 8.108717
0.241182 1.559622 8.797075
0.280033 1.807598 9.413620
0.308366 1.985818 10.261417
0.442302 1.802974 1.159842
0.460765 1.876243 1.729129
0.444854 1.809736 2.245198
0.578914 2.345474 4.411194
0.638688 2.584455 5.043880
0.557729 2.255427 5.445820
0.490281 1.980420 6.127078
0.393593 1.588241 6.784855
0.287788 1.159901 7.573722
0.296799 1.194811 8.258376
0.413697 1.662929 9.007621
0.471290 1.891901 9.731878
0.441746 1.771844 10.261812
0.645487 1.871834 2.113771
0.596041 1.726963 2.744110
0.571010 1.653283 3.258489
0.910523 2.631233 4.516933
0.908523 2.622694 5.271623
0.850169 2.451994 5.967657
0.559196 1.606841 8.963404
0.652837 1.874225 9.587492
0.649176 1.862605 10.061028
0.839444 1.831914 2.261067
0.797085 1.738311 2.860809
0.920111 2.005011 3.538293
1.107396 2.411392 4.115893
1.144362 2.491068 4.392114
1.132362 2.462735 5.185667
1.091865 2.372391 6.053647
0.969309 2.104635 6.742389
0.748318 1.623914 7.363121
0.592094 1.284206 7.956804
0.702774 1.522686 8.874920
0.811837 1.758013 9.334755
0.830963 1.798001 10.087338
0.783208 1.371921 1.116449
0.893448 1.563556 2.054712
0.951896 1.664876 2.630229
1.387321 2.420340 5.049747
1.332334 2.323208 5.588400
1.233838 2.149537 6.536988
1.106943 1.924808 8.586194
0.919058 1.597362 9.190272
0.963075 1.367880 1.556651
1.118486 1.588078 1.913526
1.056782 1.499637 2.530641
1.372506 1.944059 4.513362
1.584188 2.241985 5.391230
1.533140 2.168801 5.885050
1.104349 1.558886 8.490779
1.156112 1.630582 9.459332
0.940400 1.115047 1.227674
1.190088 1.410185 1.963490
1.228240 1.454768 2.454470
1.241769 1.469777 3.249755
1.193312 1.411612 3.925959
1.818571 2.148615 5.203554
1.760981 2.079440 5.845571
1.564809 1.847240 6.251833
1.290064 1.522171 6.911388
1.208312 1.424803 7.706734
1.287539 1.517202 8.497972
1.236892 1.456985 8.971660
1.271405 1.496446 9.948335
1.058312 1.245292 10.400853
1.061884 1.032871 1.164402
1.347927 1.310018 2.111534
1.373517 1.334333 2.595083
1.353821 1.314602 3.129165
1.489132 1.444988 3.925031
1.736855 1.684310 4.613660
1.868400 1.811011 5.141761
1.907715 1.847929 5.885050
1.687493 1.634152 6.275007
1.410896 1.365564 7.000883
1.388998 1.343313 7.970461
1.394341 1.348113 8.304960
1.456280 1.406869 9.280644
1.112952 0.899614 1.157265
1.404259 1.134528 1.700566
1.498675 1.210041 2.417438
1.475595 1.190844 2.959744
1.637544 1.320611 3.744305
1.601654 1.290968 4.371940
1.716811 1.382781 5.188719
1.911118 1.538663 5.610476
1.787214 1.438305 6.123622
1.631236 1.311833 7.009261
1.573987 1.264971 7.800370
1.558615 1.252064 8.336298
1.535204 1.232694 8.898924
1.585411 1.271934 9.917424
1.343186 1.077177 10.509443
1.561499 1.044042 1.070980
1.750884 1.169969 1.702277
1.588489 1.060647 2.533571
1.568219 1.046555 3.111576
1.609002 1.073086 3.799751
1.741390 1.160666 4.447222
1.764043 1.175369 4.808922
1.783621 1.187576 5.575563
1.730128 1.151327 6.192343
1.649218 1.096981 6.722097
1.712255 1.138080 7.523303
1.746785 1.160107 8.413613
1.709532 1.134695 9.102439
1.579130 1.047857 9.461196
1.552414 1.029335 10.376291
1.498459 0.815959 1.156384
1.633312 0.888823 1.777162
1.679847 0.913727 2.224153
1.656909 0.900682 2.845431
1.693219 0.919582 3.738273
1.743844 0.946624 4.203396
1.787693 0.969893 4.741287
1.830590 0.992530 5.370183
1.785606 0.967337 6.210582
1.801057 0.975134 6.799396
1.886715 1.020820 7.465579
1.869118 1.010459 8.322372
1.840544 0.994400 8.968424
1.745169 0.942505 9.406736
1.683630 0.908464 10.369774
1.444961 0.623852 0.929989
1.582695 0.682799 1.571934
1.777291 0.766177 2.196089
1.712762 0.737760 2.891633
1.726059 0.742923 3.538905
1.779316 0.765399 4.031082
1.895300 0.814417 4.933797
1.896000 0.814412 5.256514
1.855395 0.796156 6.149284
1.865391 0.799927 6.711865
2.003587 0.858383 7.503478
1.877892 0.804205 7.896676
1.848141 0.790786 8.670933
1.893430 0.809342 9.574808
1.787557 0.763512 10.301797
1.524022 0.485162 0.947021
1.635605 0.520323 1.412814
1.858937 0.590488 2.406790
1.757982 0.558222 2.653944
1.768905 0.561138 3.318910
1.870122 0.592445 4.224186
1.935324 0.612650 4.715022
1.987482 0.628401 5.531711
1.956058 0.617765 6.315611
1.997851 0.630425 6.899103
2.059428 0.649359 7.416304
2.023639 0.637452 8.109151
1.976883 0.622124 8.804404
1.885760 0.593063 9.294527
1.729487 0.543384 10.052936
1.558784 0.344775 0.840541
1.847021 0.407641 1.898906
1.899659 0.418882 2.336567
1.840976 0.405533 2.836636
1.848394 0.406677 3.430682
1.889580 0.415079 4.209878
1.934483 0.424498 4.722287
1.951824 0.427530 5.618845
2.005600 0.438681 6.324360
2.100071 0.458896 6.796112
2.092705 0.456498 7.669028
2.050207 0.446667 8.319926
2.009059 0.437432 8.649156
1.960802 0.426250 9.485621
1.767051 0.383711 10.122090
1.493163 0.191560 1.136816
1.789656 0.228835 2.107617
1.799246 0.229687 2.585483
1.857593 0.236608 3.237177
1.835800 0.233275 3.943568
1.918849 0.243297 4.576683
1.982712 0.250884 5.168220
1.822372 0.229979 5.992620
1.825677 0.229884 6.659628
2.000433 0.251566 7.007771
1.966863 0.246741 7.753670
1.958443 0.245135 8.436592
2.019330 0.252020 9.315666
1.560276 0.057481 1.294989
1.716671 0.062775 1.926876
1.723638 0.062678 2.405892
1.829723 0.065815 3.321467
1.865863 0.066846 3.656053
1.825905 0.064883 4.349465
1.914306 0.067263 5.280775
1.765517 0.061607 5.887024
1.750640 0.060664 6.475554
1.951366 0.067110 7.067647
1.949694 0.066610 7.622078
1.994468 0.067482 8.421484
2.011100 0.067383 9.236851
1.991387 0.066225 9.872222
1.741728 0.057553 10.492899
1.246697 -0.067196 0.921330
1.657844 -0.089986 1.797014
1.672428 -0.091215 2.409593
1.696101 -0.092931 2.995721
1.778200 -0.098029 3.782038
1.763948 -0.097464 4.079304
1.822507 -0.101439 5.033496
1.727760 -0.096519 5.538222
1.911876 -0.107414 6.269473
2.075318 -0.116998 6.701634
2.096210 -0.119051 7.706895
2.092630 -0.119363 8.311189
2.023439 -0.115900 8.920623
2.020809 -0.116393 9.718929
1.908816 -0.110464 10.447758
1.636425 -0.250616 1.708445
1.652322 -0.253524 2.365329
1.699834 -0.261446 3.216795
1.745905 -0.269032 3.873228
1.794238 -0.276931 4.449774
1.759405 -0.271895 4.905032
1.592824 -0.246596 5.585890
1.739716 -0.270045 6.519705
1.908504 -0.296540 6.851657
1.986853 -0.309491 7.765332
1.969482 -0.307312 8.412719
1.947975 -0.304423 9.002115
1.976200 -0.309493 9.812314
1.819460 -0.285333 10.392750
1.494601 -0.373304 1.892816
1.606539 -0.401701 2.491168
1.661607 -0.415964 3.146067
1.739625 -0.436082 3.887898
1.751564 -0.439462 4.379252
1.726675 -0.433620 4.905032
1.491465 -0.374984 5.598585
1.637672 -0.412441 6.543360
1.874663 -0.472428 6.860439
1.903095 -0.480182 7.563685
1.908264 -0.482108 8.316261
1.871329 -0.473198 8.852906
1.939058 -0.491128 9.812314
1.711485 -0.433970 10.563544
1.450302 -0.501300 1.786139
1.549937 -0.536349 2.608299
1.573172 -0.544809 3.168606
1.585361 -0.549635 3.973638
1.615693 -0.560630 4.599501
1.644107 -0.570907 5.137252
1.492418 -0.518702 5.838452
1.465867 -0.509915 6.497000
1.758470 -0.612161 7.004544
1.900018 -0.662227 7.876371
1.837744 -0.640888 8.331297
1.795245 -0.626547 8.936504
1.750259 -0.611478 9.760821
1.549800 -0.541905 10.505994
1.463676 -0.667647 2.182723
1.455374 -0.664478 3.013790
1.447594 -0.661237 3.435799
1.468342 -0.671191 4.071455
1.516318 -0.693835 4.994614
1.335262 -0.611195 5.335741
1.486072 -0.680940 6.268826
1.699191 -0.779185 6.920070
1.693458 -0.776920 7.355277
1.667870 -0.765700 7.994486
1.705724 -0.783797 8.848566
1.687673 -0.776036 9.510490
1.611010 -0.741212 10.094264
1.342951 -0.761156 1.946147
1.422982 -0.807007 2.555125
1.416748 -0.803868 3.055811
1.438011 -0.816507 3.769978
1.490157 -0.846831 4.626027
1.381665 -0.785433 4.979392
1.262194 -0.718092 5.833780
1.379331 -0.785287 6.545377
1.649763 -0.939870 7.171674
1.671936 -0.952912 7.619056
1.602608 -0.914001 8.338743
1.568162 -0.894945 9.058099
1.559178 -0.890373 9.740020
1.435448 -0.820278 10.541433
1.325947 -0.927239 1.932809
1.248839 -0.873937 2.725035
1.288663 -0.902436 3.500590
1.315041 -0.921324 4.000495
1.305114 -0.915054 4.842537
1.197942 -0.840122 5.144686
1.265403 -0.887947 5.789548
1.434656 -1.007579 6.732819
1.439396 -1.011250 7.119376
1.469028 -1.032806 7.938772
1.485379 -1.044831 8.525072
1.543369 -1.086476 9.434816
1.231917 -1.045721 1.897337
1.161143 -0.986331 2.716141
1.194383 -1.015204 3.447306
1.229024 -1.045201 4.062586
1.200046 -1.021120 4.718261
1.140276 -0.970775 5.358415
1.231118 -1.048732 6.042534
1.341770 -1.143605 6.657120
1.420600 -1.211645 7.484084
1.338423 -1.141818 7.788758
1.418680 -1.211221 8.710021
1.413725 -1.207602 9.338036
1.315325 -1.124143 10.039867
0.892132 -0.903886 1.504111
1.080903 -1.095492 1.866149
1.072780 -1.088090 2.769499
1.080107 -1.095886 3.162968
1.114747 -1.131700 3.858519
1.105338 -1.122954 4.718261
1.077825 -1.095657 5.443284
1.093922 -1.112416 5.869518
1.236474 -1.258367 6.785796
1.262120 -1.284904 7.193390
1.268616 -1.292368 8.000493
1.284484 -1.309265 8.690111
1.272514 -1.297673 9.283307
1.186373 -1.210406 9.924920
0.984634 -1.205764 2.811809
0.969365 -1.187863 3.594857
0.935859 -1.147203 4.006847
0.940482 -1.153663 4.812745
0.858972 -1.054222 5.445294
0.916758 -1.125785 6.110161
1.115757 -1.371164 6.923387
1.144959 -1.407843 7.589199
1.128802 -1.388814 8.324785
1.138399 -1.401466 9.058099
1.086769 -1.338452 9.588246
1.016444 -1.252470 10.251424
0.784000 -1.178202 1.891140
0.795072 -1.195575 2.561883
0.809453 -1.217860 3.152391
0.802957 -1.208987 3.974241
0.784253 -1.181379 4.495408
0.805834 -1.214565 5.109043
0.829338 -1.250956 5.962933
0.910669 -1.374445 6.597547
0.972360 -1.468278 7.128205
0.950023 -1.435445 7.844659
0.967877 -1.463503 8.683107
0.949954 -1.437063 9.224488
0.653003 -1.206878 2.010190
0.691610 -1.278833 2.470814
0.695668 -1.287230 3.161302
0.710653 -1.315969 3.923704
0.689056 -1.276530 4.363846
0.698473 -1.294843 5.033931
0.634813 -1.177478 5.614552
0.727993 -1.351756 6.666883
0.839902 -1.560230 7.061062
0.829985 -1.543011 7.865274
0.798240 -1.484909 8.521561
0.787364 -1.465486 9.107423
0.780166 -1.452998 9.774418
0.712285 -1.327707 10.736730
0.558632 -1.299727 1.882217
0.573507 -1.335242 2.461902
0.596608 -1.390561 3.408090
0.584682 -1.363746 4.033562
0.553306 -1.291089 4.397242
0.564574 -1.318483 5.121823
0.538777 -1.259395 5.940728
0.588756 -1.377100 6.480077
0.688806 -1.612331 7.092886
0.693491 -1.625015 8.030161
0.651227 -1.526428 8.320520
0.659849 -1.547950 9.082972
0.452866 -1.402473 3.007506
0.451141 -1.398055 3.466740
0.439656 -1.363944 4.230108
0.432361 -1.342393 4.796911
0.446030 -1.386359 5.566726
0.480762 -1.495981 6.336322
0.532978 -1.660206 7.048725
0.515829 -1.607749 7.488233
0.509217 -1.589040 8.355941
0.497504 -1.553822 8.992246
0.479122 -1.497620 9.604160
0.459172 -1.436944 10.499971
0.307559 -1.349632 1.785414
0.329617 -1.448626 2.557978
0.335115 -1.474493 3.147590
0.324716 -1.430187 3.674359
0.324654 -1.432700 4.679158
0.312233 -1.378683 4.988012
0.306303 -1.355235 6.047922
0.325331 -1.440362 6.373236
0.395085 -1.752455 7.287037
0.380994 -1.691861 7.897686
0.359006 -1.595431 8.326724
0.352123 -1.567305 9.180914
0.172072 -1.349819 1.813589
0.204922 -1.610757 2.395562
0.190008 -1.495652 2.825006
0.187075 -1.476633 3.644856
0.186305 -1.474488 4.440684
0.186497 -1.478745 4.994516
0.188045 -1.493844 5.558330
0.173503 -1.381776 6.334033
0.194497 -1.552819 7.050410
0.215577 -1.723763 7.476989
0.197815 -1.584656 8.072298
0.195328 -1.568445 8.805953
0.198615 -1.599670 9.737283
0.172922 -1.394767 10.258009
0.049585 -1.436766 1.845114
0.051792 -1.515346 2.627196
0.051112 -1.509501 3.381400
0.048366 -1.441135 4.102110
0.046541 -1.393678 4.507740
0.049658 -1.504060 5.402913
0.050851 -1.548191 5.807322
0.056226 -1.730354 6.626812
0.055375 -1.718402 7.285844
0.054122 -1.693434 7.944919
0.051571 -1.626526 8.593814
0.048689 -1.549857 9.350344
0.048363 -1.555029 10.152377
-0.075012 -1.394093 1.525182
-0.085487 -1.576871 2.470269
-0.081664 -1.499747 3.040813
-0.080307 -1.469697 3.493464
-0.080471 -1.463765 4.289274
-0.077204 -1.396338 5.054282
-0.084897 -1.527839 5.700652
-0.088414 -1.585605 6.158213
-0.090002 -1.605349 6.892680
-0.098764 -1.750151 7.762268
-0.090155 -1.591170 8.365760
-0.086147 -1.515362 8.861122
-0.093488 -1.633277 9.817078
-0.085396 -1.486089 10.437668
-0.207808 -1.398316 1.864370
-0.232969 -1.564652 2.505781
-0.219651 -1.473522 2.907296
-0.202391 -1.355524 3.486229
-0.217889 -1.454988 4.515327
-0.235088 -1.568541 4.789284
-0.245367 -1.633672 5.524283
-0.253531 -1.685252 6.099600
-0.239661 -1.590154 6.772224
-0.240166 -1.589020 7.797233
-0.235482 -1.555161 8.484815
-0.241888 -1.594739 9.112056
-0.240509 -1.583187 9.701799
-0.226499 -1.487702 10.569939
-0.335806 -1.386149 1.631068
-0.370119 -1.525742 2.345954
-0.351554 -1.447731 2.907296
-0.317172 -1.304853 3.462047
-0.346946 -1.424669 4.479693
-0.441794 -1.812890 4.802060
-0.482924 -1.979388 5.404707
-0.431728 -1.767226 6.169269
-0.347557 -1.421239 6.811709
-0.326752 -1.334436 7.570251
-0.363113 -1.480966 8.298195
-0.365855 -1.490541 8.923372
-0.363232 -1.478357 9.522329
-0.325855 -1.324267 10.457861
-0.448433 -1.286281 1.320809
-0.546221 -1.565805 1.761588
-0.471975 -1.351623 2.508375
-0.483332 -1.382884 3.179121
-0.454427 -1.299174 3.765950
-0.333943 -0.953885 4.468569
-0.677538 -1.931991 5.610234
-0.614999 -1.751985 6.363041
-0.495709 -1.410964 7.084081
-0.451326 -1.283609 7.733536
-0.486981 -1.383660 8.474399
-0.467482 -1.327360 9.025466
-0.455374 -1.291890 9.712497
-0.360828 -1.022799 10.487398
-0.573634 -1.260908 2.556857
-0.526707 -1.156876 3.252270
-0.605108 -1.327602 4.235812
-0.781959 -1.714838 4.583718
-0.878555 -1.924804 5.418452
-0.806005 -1.765042 5.864490
-0.714002 -1.562238 6.684873
-0.638140 -1.395107 7.486405
-0.593919 -1.297743 8.010334
-0.605996 -1.323129 8.725165
-0.591351 -1.290213 9.436336
-0.559083 -1.218861 10.219316
-0.716417 -1.259244 2.722366
-0.640236 -1.124796 3.231896
-0.775717 -1.361629 4.095430
-0.995838 -1.747075 4.583651
-1.063607 -1.864346 5.449179
-1.006484 -1.763178 6.074554
-0.847703 -1.484659 6.392052
-0.618328 -1.082173 7.232127
-0.603377 -1.055072 8.195547
-0.721500 -1.260836 8.811856
-0.760652 -1.328439 9.461985
-0.689017 -1.202859 9.941262
-0.758552 -1.091366 1.689731
-0.833008 -1.197937 2.192766
-0.780477 -1.121389 3.197743
-0.990574 -1.421009 4.921363
-1.167804 -1.674198 5.575227
-1.070185 -1.533483 6.168692
-0.962545 -1.378433 6.877133
-0.851881 -1.219336 7.506500
-0.799074 -1.143005 8.293310
-0.842478 -1.204102 9.248386
-0.842387 -1.203264 9.955117
-0.636408 -0.908795 10.400248
-0.760235 -0.907495 1.237999
-0.933266 -1.113213 2.094734
-0.959288 -1.143709 2.647007
-0.878237 -1.046593 3.197743
-0.870344 -1.036669 3.786686
-1.173304 -1.396592 4.511463
-1.283930 -1.527615 4.989029
-1.239395 -1.473474 5.921682
-1.148435 -1.363020 7.988854
-0.879020 -1.042777 8.673035
-0.903406 -1.071254 9.190613
-0.909193 -0.892144 1.584771
-1.050684 -1.030288 2.370955
-0.916604 -0.898465 2.844414
-1.282742 -1.256406 3.690955
-1.461656 -1.429666 5.295567
-1.341770 -1.311302 6.331816
-1.065387 -1.040747 6.936399
-0.866967 -0.846473 7.645569
-0.846070 -0.825733 8.165645
-0.972974 -0.948897 9.038758
-0.937662 -0.914134 9.506791
-0.916843 -0.893142 10.524108
-1.008549 -0.821598 1.000521
-1.107780 -0.901906 1.675667
-1.045744 -0.850872 2.397888
-0.977448 -0.794806 3.135739
-1.238406 -1.006481 3.704760
-1.568716 -1.274026 4.475049
-1.491076 -1.210615 4.829844
-1.398636 -1.134783 5.653290
-1.298022 -1.052458 6.454851
-1.242302 -1.006757 7.089493
-1.072935 -0.869093 7.709931
-0.975233 -0.789495 8.452903
-1.104251 -0.893395 9.166014
-1.148546 -0.928614 9.981839
-0.830175 -0.671036 10.433304
-1.318835 -0.891280 2.299785
-1.136757 -0.767761 2.989871
-1.405792 -0.947988 4.673796
-1.037465 -0.697118 8.828053
-1.113141 -0.747455 9.614163
-0.989888 -0.664367 10.245976
-1.113785 -0.608541 1.486186
-1.339666 -0.731516 2.072151
-1.234780 -0.673952 2.510287
-1.137005 -0.620140 3.240852
-0.792307 -0.431915 3.802073
-1.043811 -0.566319 8.690855
-1.090419 -0.591280 9.264833
-1.136069 -0.615522 10.146174
-1.282833 -0.550874 1.525182
-1.261892 -0.541334 2.396064
-1.150927 -0.493361 3.055040
-1.508890 -0.646320 3.663661
-1.858224 -0.795506 4.100597
-1.791863 -0.766287 5.014255
-1.555300 -0.663612 7.041662
-0.886130 -0.377938 7.569871
-0.814001 -0.346898 8.316376
-1.144925 -0.487415 9.186320
-1.221237 -0.519575 9.744602
-1.002787 -0.426398 10.337184
-1.363945 -0.446068 1.264284
-1.498357 -0.489456 2.068981
-1.295856 -0.422997 2.594554
-1.187386 -0.387218 3.281638
-1.271306 -0.414239 3.861119
-1.653352 -0.538240 4.442334
-1.776482 -0.577730 5.144074
-1.481651 -0.481594 5.567703
-1.199601 -0.389541 6.312955
-1.101985 -0.357483 7.063109
-0.920979 -0.298522 7.702119
-0.936786 -0.303235 8.705708
-1.159733 -0.375083 9.280588
-1.377329 -0.311700 1.837599
-1.341881 -0.303326 2.431801
-1.230731 -0.277962 2.882433
-1.620253 -0.365227 3.831977
-2.013948 -0.453395 4.424422
-1.869973 -0.420686 4.803487
-1.055123 -0.235572 8.970082
-1.243563 -0.277269 9.653187
-1.107450 -0.246644 10.313257
-1.419837 -0.191407 1.201858
-1.527796 -0.205490 1.910594
-1.355288 -0.181865 2.648174
-1.215619 -0.162922 3.048378
-1.303905 -0.174403 3.673224
-1.601659 -0.213791 4.278616
-1.828423 -0.243476 4.994426
-1.632508 -0.216765 5.927112
-1.262964 -0.167362 6.636338
-1.295581 -0.170667 8.554156
-1.144048 -0.150499 9.046964
-1.263425 -0.052149 1.378623
-1.546132 -0.063396 2.008360
-1.369942 -0.055783 2.692852
-1.273658 -0.051549 3.288118
-0.954234 -0.038259 4.236756
-1.036996 -0.039583 9.001230
-1.305406 -0.049492 9.585391
-1.340084 -0.050386 10.386339
-1.329265 0.075810 1.734462
-1.295524 0.074245 2.392580
-1.278337 0.073633 3.088569
-1.444370 0.083591 3.721729
-1.790121 0.104199 4.470824
-1.908663 0.111490 4.939029
-1.146546 0.068765 8.932449
-1.277051 0.076980 9.671108
-1.235152 0.074909 10.636742
-1.213823 0.181223 1.047678
-1.201641 0.179841 1.893702
-1.225543 0.183797 2.613390
-1.235065 0.185579 3.281638
-1.062742 0.159994 3.983445
-1.445063 0.217976 4.625701
-1.960087 0.296232 5.224808
-1.634723 0.247337 5.679124
-1.262437 0.191351 6.393621
-1.274686 0.194253 8.386721
-1.261386 0.192734 9.390356
-1.207387 0.293765 1.451435
-1.210426 0.294796 1.990938
-1.200550 0.292698 2.568532
-1.193145 0.291155 3.066327
-0.933225 0.227957 3.648830
-1.928159 0.472463 5.242344
-1.632686 0.400351 5.692520
-1.250421 0.306916 6.317198
-1.273280 0.313645 8.371585
-1.277538 0.315068 9.069952
-1.371636 0.338786 9.942925
-0.950537 0.234998 10.650378
-1.048246 0.360695 1.231808
-1.300009 0.447836 2.054862
-1.255398 0.432707 2.462344
-1.191793 0.411303 3.398207
-1.042745 0.360050 3.797357
-1.449762 0.501289 4.778782
-0.666851 0.231274 7.217298
-0.791634 0.274916 8.231667
-1.192472 0.414411 8.680691
-1.428810 0.497040 9.399727
-1.339449 0.466266 9.960771
-1.309111 0.599024 1.880781
-1.259756 0.576654 2.215650
-1.152875 0.528156 2.954145
-0.991273 0.454363 3.452250
-1.229456 0.564134 4.386020
-1.639156 0.752597 4.892468
-1.545930 0.710267 5.515900
-1.158501 0.532722 6.384660
-0.898285 0.413304 6.986088
-0.614627 0.282938 7.548955
-0.954324 0.439817 8.563070
-1.431596 0.660223 9.074414
-1.343432 0.619853 9.554155
-1.243300 0.574172 10.475734
-0.857740 0.483601 1.263589
-1.172423 0.661507 1.993838
-1.214347 0.685622 2.672948
-1.116370 0.630566 3.106488
-1.012702 0.572435 3.881579
-1.242222 0.702779 4.739773
-0.634673 0.359899 7.326658
-0.830605 0.471308 7.972675
-1.294640 0.735034 8.459219
-1.378930 0.783511 9.292179
-1.313328 0.746821 10.176150
-0.923764 0.643713 1.005851
-1.026206 0.715502 1.630816
-1.089606 0.760036 2.111676
-1.049906 0.732982 3.088569
-1.098638 0.767244 3.435217
-1.104316 0.771701 4.150328
-1.215807 0.850350 5.114086
-1.191457 0.833528 5.402169
-0.991575 0.694218 6.313405
-0.708131 0.496037 7.002794
-0.779751 0.546558 7.743976
-1.170453 0.820832 8.227529
-1.337262 0.938396 8.905835
-1.290920 0.906474 9.708943
-1.121435 0.787868 10.396663
-0.524793 0.442274 1.311504
-0.701921 0.591876 1.956226
-0.952280 0.803281 2.369306
-0.951631 0.803332 3.245763
-1.021495 0.862764 3.861119
-1.088200 0.919499 4.358234
-1.073205 0.907392 5.098916
-1.020229 0.863064 5.752987
-0.904486 0.765732 6.701069
-0.605757 0.512983 7.150739
-0.850837 0.720937 7.781944
-1.326994 1.125399 8.724926
-1.194696 1.013416 9.038892
-1.235141 1.249932 1.738512
-1.051336 1.064135 1.984733
-0.903927 0.915610 2.880249
-0.902977 0.915223 3.631216
-0.910367 0.923110 4.147652
-1.010533 1.025415 4.993161
-0.988893 1.003692 5.281338
-0.853015 0.866219 5.931582
-0.684221 0.695342 6.922800
-0.761280 0.774122 7.655819
-1.130473 1.150197 8.238063
-1.330691 1.354634 8.833161
-1.178623 1.200184 9.264728
-1.004186 1.023230 10.180648
-0.435806 0.530641 1.320625
-0.545375 0.664331 1.804917
-0.817152 0.996086 2.600473
-0.811394 0.989471 3.079609
-0.812065 0.990908 3.813212
-0.868649 1.060600 4.520085
-0.934823 1.142093 5.224861
-0.885130 1.081774 5.668620
-0.734101 0.897835 6.575218
-0.590778 0.722892 7.206038
-0.884612 1.083228 7.998427
-1.159238 1.420216 8.492271
-1.174426 1.439712 9.243099
-1.029042 1.261798 9.616614
-0.924755 1.134695 10.524198
-0.778907 1.145535 2.556857
-0.734955 1.081677 3.366210
-0.721562 1.062416 3.840089
-0.782450 1.152759 4.498811
-0.808013 1.191292 5.313024
-0.670183 0.988607 5.953983
-0.586810 0.866121 6.644786
-0.569735 0.841426 7.349054
-0.786219 1.161901 8.016281
-0.986405 1.458479 8.511340
-1.026225 1.518458 9.336175
-0.578809 1.057906 1.156242
-0.659941 1.206756 1.615691
-0.698378 1.277731 2.148208
-0.648903 1.187959 2.784309
-0.641157 1.174793 3.652556
-0.687307 1.260112 4.247944
-0.699514 1.283415 4.971567
-0.665904 1.222356 5.485849
-0.590454 1.084696 6.308697
-0.495007 0.909896 6.966750
-0.599889 1.103301 7.503127
-0.810878 1.492448 8.169286
-0.900291 1.658226 8.883749
-0.885401 1.632022 9.683186
-0.772515 1.424959 10.522552
-0.257193 0.598503 1.029450
-0.378110 0.880654 1.781405
-0.549716 1.281212 2.340671
-0.506498 1.181569 3.142323
-0.466783 1.089523 3.633217
-0.569115 1.329782 4.518750
-0.675172 1.578811 5.150008
-0.624412 1.460833 5.598998
-0.533986 1.250206 6.294096
-0.465087 1.089798 7.066859
-0.556098 1.304135 7.757748
-0.705901 1.657112 8.566724
-0.703358 1.651800 8.927947
-0.689508 1.621111 9.972111
-0.557131 1.310332 10.399384
-0.261500 0.795004 1.323789
-0.322377 0.980694 1.759329
-0.463667 1.412181 2.566882
-0.430791 1.313509 3.358560
-0.552722 1.686790 3.943837
-0.676907 2.067575 4.497930
-0.626970 1.917129 5.282120
-0.511038 1.566163 6.958392
-0.457717 1.404281 7.790750
-0.541918 1.664534 8.570698
-0.569854 1.751645 9.095396
-0.551734 1.697692 9.878022
-0.445065 1.370899 10.778007
-0.329740 1.460496 1.547231
-0.391424 1.735691 2.109243
-0.360476 1.600011 2.608299
-0.351267 1.561945 3.524537
-0.425729 1.895256 4.074982
-0.503741 2.246204 4.843705
-0.435973 1.945571 5.294943
-0.364743 1.629494 5.913771
-0.281360 1.258429 6.586608
-0.228909 1.025728 7.616356
-0.288978 1.296047 8.025174
-0.385554 1.731617 8.658983
-0.419242 1.886042 9.498076
-0.376795 1.696420 9.979471
-0.203542 1.506899 0.806901
-0.203973 1.514238 1.661659
-0.233848 1.740747 2.492351
-0.230833 1.720272 2.849779
-0.279034 2.084215 3.514367
-0.136697 1.033672 7.580262
-0.185321 1.405196 8.382567
-0.241245 1.832441 8.837570
-0.240051 1.827858 9.639164
-0.214942 1.639642 10.297071
-0.057270 1.458549 1.254408
-0.066274 1.704308 2.131810
-0.084942 2.230842 3.976415
-0.093140 2.457645 4.361119
-0.085477 2.275446 5.168002
-0.054084 1.485727 8.146922
-0.060708 1.678692 8.693682
-0.065737 1.831538 9.336175
0.078894 1.461825 1.361332
0.081852 1.510789 1.849785
0.097209 1.788002 2.276866
0.096400 1.764252 2.918213
0.117104 2.128386 3.767587
0.141136 2.525142 5.748348
0.111824 1.993936 6.298977
0.082443 1.461835 7.174896
0.068279 1.205426 7.845582
0.084459 1.483019 8.545651
0.098725 1.727532 8.974420
0.107986 1.877634 9.848819
0.104238 1.805316 10.452156
0.269979 1.834086 1.671529
0.290607 1.972617 1.936855
0.271943 1.841008 2.847628
0.247776 1.674554 3.442996
0.393321 2.647819 4.646315
0.344380 2.313653 5.389582
0.192923 1.286965 8.126626
0.234783 1.563826 8.615471
0.282913 1.879998 9.392639
0.285396 1.894020 9.876670
0.426064 1.772801 0.905228
0.442276 1.836924 1.863732
0.436380 1.811170 2.236397
0.559986 2.314772 4.345371
0.609257 2.515691 4.896995
0.540457 2.229031 5.567177
0.489796 2.017021 6.438059
0.391623 1.612021 6.770889
0.293938 1.207974 7.780184
0.295080 1.211530 8.321174
0.415887 1.704954 9.062758
0.478986 1.961218 9.701413
0.475207 1.943192 10.477222
0.565333 1.668721 1.304702
0.619955 1.827836 2.117051
0.591191 1.741883 2.592297
0.684089 2.013620 3.264597
0.836129 2.458861 3.869835
0.912996 2.681715 4.675624
0.509090 1.490162 7.439701
0.408158 1.194014 7.965354
0.512599 1.497914 8.719556
0.611672 1.785574 9.434816
0.754163 1.694647 1.115827
0.777445 1.745577 1.800777
0.771291 1.730702 2.331395
1.012179 2.265356 4.516556
1.149821 2.572105 4.905190
1.117579 2.497929 5.631039
1.011602 2.259865 6.142383
0.722906 1.610001 9.098074
0.816584 1.817511 9.613792
0.770036 1.712954 10.177549
0.700007 1.252722 1.264284
0.881541 1.576192 2.134067
0.905919 1.619219 2.475873
1.176209 2.100466 3.305923
1.306412 2.331575 3.869281
1.285433 2.292709 4.486776
1.349059 2.404510 5.160412
1.315494 2.342940 5.914764
1.203330 2.141655 6.676741
1.052786 1.870557 8.503261
0.977207 1.734827 9.433037
0.881422 1.261909 1.367099
1.094203 1.565344 2.189002
1.089003 1.557152 2.720182
1.410538 2.013148 4.705107
1.580957 2.255376 5.143297
1.523708 2.172569 5.734566
1.115889 1.587161 8.699257
1.148989 1.633544 9.184277
1.073758 1.281182 1.530092
1.220444 1.455556 2.030788
1.227199 1.462601 2.825657
1.584910 1.885682 4.739659
1.764427 2.098590 5.066260
1.702216 2.023540 5.683046
1.536162 1.825202 6.330786
1.302283 1.546058 7.374501
1.202710 1.427255 7.912092
1.294690 1.535536 8.568083
1.334303 1.581498 9.343683
1.037648 1.021914 1.165293
1.339351 1.317966 2.102738
1.365204 1.342837 2.595083
1.306488 1.284559 3.081142
1.450944 1.425446 4.001151
1.732412 1.701170 4.497680
1.901462 1.865972 5.210973
1.859289 1.823771 5.743526
1.672414 1.639846 6.240330
1.433600 1.404779 7.083210
1.393694 1.364849 7.835626
1.439351 1.408794 8.491582
1.447515 1.415885 9.280644
1.425066 1.393189 9.958482
1.245138 1.216632 10.728262
1.257445 1.024077 1.532446
1.446253 1.177481 1.873975
1.491008 1.213056 2.682942
1.478435 1.202168 3.313796
1.636262 1.329691 3.991875
1.763810 1.432500 4.643942
1.843133 1.496055 5.294629
1.919010 1.556874 5.848141
1.740618 1.411263 6.622340
1.533482 1.242812 7.164158
1.541358 1.248460 7.864790
1.553311 1.257345 8.627121
1.603989 1.297514 9.411919
1.493522 1.006750 1.002929
1.698040 1.144032 1.538689
1.601456 1.078379 2.125834
1.519439 1.022525 2.796972
1.556917 1.046840 3.735240
1.684918 1.132239 4.357805
1.749043 1.174745 4.891260
1.857189 1.246627 5.532298
1.887492 1.266254 6.145722
1.793185 1.202259 6.839720
1.741936 1.167135 7.587511
1.745426 1.168709 8.328662
1.672233 1.119288 8.773850
1.720127 1.150413 9.695700
1.553061 1.038264 10.229078
1.315361 0.723685 1.012229
1.594737 0.876544 1.956195
1.600801 0.879460 2.424922
1.613580 0.885813 3.169224
1.652065 0.906355 3.805611
1.755142 0.962379 4.334880
1.805516 0.989423 4.907556
1.882995 1.030864 5.880998
1.897781 1.038324 6.493061
1.916065 1.047725 7.071676
1.845390 1.008563 7.613720
1.797073 0.981495 8.323743
1.788713 0.976164 9.144281
1.735095 0.946316 9.819615
1.556853 0.848676 10.424552
1.582533 0.686441 1.598450
1.721426 0.746278 2.058753
1.719384 0.744829 2.704688
1.743746 0.754889 3.261055
1.797414 0.777267 4.197862
1.831300 0.791502 4.648546
1.880000 0.812061 5.160282
1.720275 0.742567 5.776698
1.813806 0.782102 6.695788
2.007589 0.865012 7.309198
1.901213 0.818752 7.797314
1.888738 0.812609 8.649156
1.886930 0.811256 9.291202
1.518105 0.502554 0.938148
1.657811 0.548343 1.517728
1.845291 0.609650 2.310231
1.760612 0.581297 2.768406
1.774633 0.585361 3.442127
1.881030 0.619628 4.364530
1.955633 0.643695 4.907556
1.996064 0.656325 5.627832
1.916219 0.629750 6.004496
1.965643 0.645285 6.776725
1.974718 0.647702 7.398284
1.951255 0.639442 8.042711
1.978925 0.647714 8.933465
1.919511 0.627778 9.529421
1.728354 0.564898 10.070563
1.549375 0.360330 1.400506
1.821169 0.423075 1.953174
1.847582 0.428873 2.357771
1.842524 0.427023 3.173135
1.852977 0.428973 3.741155
1.849051 0.427593 4.313085
1.892220 0.437018 4.970362
1.768633 0.407897 5.732634
1.777066 0.409382 6.323824
2.053346 0.472105 7.299723
1.990706 0.457386 7.683586
1.946368 0.446672 8.327534
2.014461 0.461425 9.334938
1.507454 0.199221 1.510471
1.780443 0.234928 1.975344
1.794853 0.236388 2.541409
1.881305 0.247202 3.234681
1.891590 0.247928 3.999035
1.866637 0.244349 4.386776
1.951162 0.254648 5.290234
1.810394 0.236019 5.648984
1.857218 0.241395 6.570365
2.079586 0.269658 7.256044
2.043635 0.264485 7.864465
2.039206 0.263254 8.649156
1.989057 0.256481 9.030431
1.505026 0.062940 1.163512
1.797608 0.074502 2.028257
1.810905 0.074635 2.567854
1.891027 0.077235 3.430682
1.880729 0.076530 3.788020
1.923060 0.077517 4.685636
1.956099 0.078397 5.228817
1.832540 0.072993 5.838371
1.854088 0.073255 6.610570
2.098962 0.082215 7.383926
2.087180 0.081247 7.978127
2.049884 0.079260 8.631658
2.028770 0.078052 9.118018
1.351137 -0.066789 1.061581
1.646758 -0.081771 1.575567
1.679504 -0.084059 2.498107
1.728895 -0.086754 2.796761
1.741230 -0.087854 3.446553
1.803522 -0.091715 4.379252
1.861431 -0.095246 5.117674
1.752614 -0.090077 5.679563
1.907231 -0.098493 6.243111
2.072181 -0.107420 6.684149
1.998395 -0.104171 7.397624
1.995846 -0.104719 8.233654
2.007659 -0.106001 9.047954
2.037286 -0.108091 9.685432
1.928505 -0.102794 10.344552
1.351465 -0.200914 1.419116
1.559632 -0.232313 2.077860
1.619371 -0.241561 2.572850
1.730775 -0.258708 3.267321
1.755203 -0.262712 3.729093
1.719524 -0.257897 4.442334
1.687025 -0.253480 5.079270
1.575043 -0.237196 5.909463
1.664631 -0.251125 6.516812
1.850227 -0.279475 6.928869
1.995806 -0.302306 7.902650
1.987135 -0.301300 8.277466
2.017072 -0.306572 9.153034
1.909217 -0.290556 9.670419
1.750079 -0.266825 10.415726
1.586621 -0.388025 1.762942
1.600110 -0.391766 2.376006
1.589815 -0.389596 2.867403
1.651397 -0.405170 3.513767
1.695216 -0.416526 4.306479
1.733968 -0.426541 4.940323
1.565041 -0.385413 5.585890
1.663448 -0.410355 6.538418
1.898861 -0.468726 6.846455
2.005374 -0.495855 7.779823
1.964172 -0.486124 8.330021
1.940080 -0.480792 9.098559
1.885344 -0.467560 9.533199
1.745107 -0.433335 10.338697
1.532004 -0.523735 1.950545
1.521605 -0.520592 2.521604
1.516758 -0.519311 3.049279
1.564328 -0.536134 3.769978
1.622392 -0.556562 4.454572
1.612730 -0.553833 5.233543
1.552831 -0.533736 5.900530
1.623272 -0.558352 6.427420
1.775230 -0.611364 7.305743
1.767273 -0.609035 7.818175
1.794190 -0.618744 8.343825
1.916356 -0.661718 9.289400
1.813343 -0.626669 9.971893
1.572393 -0.543865 10.734132
1.430258 -0.646720 2.667589
1.480292 -0.669984 3.512978
1.482322 -0.671247 3.970849
1.510348 -0.684413 4.588810
1.440573 -0.653267 5.253457
1.519273 -0.689669 6.179689
1.639937 -0.744803 6.594150
1.731161 -0.786953 7.411268
1.710766 -0.778142 7.964882
1.669888 -0.760052 8.595562
1.782373 -0.812055 9.499779
1.730548 -0.788981 10.170027
1.252343 -0.701900 1.809445
1.380901 -0.774509 2.523536
1.411444 -0.792180 3.208935
1.461079 -0.820648 3.955935
1.430350 -0.803637 4.275355
1.372145 -0.771509 5.045341
1.278765 -0.719501 5.775941
1.451753 -0.817476 6.557157
1.651866 -0.930636 7.043208
1.651326 -0.931023 7.821080
1.632791 -0.921118 8.453167
1.605471 -0.906090 8.914642
1.618929 -0.914420 9.778426
1.386266 -0.783413 10.433843
1.316205 -0.910890 2.058523
1.276680 -0.884100 2.767384
1.273460 -0.882269 3.269624
1.332270 -0.923730 4.124662
1.296778 -0.899608 4.736019
1.246921 -0.865468 5.327681
1.309599 -0.909456 5.918338
1.426156 -0.991063 6.653320
1.502896 -1.045124 7.436883
1.529982 -1.064492 8.006082
1.505298 -1.047927 8.690111
1.490422 -1.038165 9.369561
0.906619 -0.762336 1.255971
1.218981 -1.025601 1.934293
1.172594 -0.987065 2.518510
1.186253 -0.999222 3.287397
1.217104 -1.025737 3.885145
1.183407 -0.997873 4.522832
1.132961 -0.955798 5.105181
1.229457 -1.038000 5.998188
1.308879 -1.105572 6.538418
1.361467 -1.150662 7.225290
1.402841 -1.186503 8.106232
1.320424 -1.117121 8.491188
1.341974 -1.135980 9.166662
0.791886 -0.795814 1.564988
1.096385 -1.102364 2.123879
1.052467 -1.058936 2.942905
1.120372 -1.127940 3.651512
1.134454 -1.142489 4.035977
1.079608 -1.087912 4.769891
1.017810 -1.026375 5.651175
1.072019 -1.081556 6.216630
1.244213 -1.255937 6.803450
1.303723 -1.316815 7.533758
1.266267 -1.279408 7.956409
1.330194 -1.345046 8.901336
1.297799 -1.313053 9.647970
1.178947 -1.193355 10.289516
0.885472 -1.073813 1.919372
0.956402 -1.160385 2.467045
0.966323 -1.173189 3.227650
0.944503 -1.147300 3.843581
0.886504 -1.077279 4.325824
0.944143 -1.148118 5.131894
0.944312 -1.148917 5.744880
1.063128 -1.294445 6.601424
1.187551 -1.446530 7.048544
1.178932 -1.436895 7.774171
1.102758 -1.344634 8.328413
1.123124 -1.370566 9.305937
1.105778 -1.349867 9.745606
0.991867 -1.211727 10.756636
0.858048 -1.278810 1.883927
0.819299 -1.221589 2.362047
0.834884 -1.245570 3.014113
0.841682 -1.256420 3.633186
0.834192 -1.246259 4.538605
0.809103 -1.209192 4.927010
0.738455 -1.104358 5.708258
0.801072 -1.198679 6.324537
0.987071 -1.477928 6.967515
1.000837 -1.499449 7.647829
0.975736 -1.462537 8.201231
0.976191 -1.464334 9.080418
0.951319 -1.427809 9.735128
0.844553 -1.268284 10.465635
0.765497 -1.376663 1.605839
0.730619 -1.315074 2.475944
0.720291 -1.296945 2.836067
0.731441 -1.318009 3.588699
0.728373 -1.313241 4.175993
0.723491 -1.305287 4.839452
0.653485 -1.180091 5.824530
0.683785 -1.235392 6.302515
0.861273 -1.557365 7.096361
0.881180 -1.594343 7.727162
0.860219 -1.557376 8.383970
0.815344 -1.476964 9.005464
0.784041 -1.421022 9.598882
0.721312 -1.308113 10.289003
0.599610 -1.378359 2.100435
0.616731 -1.418701 2.696293
0.605788 -1.394781 3.479253
0.558861 -1.287162 3.780948
0.566771 -1.306517 4.540016
0.587938 -1.356151 5.078465
0.573458 -1.323794 5.780294
0.655867 -1.515728 6.735459
0.718467 -1.661175 7.117454
0.724335 -1.676516 8.062184
0.683899 -1.583597 8.473512
0.660488 -1.530596 9.211614
0.476620 -1.461126 2.571853
0.482475 -1.480726 3.349593
0.463986 -1.425190 3.950406
0.442444 -1.360227 4.584615
0.440018 -1.353970 5.214919
0.449746 -1.385437 5.998657
0.494652 -1.525162 6.625243
0.535059 -1.651238 7.245024
0.509733 -1.574439 7.888876
0.505397 -1.562459 8.551984
0.521197 -1.613387 9.490975
0.483323 -1.497172 10.039867
0.361128 -1.540739 1.747895
0.357607 -1.528398 2.667589
0.360998 -1.544259 3.131510
0.346561 -1.484804 3.956295
0.331219 -1.420796 4.607879
0.336038 -1.442357 4.932189
0.330333 -1.419959 5.722480
0.350385 -1.508323 6.479227
0.386893 -1.667255 7.018676
0.370372 -1.597761 7.611480
0.377510 -1.631161 8.477307
0.392410 -1.698113 9.295180
0.368031 -1.594016 9.817078
0.294534 -1.276899 10.455160
0.183979 -1.376987 1.874722
0.200309 -1.501148 2.269489
0.197556 -1.483945 2.987412
0.196014 -1.475473 3.644856
0.183668 -1.384709 4.144050
0.194309 -1.469488 5.105181
0.204027 -1.546090 5.722999
0.190269 -1.444864 6.404761
0.205135 -1.560670 6.974100
0.220011 -1.676153 7.385316
0.220213 -1.682328 8.263886
0.215057 -1.647146 9.098567
0.205276 -1.574830 9.657428
0.179945 -1.382615 10.222300
0.060940 -1.476722 1.664203
0.065359 -1.595519 2.370779
0.061632 -1.512659 2.896182
0.059555 -1.470684 3.493464
0.060941 -1.517841 4.309451
0.058940 -1.474256 4.723696
0.056368 -1.421509 5.517405
0.052203 -1.328398 6.401965
0.055768 -1.424601 6.754382
0.065578 -1.689242 7.497081
0.062544 -1.622341 8.178737
0.059922 -1.564913 8.848014
0.056833 -1.492826 9.424453
0.053731 -1.424074 10.320471
-0.070191 -1.401587 1.077816
-0.084938 -1.685085 1.831029
-0.074485 -1.470953 2.388770
-0.075937 -1.489602 3.194505
-0.072965 -1.427048 3.561224
-0.072563 -1.411032 4.269013
-0.071076 -1.373306 5.067031
-0.077468 -1.488314 5.762686
-0.075602 -1.447175 6.230674
-0.075882 -1.444157 6.973537
-0.089807 -1.696819 7.859385
-0.084662 -1.592521 8.469638
-0.085766 -1.605726 9.094317
-0.087276 -1.625588 9.790486
-0.074550 -1.380459 10.678707
-0.215257 -1.508233 2.716141
-0.206505 -1.444100 3.368732
-0.199576 -1.392939 4.024907
-0.175984 -1.226066 4.657240
-0.210325 -1.461391 5.535811
-0.246334 -1.709981 5.811974
-0.207831 -1.438930 6.767152
-0.191747 -1.325620 7.305484
-0.224117 -1.545533 8.137647
-0.219238 -1.509553 8.696926
-0.218216 -1.499565 9.408623
-0.204032 -1.399494 10.118203
-0.321469 -1.366028 1.077816
-0.388017 -1.646185 1.901816
-0.341564 -1.447294 2.575785
-0.333053 -1.410084 3.009798
-0.327275 -1.383772 3.724557
-0.296129 -1.250878 4.258309
-0.386501 -1.629595 5.202119
-0.434437 -1.830474 5.530545
-0.395761 -1.665331 6.272307
-0.363030 -1.525806 6.947458
-0.354811 -1.489283 7.693347
-0.354279 -1.485432 8.307088
-0.341516 -1.430052 9.065634
-0.331564 -1.386612 9.812487
-0.289088 -1.207707 10.486892
-0.370007 -1.080728 1.446846
-0.475297 -1.386621 2.290778
-0.495506 -1.444634 2.760607
-0.453440 -1.320688 3.492512
-0.479995 -1.397086 3.980130
-0.599282 -1.742594 4.643599
-0.655211 -1.903165 5.408858
-0.638511 -1.852928 6.106047
-0.562976 -1.632466 6.729070
-0.520519 -1.507817 7.528469
-0.485453 -1.405532 7.939083
-0.470241 -1.360407 8.567228
-0.468080 -1.352896 9.297687
-0.468346 -1.351893 10.338310
-0.588279 -1.333897 2.829319
-0.539893 -1.223393 3.408385
-0.634041 -1.435543 4.113193
-0.798807 -1.807648 4.517033
-0.867149 -1.960196 5.431730
-0.803823 -1.815989 5.974024
-0.708567 -1.599545 6.715156
-0.581743 -1.312699 7.162424
-0.583154 -1.314607 8.054926
-0.591834 -1.333468 8.543070
-0.603372 -1.358218 9.397745
-0.573401 -1.289817 10.109279
-0.700435 -1.247830 2.499456
-0.648669 -1.154731 3.283139
-0.787988 -1.401411 4.216529
-0.976157 -1.735587 4.443438
-1.054495 -1.872932 5.466625
-0.977930 -1.736295 5.873062
-0.841862 -1.493997 6.418578
-0.665861 -1.180541 7.489819
-0.609245 -1.079696 7.980213
-0.745223 -1.319637 8.756754
-0.738748 -1.307341 9.451155
-0.685696 -1.212738 10.134518
-0.681132 -0.991085 1.057455
-0.876036 -1.273599 1.981699
-0.805881 -1.171198 2.374575
-0.763765 -1.109118 3.253826
-0.919008 -1.333738 3.908785
-1.159736 -1.682190 4.454096
-1.165770 -1.690052 5.033861
-1.135740 -1.645240 5.908121
-1.018019 -1.472301 7.809376
-0.817052 -1.180795 8.749450
-0.794710 -1.148108 9.172758
-0.708899 -0.855415 1.294853
-0.900687 -1.086341 1.819751
-0.920880 -1.109910 2.642133
-0.849578 -1.023594 3.083889
-0.916407 -1.103203 4.039692
-1.221889 -1.469958 4.768339
-1.326042 -1.594678 5.165056
-1.272357 -1.529060 5.991558
-0.838337 -1.005463 8.563109
-0.882254 -1.057581 9.197371
-0.841055 -0.844503 1.435672
-1.013582 -1.017399 1.818363
-1.000628 -1.003697 2.644147
-0.919691 -0.922003 3.312491
-0.790861 -0.792315 4.142571
-1.445197 -1.446302 5.295567
-1.327755 -1.327936 6.076051
-1.134050 -1.132679 7.779490
-0.955250 -0.953503 8.619401
-1.017087 -1.014652 9.315523
-0.934654 -0.931958 9.980947
-0.920170 -0.755693 1.408719
-1.017496 -0.835255 1.914810
-1.010437 -0.828815 2.824353
-1.016333 -0.833220 3.428871
-0.763673 -0.625860 3.883960
-1.475609 -1.207810 5.228048
-1.235329 -1.010583 5.927212
-1.237050 -1.010275 7.968706
-1.045574 -0.853491 8.619401
-1.051391 -0.857763 9.309258
-1.063416 -0.866990 10.150845
-1.244402 -0.847720 1.716324
-1.227155 -0.835605 2.199996
-1.055870 -0.718428 3.052727
-1.400321 -0.951234 4.827818
-0.753689 -0.510817 7.562874
-0.763097 -0.516933 8.153333
-1.009101 -0.683101 8.903869
-1.081719 -0.731770 9.673002
-1.038291 -0.701905 10.522767
-1.232767 -0.681725 1.775128
-1.228264 -0.678768 2.465657
-1.096139 -0.605406 3.055040
-1.418006 -0.782651 3.693065
-1.769274 -0.975901 4.287752
-1.718844 -0.947474 4.940228
-1.064535 -0.584557 9.078635
-1.165929 -0.639764 9.841221
-0.907548 -0.497767 10.413749
-1.315913 -0.581409 1.862948
-1.278907 -0.564718 2.394241
-1.125831 -0.496896 2.812835
-1.467503 -0.647126 3.551153
-1.859910 -0.819343 4.375316
-1.766096 -0.777720 4.720770
-0.832287 -0.365388 7.668130
-0.881068 -0.386530 8.316273
-1.109577 -0.486403 8.973264
-1.183998 -0.518557 9.803630
-0.993058 -0.434725 10.319159
-1.126683 -0.378143 1.354811
-1.296421 -0.434757 1.929771
-1.236709 -0.414415 2.482122
-1.692497 -0.565440 4.588967
-1.748426 -0.583412 5.455529
-1.218703 -0.406465 5.891408
-0.997713 -0.332429 6.671855
-0.696055 -0.231732 7.344877
-0.620980 -0.206535 8.112534
-1.025851 -0.340848 8.776833
-1.213472 -0.402830 9.399317
-1.271423 -0.421566 10.298328
-1.388059 -0.322014 1.604308
-1.328386 -0.307784 2.262026
-1.238447 -0.286408 3.252270
-1.480377 -0.341909 3.911825
-1.815990 -0.419119 4.246005
-1.887104 -0.434810 5.097146
-1.762740 -0.405706 5.697374
-1.391678 -0.320010 6.253195
-1.071862 -0.246201 6.906264
-0.847725 -0.194407 7.830220
-0.877525 -0.200931 8.679448
-1.094760 -0.250445 9.123226
-1.278417 -0.292043 9.866308
-0.983118 -0.224405 10.412218
-1.177455 -0.163971 1.363796
-1.421705 -0.197458 2.212275
-1.256893 -0.174171 2.963108
-1.692440 -0.233189 4.762245
-1.069983 -0.145545 9.154576
-1.330952 -0.180665 9.798272
-1.228790 -0.166523 10.398592
-1.305676 -0.061241 1.188544
-1.412649 -0.065847 1.873293
-1.293667 -0.060041 2.356758
-1.249402 -0.057494 3.299575
-1.182612 -0.054053 4.052370
-1.524635 -0.069229 4.725431
-1.811214 -0.082036 4.954179
-1.555032 -0.069791 5.989487
-1.228500 -0.054889 6.542606
-1.306519 -0.057360 8.458360
-1.168502 -0.050978 9.197506
-1.271601 -0.055023 10.083459
-1.378225 0.058948 1.696092
-1.328670 0.057272 2.489184
-1.263796 0.054844 3.189527
-1.413391 0.061753 3.879121
-1.745609 0.076758 4.504170
-1.911380 0.084554 5.109843
-1.813266 0.080674 5.732634
-1.434869 0.064208 6.427405
-1.305418 0.059519 8.554156
-1.184942 0.054295 9.163833
-1.363564 0.062929 9.957461
-1.177712 0.054588 10.536639
-1.273785 0.173107 1.279038
-1.375515 0.187276 1.856862
-1.299149 0.177274 2.571646
-1.227812 0.167857 3.182971
-0.994239 0.136265 4.019524
-1.891912 0.260381 5.245625
-1.558899 0.214880 5.802936
-1.183309 0.163350 6.363036
-1.315994 0.182853 8.538906
-1.232416 0.171639 9.370320
-1.182631 0.164911 9.823250
-1.324944 0.314404 1.831465
-1.292572 0.307089 2.471291
-1.222309 0.290733 3.099875
-1.336081 0.318045 3.513034
-1.690153 0.403052 4.433499
-1.851859 0.442006 4.886296
-1.713591 0.409394 5.423885
-1.403814 0.335907 6.333453
-1.304122 0.313070 8.183238
-1.253524 0.301379 9.067654
-1.311050 0.315624 9.816156
-1.141523 0.275077 10.439177
-1.361974 0.460705 2.247945
-1.187782 0.402078 2.792772
-1.148755 0.389201 3.421305
-1.384839 0.469619 4.063359
-1.689254 0.573434 4.760170
-1.659808 0.563908 5.370906
-1.329585 0.452143 6.128275
-0.839750 0.285809 6.865607
-0.524554 0.178731 7.798254
-0.818829 0.279221 8.340589
-1.375109 0.469405 9.003261
-1.379859 0.471371 9.570087
-1.290399 0.441290 10.457861
-1.043510 0.458038 1.383861
-1.367634 0.600709 1.949128
-1.156007 0.508121 2.593482
-1.148648 0.505451 3.580166
-1.173317 0.516571 4.031205
-1.438403 0.633780 4.691621
-1.714473 0.756140 5.486560
-1.479945 0.653180 6.180171
-1.004304 0.443553 6.897255
-0.590940 0.261140 7.527061
-0.902074 0.398998 8.310193
-1.297862 0.574359 8.687012
-1.376191 0.609484 9.373034
-1.298029 0.575314 10.136048
-0.935481 0.515640 1.468168
-1.237633 0.682736 2.258583
-1.107449 0.611134 2.620375
-1.093425 0.603934 3.526361
-1.054994 0.582988 4.022379
-1.263708 0.698673 4.500920
-1.618847 0.895820 5.345740
-1.429319 0.791520 6.131191
-0.957330 0.530410 6.757044
-0.597169 0.331090 7.576326
-0.842639 0.467448 8.114277
-1.341979 0.744984 8.732493
-1.407899 0.782129 9.467695
-1.305612 0.725829 10.289003
-0.791786 0.544772 1.300729
-1.027029 0.707084 2.008876
-1.067646 0.735292 2.374669
-1.042285 0.718355 3.198491
-0.992239 0.684360 4.022379
-1.103018 0.761209 4.661110
-1.289822 0.890421 5.000937
-1.241522 0.857834 6.007426
-1.290264 0.892954 7.853301
-1.341707 0.929172 8.611543
-1.352537 0.937163 9.227298
-0.808420 0.670692 0.990091
-0.928378 0.770711 1.741062
-1.017885 0.845498 2.399711
-0.957369 0.795617 2.974323
-1.074988 0.893955 3.736313
-1.040946 0.865985 4.203973
-1.001102 0.833338 4.922512
