-0.400473 -1.484070 2.262693
-0.592682 -1.957178 4.458451
-0.484845 -1.641581 5.290151
-0.375349 -1.403566 5.941108
-0.188885 -1.059001 6.742607
-0.172723 -1.097406 7.379926
-0.247474 -1.222995 8.240436
-0.343196 -1.401838 8.812558
-0.344887 -1.393224 9.759026
-0.602490 -1.417233 0.617149
-0.569327 -1.401571 1.067005
-0.512779 -1.429056 2.076616
-0.652878 -1.837987 4.105809
-0.460351 -1.321184 8.790261
-0.471365 -1.333641 9.492049
-0.698595 -1.375897 1.254928
-0.604994 -1.342608 2.066607
-0.642886 -1.305802 2.761651
-0.470354 -1.189621 8.443752
-0.542017 -1.289827 9.353222
-0.726980 -1.281184 0.636184
-0.690027 -1.300458 1.021139
-0.733987 -1.226112 1.854440
-1.013405 -1.552859 4.233164
-0.197880 -0.558142 7.002807
-0.618904 -1.207223 8.674945
-0.623929 -1.214881 9.466986
-0.797775 -1.120842 0.677429
-0.774064 -1.148489 1.168545
-0.770348 -1.156054 1.908808
-0.752582 -1.193585 2.846396
-0.968195 -1.393320 3.614290
-1.087429 -1.396086 4.161210
-0.745634 -1.163629 8.757789
-0.716745 -1.144092 9.448555
-0.824569 -1.019551 0.670609
-0.871692 -1.026538 1.341323
-0.817373 -1.066796 1.916393
-0.812663 -1.117455 2.869150
-1.054545 -1.226646 3.629035
-1.223909 -1.311228 4.271812
-1.241890 -1.246203 5.007647
-0.968138 -1.036553 5.647986
-0.865319 -1.013798 8.055128
-0.869088 -1.098399 8.762273
-0.833287 -1.038133 9.536249
-0.844769 -0.837696 0.527466
-0.847398 -0.897903 1.171231
-0.863848 -0.934924 1.963747
-0.829326 -0.920711 2.848263
-1.038877 -0.998068 3.559691
-1.278811 -1.213822 4.290887
-1.258209 -1.170818 5.032451
-0.961952 -0.967693 5.738866
-0.925162 -0.917585 8.004478
-1.000820 -1.007473 8.834647
-0.918263 -0.945198 9.565517
-0.840582 -0.853900 0.620830
-0.892606 -0.898058 1.316905
-0.917006 -0.793678 1.937674
-0.870797 -0.796829 2.536927
-0.919523 -0.804677 3.349502
-1.193309 -0.941466 4.191964
-1.274695 -1.096910 4.998693
-0.983037 -0.838613 5.622503
-0.585514 -0.577425 6.408612
-0.402785 -0.519907 6.991821
-0.584274 -0.716761 7.777425
-1.048195 -0.931587 8.462815
-0.993138 -0.874961 9.489515
-0.825327 -0.688291 0.911339
-0.944740 -0.726580 1.888053
-0.905229 -0.683754 2.568763
-0.873840 -0.670211 3.175959
-1.034722 -0.709847 3.842384
-0.268192 -0.511464 6.904470
-0.520132 -0.694873 7.628167
-1.145980 -0.806071 8.423691
-0.823385 -0.576342 1.068050
-0.997848 -0.608924 1.686506
-0.940716 -0.608615 2.223345
-0.892855 -0.566858 3.193575
-1.019160 -0.626243 3.824936
-1.184047 -0.731303 5.194181
-0.721646 -0.483305 6.063822
-0.275130 -0.488379 6.825555
-0.565923 -0.669462 7.704610
-1.242276 -0.640875 8.236408
-1.235034 -0.693014 8.899151
-0.986935 -0.601131 9.815023
-0.836684 -0.528221 0.871982
-1.012880 -0.519488 1.671275
-0.952483 -0.529267 2.262476
-0.909499 -0.484480 3.155546
-1.009266 -0.534678 3.828267
-1.074990 -0.493595 4.515387
-0.966525 -0.488798 5.469511
-0.657680 -0.444151 6.169231
-0.282617 -0.511107 6.922176
-1.292717 -0.554493 8.350207
-1.237550 -0.607773 9.021863
-0.914532 -0.496910 10.043220
-0.731082 -0.457750 0.331735
-0.828448 -0.455098 1.076852
-1.013167 -0.424483 1.797294
-0.944926 -0.420603 2.571170
-0.923768 -0.410043 3.039364
-1.005340 -0.379140 4.002874
-1.079616 -0.388404 4.800948
-0.904437 -0.387314 5.547878
-0.661598 -0.389524 6.099132
-0.542966 -0.443861 6.958441
-0.952846 -0.406774 7.533957
-1.331863 -0.453884 8.347408
-1.247481 -0.465234 9.150389
-0.815879 -0.505611 10.192209
-0.681045 -0.356845 0.445355
-0.776287 -0.401520 1.218587
-1.006516 -0.340289 1.781582
-0.941018 -0.314375 2.510514
-0.910562 -0.340033 3.293009
-1.010722 -0.293641 4.157593
-1.068848 -0.345297 4.747611
-0.889306 -0.327269 5.523673
-0.407378 -0.338159 6.253388
-0.632012 -0.369559 6.968215
-1.285987 -0.329162 7.817502
-1.334150 -0.330928 8.529848
-1.189814 -0.410125 9.264644
-0.365761 -0.281996 0.526797
-0.678579 -0.234592 1.269077
-0.990940 -0.264874 1.865157
-0.914156 -0.230629 2.880947
-0.922560 -0.282942 3.435035
-1.003316 -0.211889 4.186033
-1.061280 -0.272030 4.939661
-1.182721 -0.203447 7.371548
-1.346294 -0.205417 7.962061
-1.347163 -0.201071 8.682380
-1.103661 -0.281490 9.584239
-0.326019 -0.285779 0.537035
-0.607165 -0.199375 1.366599
-0.962880 -0.167984 2.066500
-0.911409 -0.185004 2.701551
-0.931084 -0.202911 3.547594
-1.017486 -0.117318 4.512110
-0.984168 -0.143259 5.088667
-1.047634 -0.142064 7.223533
-1.361595 -0.112486 8.124359
-1.354179 -0.133752 8.711146
-1.062963 -0.222167 9.662309
-0.334745 -0.286172 0.549519
-0.624945 -0.197586 1.340176
-0.955030 -0.100721 1.940398
-0.879250 -0.076100 2.858780
-0.935292 -0.070289 3.717740
-0.980309 -0.091665 4.166869
-0.966481 -0.081552 5.073199
-1.126180 0.059055 7.524126
-1.343208 0.026917 8.137657
-1.364319 -0.001002 8.601309
-1.162180 -0.080500 9.505143
-0.905484 0.000918 0.997546
-0.929406 0.005525 1.687343
-0.908852 -0.024516 2.348592
-0.879214 -0.083371 3.184819
-0.952183 -0.036404 3.956426
-1.024444 -0.036729 4.579356
-0.855141 -0.129703 5.387811
-0.356791 -0.351550 6.318800
-0.663959 -0.270965 6.990941
-1.222262 0.080740 7.739712
-1.344777 0.140330 8.408101
-1.239996 0.046595 9.246268
-0.296673 -0.289153 0.533153
-0.595657 -0.184905 1.359418
-0.931016 0.035190 2.074043
-0.861671 0.013534 2.885096
-0.915628 0.012479 3.532940
-1.010906 -0.021464 4.494320
-0.918832 -0.012328 5.068004
-0.558806 -0.192623 5.998917
-1.030613 0.134497 7.477536
-1.283254 0.264351 8.208847
-1.307365 0.288580 8.731985
-1.093250 0.160550 9.604164
-0.317536 -0.285866 0.525868
-0.635780 -0.139384 1.217908
-0.932590 0.108142 1.982410
-0.860324 0.054225 2.720184
-0.929600 0.074099 3.580667
-0.963771 0.015427 4.208351
-1.036270 0.062267 4.767041
-0.851103 -0.039599 5.542910
-0.933013 0.155434 7.222839
-1.113837 0.341644 7.862209
-1.276177 0.369654 8.601808
-1.100868 0.274897 9.568568
-0.874981 0.238336 1.558558
-0.856818 0.186209 2.540265
-1.197762 0.545177 3.144194
-1.451092 0.832704 3.930035
-0.981779 0.329493 7.559642
-1.209577 0.476471 8.442994
-0.922847 0.332057 1.780477
-0.850713 0.240515 2.508710
-1.199126 0.595034 3.103900
-1.456654 0.918563 3.913412
-1.349371 0.660414 4.637491
-0.848035 0.283767 7.017817
-0.925119 0.399999 7.623165
-1.120407 0.559211 8.327454
-1.099586 0.544410 9.235187
-0.869907 0.494343 1.398016
-0.923451 0.404996 1.968567
-0.861028 0.276168 2.673018
-1.143455 0.893593 3.114616
-1.333215 1.053678 4.061108
-0.822033 0.336686 7.256694
-0.891355 0.485374 7.762894
-1.042269 0.709011 8.690515
-1.010836 0.565266 9.409412
-0.888869 0.522076 1.490403
-0.885391 0.534726 2.094564
-1.101759 0.855919 2.845412
-1.352457 1.270049 3.806102
-1.286413 1.122090 4.074537
-0.802863 0.556309 7.826463
-0.968666 0.764581 8.687230
-0.937103 0.593165 9.583405
-0.845358 0.843102 0.870048
-0.835976 0.942883 1.339693
-0.871374 0.627163 2.084214
-1.065380 0.977240 2.912140
-1.047576 1.230917 4.971309
-0.702442 0.482424 7.337582
-0.739364 0.634709 7.958612
-0.926803 0.810366 8.782989
-0.909880 0.606866 9.487700
-0.804560 0.922102 0.840188
-0.820361 0.954272 1.308345
-0.886090 0.661081 1.976941
-0.987166 1.032835 2.853840
-1.068851 1.585429 4.312064
-0.662573 0.491632 7.530518
-0.656878 0.644062 7.914984
-0.796544 0.877391 8.679329
-0.871296 0.667716 9.652316
-0.711232 1.036738 0.783944
-0.700844 1.135437 1.476649
-0.721930 1.046833 2.022551
-1.015188 1.145746 3.009060
-1.012728 1.702486 4.333107
-0.623144 0.502954 7.321727
-0.647664 0.701358 8.060878
-0.781583 0.925153 8.861584
-0.751741 0.872734 9.839006
-0.677623 1.085328 0.689156
-0.660274 1.186601 1.500319
-0.632195 1.128303 2.047622
-0.862526 1.932710 4.331065
-0.557382 0.498334 7.502705
-0.579467 0.704891 8.026026
-0.660889 1.004585 8.792034
-0.695155 1.014257 9.723263
-0.488426 1.103751 1.073034
-0.564257 1.176585 1.986052
-0.559229 1.009072 2.632117
-0.703143 2.094594 4.155031
-0.719092 1.645273 4.986474
-0.644673 1.200278 5.831212
-0.483459 0.660971 7.042471
-0.507783 0.738644 8.055257
-0.587123 1.061923 8.809169
-0.604184 1.111449 9.569446
-0.454105 1.255384 1.361821
-0.460069 1.242148 1.964181
-0.455991 1.385514 2.514044
-0.555712 2.170208 4.153857
-0.465879 2.199215 4.833932
-0.421917 1.898687 5.671735
-0.515682 0.675170 7.891950
-0.468081 0.970093 8.517340
-0.456975 1.200854 9.311340
-0.363145 1.320460 1.742050
-0.291061 1.468629 2.616903
-0.309109 2.271279 4.525252
-0.508417 0.532590 7.655083
-0.362213 0.977042 8.449797
-0.376161 1.252306 9.222793
-0.253375 1.245462 0.813358
-0.177263 1.377017 1.757650
-0.054696 1.968340 3.837724
-0.152492 2.284272 4.440481
-0.086924 2.264698 5.037470
-0.284185 0.973623 8.381751
-0.219496 1.285967 8.838660
-0.327246 1.106782 9.984776
-0.098481 1.283407 0.776520
0.015716 1.444733 1.508767
-0.082214 1.368111 2.073456
0.091681 2.256673 4.371171
0.111414 2.254397 4.947781
-0.263370 0.966838 8.350524
-0.086459 1.375040 8.951232
-0.126735 1.273351 9.652966
0.044733 1.288794 0.763893
0.127741 1.455736 1.510744
0.000096 1.387232 2.031176
0.115441 1.464737 2.899930
0.233100 1.863201 3.728532
0.288038 2.186648 4.393882
0.283718 2.203569 4.974347
-0.267055 0.824098 8.054417
-0.081783 1.287738 8.705905
0.017129 1.306590 9.615977
0.141935 1.294375 0.679371
0.218352 1.419593 1.358137
0.138481 1.405951 2.105515
0.259433 1.530129 2.918416
0.441730 2.079304 4.404235
0.439476 2.131683 5.095376
0.455606 1.910839 5.782806
0.036864 1.060313 7.946303
0.170801 1.442476 8.822517
0.039160 1.315060 9.587930
0.200604 1.283625 0.665296
0.305916 1.457433 1.491136
0.413868 1.454348 1.949472
0.550792 1.775641 4.096508
0.588135 2.017148 4.861114
0.559284 1.896147 5.637146
0.468689 1.539803 6.572420
0.346975 1.432931 7.113792
0.362970 1.469693 7.931937
0.304369 1.471498 8.682950
0.225644 1.372839 9.393900
0.252465 1.275042 0.675443
0.416266 1.430010 1.420542
0.536824 1.442563 2.057549
0.558239 1.439251 2.674793
0.570507 1.503103 3.263010
0.680349 1.660431 4.243515
0.715746 1.851443 5.002700
0.695017 1.771048 5.555568
0.530092 1.607694 6.315252
0.380939 1.445449 7.097825
0.433548 1.475614 8.034420
0.398474 1.472248 8.599329
0.352287 1.348776 9.495591
0.453689 1.261043 0.716673
0.685332 1.355031 1.299905
0.690812 1.435192 1.940331
0.663021 1.403950 2.554947
0.673655 1.469663 3.212628
0.755162 1.522104 3.884910
0.855881 1.599497 4.679853
0.807833 1.622476 5.547528
0.783160 1.569049 6.133110
0.787811 1.532269 7.039618
0.662501 1.488691 7.695127
0.632793 1.463750 8.385296
0.566270 1.363556 9.394412
0.756170 1.208179 0.824944
0.891926 1.363225 1.626682
0.810443 1.373043 2.275751
0.790588 1.403953 3.024350
0.847771 1.460969 3.751101
0.932610 1.547583 4.681266
0.897114 1.520462 5.421205
0.882843 1.516628 6.179026
0.939479 1.536664 6.830121
0.830534 1.501546 7.415654
0.803938 1.454472 8.283431
0.754780 1.368283 9.319935
0.952012 1.316258 2.379555
0.979825 1.305667 2.714481
1.005467 1.384108 3.702812
1.101671 1.417089 4.407847
1.096337 1.349888 5.083463
1.103824 1.417739 5.804969
1.148225 1.469130 6.456157
1.048132 1.462354 7.420908
1.016025 1.435795 8.067396
0.985151 1.416105 8.858574
0.787175 1.277862 9.575285
0.791604 1.112111 0.713836
1.057940 1.195488 1.311384
1.128433 1.211353 2.079365
1.103093 1.234676 2.650353
1.168603 1.270460 3.571581
1.225012 1.291526 4.100471
1.185653 1.275975 5.033343
1.250781 1.346083 5.613544
1.282815 1.370758 6.289937
1.303661 1.370743 7.120787
1.218841 1.376445 7.743937
1.193575 1.365748 8.560667
1.087517 1.292512 9.376364
1.133168 1.178553 1.490855
1.203620 1.136685 2.161430
1.249340 1.126414 2.817674
1.273640 1.186100 3.590168
1.341524 1.220175 4.271462
1.281061 1.189430 4.975962
1.346988 1.201948 5.785947
1.425124 1.305410 6.416737
1.434759 1.274950 7.166345
1.340540 1.306975 7.807888
1.364661 1.268277 8.779839
1.196630 1.210994 9.488877
1.301071 1.029849 2.131863
1.327737 1.030519 2.755121
1.378565 1.080585 3.641574
1.449333 1.094770 4.233050
1.369831 1.082142 4.945699
1.417915 1.119609 5.772423
1.548916 1.195074 6.670666
1.585984 1.137990 7.304584
1.569305 1.136096 8.147091
1.501855 1.152731 8.741606
1.324878 1.118168 9.533746
1.393812 0.896012 2.273264
1.403221 0.925317 2.728600
1.484508 0.930715 3.600195
1.552714 0.970346 4.364587
1.533773 0.956887 5.290570
1.500564 0.983808 5.843191
1.690541 0.994751 6.486410
1.665781 1.041848 7.245207
1.687531 1.001478 8.020338
1.648312 0.994214 8.741275
1.522942 1.005206 9.408559
1.265052 0.863214 1.106756
1.475990 0.749728 1.653551
1.487088 0.774051 2.561588
1.546636 0.746692 3.215345
1.614835 0.747965 3.932462
1.634242 0.772048 4.636267
1.607452 0.785421 5.220896
1.724822 0.817616 6.165990
1.778759 0.848958 6.574749
1.826983 0.777332 7.624682
1.779385 0.843499 8.270846
1.728732 0.880931 8.846106
1.529404 0.656248 1.695977
1.555586 0.633745 2.505212
1.602643 0.630123 3.236826
1.639503 0.663883 3.815857
1.663302 0.648698 4.699413
1.701054 0.663447 5.330466
1.696042 0.604965 5.907557
1.876177 0.680551 6.931621
1.872774 0.681975 7.593223
1.862650 0.680217 8.203149
1.617758 0.484122 1.795608
1.621840 0.476162 2.582138
1.658458 0.463768 3.147013
1.720027 0.504735 4.065603
1.732318 0.500225 4.572864
1.752304 0.505930 5.532717
1.820729 0.494419 6.089301
1.938223 0.499259 6.786324
1.917469 0.569619 7.400502
1.925382 0.493078 8.270156
1.878438 0.543213 9.043823
1.651477 0.342247 2.113912
1.697958 0.341288 3.134056
1.756608 0.253610 3.723533
1.762613 0.291823 4.625427
1.768074 0.298336 5.268162
1.812701 0.303474 5.953104
1.984594 0.305247 6.671862
1.995603 0.299471 7.431936
1.977444 0.296587 8.143952
1.963312 0.319146 8.806874
1.817817 0.331629 9.657540
1.685709 0.211698 2.079769
1.703822 0.177099 2.677473
1.773661 0.163839 3.771870
1.811741 0.192697 4.241677
1.718030 0.234016 5.102686
1.787322 0.190253 5.791643
2.006276 0.125842 6.505739
2.028328 0.153543 7.174348
2.009616 0.162268 7.866569
1.993805 0.156807 8.578647
1.894686 0.204034 9.493348
1.742855 -0.003618 1.874524
1.729909 -0.008324 2.701784
1.775893 -0.025347 3.354534
1.837924 -0.009011 4.250883
1.745539 0.014014 4.797264
1.832189 0.002303 5.572054
2.024473 -0.058130 6.460632
2.051506 -0.041208 6.942024
2.034642 -0.120683 7.664945
2.018013 -0.068389 8.412248
1.986706 -0.049549 9.187170
1.768719 -0.145520 1.825198
1.730266 -0.215211 2.257317
1.755830 -0.118031 2.982612
1.794703 -0.175362 3.702123
1.822569 -0.187609 4.560787
1.837175 -0.263893 5.261196
1.977540 -0.238532 6.149457
2.041052 -0.185928 6.597387
2.033432 -0.232085 7.638153
2.014791 -0.224193 8.356870
1.981027 -0.249107 9.196718
1.813296 -0.148412 9.884414
1.733386 -0.321161 2.318519
1.776648 -0.354011 3.249986
1.826419 -0.317800 4.013321
1.797874 -0.319500 4.645581
1.818873 -0.386494 5.235965
1.999753 -0.387647 6.217624
2.051488 -0.460664 6.884718
2.033949 -0.416322 7.416769
2.004270 -0.443014 8.063244
1.968654 -0.388383 9.142462
1.845368 -0.397334 9.753112
1.764085 -0.501340 1.852988
1.733795 -0.548169 2.552819
1.762587 -0.530197 3.173951
1.778952 -0.555365 3.789605
1.780783 -0.521390 4.639393
1.813006 -0.543934 5.325927
1.867185 -0.599777 5.986249
2.020953 -0.646375 6.827782
1.974304 -0.639651 7.620256
1.946803 -0.606804 8.453631
1.924634 -0.631039 8.915025
1.793585 -0.503965 9.823012
1.582333 -0.539370 1.267877
1.727074 -0.674312 2.022587
1.721463 -0.696028 2.489681
1.746645 -0.639159 3.162781
1.768944 -0.690350 4.118207
1.742712 -0.686376 4.697282
1.788016 -0.699766 5.428710
1.892551 -0.796453 6.190619
1.981137 -0.800618 6.887177
1.928270 -0.782420 7.576764
1.893894 -0.765442 8.417628
1.577448 -0.589566 1.276320
1.682865 -0.879733 2.038622
1.682373 -0.857091 2.587706
1.684175 -0.858863 3.413876
1.701323 -0.873174 4.154040
1.656580 -0.898669 5.114488
1.707856 -0.928831 5.592612
1.803296 -0.981994 6.272472
1.882742 -0.993249 7.143546
1.830792 -0.965779 7.789043
1.797720 -0.965658 8.530385
1.766618 -0.921882 9.386660
1.555066 -1.095179 1.434045
1.632307 -1.030288 1.868706
1.627262 -0.991377 2.563261
1.612060 -1.013959 3.480119
1.616736 -1.009111 3.965169
1.619534 -1.049439 4.902111
1.613217 -1.019683 5.352555
1.706828 -1.121383 6.301096
1.782676 -1.166839 6.989010
1.723683 -1.128176 7.875038
1.719501 -1.098716 8.366663
1.441268 -1.219943 1.305522
1.534946 -1.203136 1.905136
1.521433 -1.150539 2.717581
1.534469 -1.137496 3.521253
1.534451 -1.176003 4.408424
1.587556 -1.134663 4.925466
1.543166 -1.300619 6.540765
1.651040 -1.308992 7.085340
1.607680 -1.269992 7.965340
1.590546 -1.267586 8.365623
1.569397 -1.183375 9.472889
1.422351 -1.317534 2.082033
1.405777 -1.283599 2.715198
1.409192 -1.278527 3.277052
1.466468 -1.245994 4.295579
1.465918 -1.443045 4.881950
1.554094 -1.666658 5.599789
1.490324 -1.490810 6.224006
1.491001 -1.399318 6.894273
1.484657 -1.403929 7.904096
1.508842 -1.359828 8.303276
1.215477 -1.520144 1.604945
1.258919 -1.431344 2.288123
1.249462 -1.408237 3.005885
1.345591 -1.303982 3.907645
1.416504 -1.596046 4.656209
1.486404 -1.926256 5.211007
1.408394 -1.535666 6.168397
1.307795 -1.485377 6.882206
1.306911 -1.542945 7.408659
1.314560 -1.534375 8.073297
1.326201 -1.488256 9.013492
1.230652 -1.350737 9.782819
1.121783 -1.515786 2.385819
1.141056 -1.493923 3.042142
1.180637 -1.380838 3.757694
1.325196 -1.787676 4.433276
1.366662 -2.099515 5.228178
1.259716 -1.919861 5.884761
1.160679 -1.659632 6.533675
1.182192 -1.590176 7.446756
1.168969 -1.619461 8.172796
1.209441 -1.585630 8.795780
1.145570 -1.441687 9.717885
0.884922 -1.434209 0.743453
0.905147 -1.584377 1.298960
0.981080 -1.600947 2.222702
0.959895 -1.583334 2.618223
1.016775 -1.504038 3.541586
1.118579 -1.989706 4.348382
1.149084 -2.054404 5.737999
1.072178 -1.716461 6.430132
0.975806 -1.598359 7.239389
0.963322 -1.674852 7.759938
0.986754 -1.694088 8.493415
0.937053 -1.620438 9.393546
0.851574 -1.592191 1.231837
0.845266 -1.686178 1.797895
0.835342 -1.642288 2.391777
0.820816 -1.701563 3.092229
1.008749 -2.237452 5.443790
0.902638 -2.021869 6.083881
0.880634 -1.686926 6.872859
0.828143 -1.696155 7.784022
0.849736 -1.724125 8.390052
0.840619 -1.703159 9.076939
0.773969 -1.426048 9.952100
0.591132 -1.623916 1.102971
0.619315 -1.780388 1.680321
0.691368 -1.707483 2.207022
0.638960 -1.770062 2.979345
0.785553 -2.287719 5.312747
0.662063 -1.715208 8.101073
0.643354 -1.762565 8.959608
0.682180 -1.656557 9.525418
0.489780 -1.588380 0.819339
0.499961 -1.787238 1.506877
0.511208 -1.742888 2.291247
0.590266 -1.793438 2.974095
0.519410 -2.228326 4.394872
0.561462 -2.264025 5.179746
0.549574 -2.130436 5.773923
0.508582 -1.709212 8.114199
0.516354 -1.755513 8.690492
0.498956 -1.646563 9.590424
0.346920 -1.633158 0.866628
0.290324 -1.788143 1.308740
0.307985 -1.765540 2.050020
0.354341 -2.216829 4.325816
0.401090 -2.207130 5.176737
0.361038 -2.189755 5.585949
0.349769 -1.755530 6.573671
0.394445 -1.623276 7.177505
0.371437 -1.667518 8.020752
0.366931 -1.733120 8.623411
0.367818 -1.669007 9.463029
0.209037 -1.676458 0.706644
0.166915 -1.843866 1.435500
0.157180 -1.756250 1.996372
0.107401 -2.143981 4.087185
0.254823 -2.317837 4.973688
0.292691 -2.176011 5.666997
0.196633 -1.544631 7.832213
0.150284 -1.651527 8.589765
0.190459 -1.615321 9.608143
0.041522 -1.662148 0.768975
0.011534 -1.824725 1.464756
0.043641 -1.711001 2.204550
0.133734 -1.409841 6.849062
0.049085 -1.405247 7.494203
0.031720 -1.499191 8.102083
0.056212 -1.655782 8.822616
0.012059 -1.581803 9.532004
-0.119205 -1.638829 0.754723
-0.180202 -1.790848 1.276616
-0.093052 -1.673333 2.134813
-0.103034 -1.717840 2.821814
-0.219989 -2.067017 4.135929
-0.009840 -1.203726 7.186130
-0.060574 -1.415449 8.167499
-0.122390 -1.555317 8.837775
-0.084650 -1.540332 9.597369
-0.275857 -1.591953 2.095333
-0.375310 -2.012705 4.106519
-0.015674 -1.133760 7.088053
-0.098407 -1.290089 8.026272
-0.230879 -1.439876 8.714271
-0.190755 -1.505284 9.510672
-0.372300 -1.527543 0.820414
-0.409506 -1.585894 1.755438
-0.308533 -1.526790 2.468098
-0.283462 -1.352103 3.142371
-0.558410 -1.976544 4.653341
-0.404232 -1.639484 5.336253
-0.252124 -1.350478 7.697435
-0.273565 -1.235908 8.321459
-0.376596 -1.430263 9.095468
-0.488865 -1.476074 0.723543
-0.570358 -1.525371 1.446935
-0.489599 -1.433020 2.166732
-0.527844 -1.522380 3.002531
-0.793351 -1.824757 4.497350
-0.696124 -1.676070 5.133057
-0.489613 -1.385842 5.876875
-0.392180 -1.133492 6.540213
-0.264213 -1.037887 7.416776
-0.288509 -1.184627 8.242881
-0.429953 -1.364953 8.890067
-0.414826 -1.342545 9.771063
-0.655172 -1.369815 0.625522
-0.653694 -1.428986 1.420108
-0.632467 -1.343723 1.896728
-0.614895 -1.324577 2.736541
-0.189033 -0.577569 7.042134
-0.349686 -1.072703 8.153448
-0.541567 -1.277238 8.801835
-0.531703 -1.294887 9.397613
-0.742519 -1.318112 1.322257
-0.716272 -1.253294 1.844205
-0.638653 -1.259437 2.566369
-1.088292 -1.596956 4.810786
-0.869088 -1.373813 5.531849
-0.472153 -1.162711 8.382656
-0.768857 -1.188202 0.678090
-0.774291 -1.207742 1.232075
-0.756621 -1.164008 1.960975
-0.743359 -1.212744 2.845521
-0.717718 -1.178611 8.766397
-0.693580 -1.152334 9.550136
-0.802451 -1.058966 0.751038
-0.862257 -1.058304 1.305061
-0.801072 -1.047714 2.121948
-0.797764 -1.116953 2.830727
-1.249720 -1.332742 4.328060
-1.219848 -1.248168 5.082329
-0.946679 -1.054603 5.724845
-0.839512 -1.036001 8.074943
-0.852956 -1.115578 8.834772
-0.812978 -1.054352 9.568029
-0.821185 -0.991762 0.734038
-0.882224 -0.977201 1.326276
-0.854162 -0.940475 2.034628
-0.821156 -0.950046 2.864605
-1.056449 -1.050217 3.606969
-1.292846 -1.230677 4.338286
-1.249010 -1.193106 5.058889
-0.961780 -0.986719 5.754442
-0.577253 -0.942383 6.341427
-0.574341 -0.703483 7.282923
-0.715500 -0.882992 8.012890
-0.957031 -1.046495 8.830480
-0.904209 -0.979844 9.466866
-0.840841 -0.853435 0.627735
-0.917446 -0.897965 1.419356
-0.896482 -0.833200 2.001818
-0.830542 -0.805109 2.987157
-1.036915 -0.868463 3.663634
-1.321993 -1.162598 4.382062
-1.262684 -1.148411 5.041874
-0.960359 -0.969533 5.779344
-0.567952 -0.629870 6.508831
-0.544937 -0.689393 7.407341
-0.997351 -0.941360 8.253668
-1.053893 -0.956114 8.722869
-0.935027 -0.927722 9.569505
-0.818636 -0.629500 0.526433
-0.880812 -0.733114 1.316253
-0.921615 -0.736679 2.057000
-0.886807 -0.676484 2.786744
-1.000221 -0.823240 3.557061
-0.560116 -0.672726 7.459638
-1.030059 -0.742100 7.952441
-1.175111 -0.802932 8.870322
-0.988560 -0.825898 9.625521
-0.802931 -0.569537 0.483858
-0.823243 -0.547697 1.159405
-0.958218 -0.650436 1.934127
-0.934851 -0.596507 2.406221
-0.887518 -0.594304 3.181012
-1.017810 -0.608332 3.878338
-1.176035 -0.681476 4.888169
-0.956058 -0.576354 5.553124
-0.606381 -0.489502 6.318098
-0.456338 -0.486924 6.956094
-0.925970 -0.736538 7.896238
-1.200266 -0.726958 8.501955
-1.124825 -0.661106 9.287240
-0.828908 -0.532915 0.753162
-1.002654 -0.538754 1.555902
-0.951415 -0.528425 2.278254
-0.924829 -0.513011 2.830483
-0.992341 -0.503107 3.727996
-1.075325 -0.488902 4.524690
-1.079001 -0.585399 5.339183
-0.701495 -0.461037 6.108144
-0.286408 -0.441750 6.652742
-1.224459 -0.618816 8.049946
-1.255891 -0.663563 8.845315
-0.987800 -0.508769 9.847602
-0.765334 -0.486593 0.425852
-0.834189 -0.455375 1.038648
-0.996235 -0.434133 1.920045
-0.942794 -0.453747 2.623556
-0.909698 -0.442106 3.234395
-1.019990 -0.398190 4.194677
-1.084465 -0.399844 4.847606
-0.891278 -0.396278 5.601942
-0.596563 -0.478979 6.356015
-0.783957 -0.437317 7.105447
-1.170793 -0.406447 7.699023
-1.299688 -0.454777 8.581706
-1.169855 -0.541336 9.245922
-0.861933 -0.366849 0.884395
-1.030406 -0.372681 1.642541
-0.959646 -0.348899 2.270017
-0.928824 -0.336150 2.906273
-0.940384 -0.339641 3.530208
-1.026862 -0.334655 4.313476
-1.016288 -0.295719 5.159719
-1.175284 -0.217299 7.297274
-1.362242 -0.306498 8.098779
-1.330348 -0.346896 8.820275
-1.031027 -0.359138 9.724644
-0.562595 -0.288834 0.462370
-0.713702 -0.290681 1.251688
-0.993314 -0.280579 1.857244
-0.929107 -0.265011 2.616805
-0.907239 -0.263900 3.288314
-1.003494 -0.231106 4.161356
-1.067972 -0.305565 4.860632
-0.877985 -0.264980 5.488103
-0.336158 -0.364098 6.362973
-1.341203 -0.225454 7.934471
-1.343875 -0.271699 8.582420
-1.098180 -0.299620 9.593580
-0.691546 -0.251637 0.410056
-0.857730 -0.119745 1.053716
-0.975923 -0.189898 1.935556
-0.923923 -0.192189 2.507342
-0.897777 -0.165072 3.266246
-0.979424 -0.144216 4.020104
-1.050758 -0.197427 4.878334
-0.871241 -0.188328 5.399104
-0.444397 -0.303986 6.156942
-0.713824 -0.349970 7.099043
-1.203904 -0.071584 7.650614
-1.361428 -0.113465 8.556137
-0.659622 -0.190657 0.420075
-0.864362 -0.076117 1.016561
-0.963311 -0.115741 1.796646
-0.917638 -0.082803 2.354969
-0.889515 -0.120191 3.252630
-0.959905 -0.089176 3.923341
-1.026175 -0.075597 4.868468
-0.867452 -0.161640 5.424396
-0.379584 -0.339675 6.277446
-1.300522 -0.011368 7.854942
-1.363649 0.027762 8.460995
-1.215839 -0.048193 9.387026
-0.912552 -0.009333 1.010267
-0.929982 0.010093 1.667517
-0.915844 -0.032520 2.299017
-0.882451 -0.085919 3.248905
-0.960928 -0.055292 4.023499
-1.013265 -0.045204 4.503897
-0.859581 -0.133713 5.408208
-0.450855 -0.296190 6.137822
-0.674215 -0.265135 6.994010
-1.242442 0.058354 7.764538
-1.343525 0.141012 8.389415
-0.764575 -0.061808 0.858829
-0.842801 0.117939 1.500511
-0.910838 0.015927 2.261592
-0.870812 -0.052369 3.092938
-0.933593 0.015629 3.784651
-1.024717 -0.017649 4.609056
-0.864192 -0.101859 5.326122
-0.502276 -0.241628 6.022627
-0.690465 -0.136542 6.848721
-1.065947 0.178107 7.460463
-1.320363 0.227452 8.372636
-1.292134 0.183359 9.116038
-0.943276 -0.014557 10.121268
-0.926941 0.059338 2.090949
-0.860434 0.015362 2.875859
-0.931929 0.068133 3.646724
-1.032806 0.044281 4.546687
-0.876008 -0.063591 5.327511
-0.510172 -0.226254 6.001222
-0.760089 0.021904 6.764750
-1.069706 0.245723 7.547675
-1.254336 0.343285 8.253263
-1.285007 0.355023 8.804905
-1.040704 0.208677 9.758171
-0.351417 -0.281719 0.523648
-0.706488 -0.004617 1.282003
-0.921858 0.157311 2.106136
-0.860181 0.032268 2.912533
-1.343712 0.549851 4.319323
-1.169719 0.414473 8.109931
-1.244220 0.448907 8.754377
-1.076505 0.304320 9.513776
-0.741848 0.055878 1.229985
-0.926526 0.367322 2.023021
-0.852611 0.128659 2.701438
-1.435952 0.831110 3.994116
-1.063321 0.473321 7.999285
-1.146594 0.582630 8.591571
-1.039487 0.495278 9.494644
-0.877846 0.213115 2.348786
-1.425802 1.092264 3.870661
-0.883030 0.426873 7.613385
-1.073360 0.596235 8.312291
-1.047996 0.577758 9.338939
-0.911056 0.618310 1.570220
-0.842517 0.415012 2.396472
-1.124064 0.989318 3.165278
-1.359695 1.222966 3.860555
-1.258600 1.105563 4.509208
-0.814098 0.462416 7.600348
-0.939465 0.647565 8.186711
-0.884684 0.723155 0.910700
-0.858601 0.885562 1.440277
-0.851341 0.686629 2.141334
-1.061704 0.967944 2.893188
-1.136216 1.198828 4.817255
-0.698269 0.471984 7.264755
-0.784639 0.662259 8.063300
-0.930864 0.805583 8.776090
-0.913391 0.595290 9.606701
-0.814640 0.859445 1.075653
-1.081103 1.138496 3.185456
-1.161341 1.387591 4.104640
-0.669786 0.511613 7.159926
-0.691024 0.670187 8.011511
-0.837894 0.832931 8.614820
-0.885141 0.691213 9.454615
-0.720227 0.981204 0.975098
-0.781714 0.981037 1.814272
-0.651400 0.845792 2.537105
-1.025345 1.562799 4.569493
-0.812828 1.144070 5.592327
-0.579142 0.607287 7.053600
-0.609377 0.646019 7.892574
-0.691742 0.818862 8.374626
-0.789347 0.911754 9.368414
-0.608241 1.047988 0.998748
-0.711040 1.120357 1.507468
-0.664367 1.091195 2.360761
-0.919292 1.607989 4.717387
-0.792953 1.235291 5.458096
-0.488686 0.656910 6.714139
-0.559585 0.533651 7.634512
-0.583637 0.781193 8.209917
-0.707065 0.997716 9.180211
-0.558811 1.234168 2.481278
-0.694705 2.094627 4.091691
-0.744304 1.984112 4.484331
-0.766947 1.413431 5.161429
-0.458836 0.695628 6.735806
-0.537301 0.528742 7.601082
-0.511097 0.917726 8.453782
-0.584632 1.114267 9.251425
-0.459371 1.128258 1.021653
-0.424200 1.300900 1.693031
-0.571919 2.136186 4.505964
-0.605503 1.054739 6.104560
-0.494864 0.440475 6.841989
-0.526873 0.495136 7.571132
-0.429060 0.774970 8.079681
-0.479901 1.137817 8.847311
-0.419773 1.094447 9.930582
-0.270122 1.247815 0.799344
-0.327910 1.336403 1.500169
-0.359977 1.295574 2.126204
-0.318853 2.266044 4.453634
-0.353465 2.242643 4.865032
-0.352976 0.870115 8.227286
-0.351835 1.146321 8.732637
-0.368995 1.234737 9.466757
-0.240390 1.345584 1.426583
-0.234183 1.344210 1.915311
-0.170618 1.473999 2.697873
-0.072976 2.279962 4.922227
-0.178736 2.104155 5.498644
-0.226968 1.134105 8.602106
-0.303281 1.269209 9.368560
-0.098960 1.357745 1.318801
-0.161550 1.365463 1.915978
0.035088 1.969321 3.839753
0.032462 2.282381 4.801762
-0.202321 1.150035 8.605821
-0.210620 1.310417 9.320174
0.106276 1.456039 1.568500
0.195465 1.891867 3.767223
0.258737 2.214807 4.454552
0.283557 2.180040 5.190249
-0.253202 0.997536 8.399558
0.071118 1.284184 0.764933
0.216807 1.464700 1.641365
0.137873 1.406744 2.095523
0.133688 1.481383 2.861994
0.415420 2.111477 4.423862
0.428871 2.135751 5.096268
-0.051004 1.028527 8.159586
0.148985 1.437273 8.865705
0.058262 1.293582 9.650320
0.347659 1.414369 2.431726
0.255209 1.508353 2.948824
0.465444 1.717753 3.830025
0.505805 2.037850 4.493339
0.588077 2.023754 5.084428
0.567566 1.711809 6.034583
0.332565 1.492287 6.617397
0.350388 1.425521 7.388132
0.353944 1.471312 8.123685
0.404128 1.417385 2.343972
0.592228 1.501685 3.161203
0.676153 1.581794 3.935900
0.664530 1.716488 4.438411
0.727972 1.837273 5.119431
0.615768 1.640170 6.142315
0.513562 1.526031 6.628651
0.491587 1.481891 7.714340
0.479286 1.468981 8.382833
0.406343 1.425391 9.018237
0.584048 1.414740 2.535523
0.662422 1.473301 3.198517
0.762210 1.500613 3.773579
0.801530 1.621689 4.599598
0.831182 1.620942 5.187686
0.762947 1.583400 6.103954
0.611051 1.530615 6.629206
0.595718 1.489526 7.649586
0.606671 1.465219 8.372410
0.531677 1.410691 9.098098
0.721007 1.226126 0.843902
0.871552 1.385767 1.735097
0.810293 1.371191 2.377979
0.784080 1.407247 3.031669
0.846582 1.466475 3.785029
0.925732 1.545502 4.612889
0.903240 1.506689 5.269899
0.866044 1.543061 6.003384
0.926225 1.533997 6.976382
0.893638 1.469358 7.787768
0.774704 1.456671 8.310244
0.717730 1.414014 9.043127
0.937495 1.326528 2.197419
0.856785 1.377713 3.033467
0.946484 1.409526 3.669357
1.039934 1.463093 4.488364
1.031314 1.399167 5.129349
1.072998 1.431662 5.862704
1.109119 1.480047 6.445431
1.027349 1.486283 7.224190
0.994405 1.444266 7.967886
0.941055 1.420187 8.892546
0.737619 1.295294 9.550344
0.832158 1.118720 0.748030
1.081570 1.164741 1.237137
1.066213 1.274100 1.748852
1.042036 1.269866 2.529798
1.117426 1.285640 3.403345
1.208418 1.326218 4.250391
1.187395 1.279134 5.011436
1.235631 1.355834 5.623983
1.234232 1.358922 6.181931
1.291976 1.382794 7.061214
1.244578 1.361034 7.833016
1.149819 1.383789 8.484174
1.107986 1.267080 9.434070
1.213444 1.136649 2.036854
1.211617 1.155087 2.758945
1.232215 1.221168 3.561170
1.321372 1.238019 4.270177
1.240109 1.214125 5.034741
1.308254 1.230302 5.871620
1.437476 1.301992 6.467919
1.418322 1.288164 7.168728
1.423200 1.260052 8.154631
1.348715 1.280848 8.767991
1.182002 1.199718 9.540041
1.286478 1.055003 1.706259
1.318343 1.034560 2.685995
1.356181 1.043942 3.263615
1.420744 1.073048 3.949628
1.457895 1.076712 4.718025
1.482032 1.079821 5.627085
1.495972 1.104665 6.069975
1.571717 1.148442 7.138699
1.512504 1.192423 7.641510
1.505443 1.195200 8.250836
1.465927 1.141552 9.156392
1.375089 0.926614 2.121394
1.378819 0.971270 2.889194
1.475114 0.952956 3.676607
1.536877 0.989551 4.308326
1.440171 0.961805 5.038086
1.482378 1.018070 5.848403
1.662758 1.027335 6.411612
1.655225 1.055471 7.211291
1.669312 1.022120 7.888411
1.622097 1.025840 8.749418
1.477784 0.995056 9.528612
1.393794 0.771455 1.186237
1.450887 0.810407 1.992379
1.457155 0.838923 2.708104
1.531889 0.769516 3.200305
1.592812 0.786640 3.912934
1.564306 0.804731 4.826166
1.653350 0.831832 5.464494
1.726013 0.899656 6.317207
1.771107 0.879364 6.937175
1.735334 0.931029 7.894035
1.786951 0.804682 8.462583
1.666963 0.863683 9.304000
1.540487 0.641907 1.794092
1.539454 0.677874 2.625543
1.593903 0.621861 3.113888
1.633641 0.682409 3.834784
1.657579 0.663665 4.702832
1.698749 0.696693 5.367164
1.797705 0.689604 6.197153
1.869957 0.686758 6.839098
1.868506 0.693618 7.482215
1.852612 0.676579 8.434505
1.794889 0.759621 8.914010
1.565566 0.594143 1.724142
1.600818 0.533991 2.608040
1.652416 0.489449 3.181269
1.682851 0.570552 3.896867
1.709074 0.551200 4.627856
1.720063 0.512920 5.258716
1.859842 0.531329 6.211487
1.934230 0.522154 6.891914
1.907354 0.590801 7.633523
1.905462 0.548286 8.362788
1.668174 0.342527 1.895513
1.661694 0.351150 2.559895
1.691308 0.396681 3.239578
1.754643 0.303999 3.837530
1.748130 0.352388 4.642119
1.765672 0.319860 5.276798
1.912496 0.352108 6.218120
1.982698 0.358576 6.989032
1.977053 0.364164 7.582954
1.965466 0.338701 8.276581
1.956379 0.321988 8.946585
1.688038 0.375599 9.998501
1.720924 0.162111 1.848493
1.700298 0.179639 2.559731
1.735434 0.234954 3.291213
1.797889 0.203302 4.107883
1.759947 0.182329 4.686857
1.796222 0.157650 5.667630
1.977482 0.162221 6.332507
2.019270 0.185574 6.965363
2.007814 0.181520 7.819272
1.993181 0.169668 8.474534
1.719206 0.042564 2.014236
1.726825 0.016658 2.702538
1.776139 0.020470 3.524372
1.815943 -0.009819 4.017262
1.753853 0.041366 4.752481
1.838260 0.073626 5.445436
2.010306 -0.015410 6.359270
2.053436 -0.033123 7.095419
2.026030 -0.009703 7.868677
2.009326 -0.023774 8.565461
1.753069 -0.108113 1.884381
1.730795 -0.101020 2.598977
1.785046 -0.156796 3.548438
1.838517 -0.162786 4.147782
1.775532 -0.095560 4.721327
1.822782 -0.104064 5.670104
2.016191 -0.179348 6.305830
2.062961 -0.231195 7.162743
2.027809 -0.224944 7.844890
2.010558 -0.196516 8.493442
1.983497 -0.170938 9.202344
1.745719 -0.247948 2.006869
1.733291 -0.315878 2.396224
1.773849 -0.320410 3.155812
1.830620 -0.335376 4.084289
1.742504 -0.244910 4.872777
1.852846 -0.353558 5.380863
1.997896 -0.365845 6.205935
2.056127 -0.433668 6.937079
2.020537 -0.375282 7.661238
1.999983 -0.348161 8.391874
1.772279 -0.465386 1.824194
1.733189 -0.495224 2.387496
1.766304 -0.497889 3.329853
1.805768 -0.499589 3.982058
1.802023 -0.506865 4.510780
1.834024 -0.532476 5.432250
1.950845 -0.613401 6.182341
2.028292 -0.603926 6.819587
1.986046 -0.583459 7.644979
1.952344 -0.594403 8.387970
1.935516 -0.599184 8.863644
1.793592 -0.503989 9.822996
1.724379 -0.674041 2.505069
1.743392 -0.647211 3.091451
1.748526 -0.677307 3.708010
1.761898 -0.674454 4.568961
1.749574 -0.664421 5.246582
1.881285 -0.744985 6.112494
1.978881 -0.789074 6.668866
1.939496 -0.777690 7.463551
1.917965 -0.717804 8.311100
1.894504 -0.729045 8.871954
1.772259 -0.618282 9.794638
1.702306 -0.798082 2.350599
1.688677 -0.840256 2.962464
1.694378 -0.840243 3.649714
1.712404 -0.853083 4.388305
1.676013 -0.814557 5.037164
1.765265 -0.841927 5.728351
1.877709 -0.924404 6.401796
1.878721 -0.963926 7.283760
1.834370 -0.944134 7.968686
1.828917 -0.895366 8.853934
1.750152 -0.888558 9.547122
1.586718 -1.008799 1.446707
1.636610 -1.012771 2.052360
1.639157 -0.965788 2.545437
1.627357 -0.984166 3.305429
1.640616 -1.002015 4.330345
1.622402 -1.030688 4.959989
1.629007 -1.050698 5.527982
1.730754 -1.097737 6.333393
1.800991 -1.148656 6.894181
1.747256 -1.100033 7.802864
1.741240 -1.069012 8.349732
1.559238 -1.164926 1.969008
1.530812 -1.143670 2.522406
1.540333 -1.130761 3.455303
1.512218 -1.148427 3.880869
1.596812 -1.112292 4.936725
1.595828 -1.067511 5.380302
1.669340 -1.165751 6.274361
1.685323 -1.272069 7.112895
1.635643 -1.244929 7.844235
1.613634 -1.240117 8.353873
1.579999 -1.190972 9.405107
1.450912 -1.041343 9.946264
1.434418 -1.327757 1.803301
1.425616 -1.266408 2.639691
1.426139 -1.261448 3.276783
1.401850 -1.262843 3.869493
1.512673 -1.317628 4.893211
1.567875 -1.468969 5.498104
1.521414 -1.445411 6.117738
1.543387 -1.381101 6.984045
1.520061 -1.372878 7.848752
1.528015 -1.341860 8.252623
1.482994 -1.301807 9.372040
1.336930 -1.139527 9.963318
1.207998 -1.425375 1.083997
1.322043 -1.433219 1.714185
1.324456 -1.364553 2.593281
1.346543 -1.337453 3.273974
1.310631 -1.338833 3.774980
1.421641 -1.576395 4.685564
1.547443 -1.781230 5.433893
1.444077 -1.496124 6.051192
1.321225 -1.477493 6.933990
1.360127 -1.515789 7.513166
1.342399 -1.515421 8.062135
1.353068 -1.466118 9.032285
1.250109 -1.320816 9.805302
1.116805 -1.481862 1.086758
1.153008 -1.566204 1.619596
1.170655 -1.499357 2.216067
1.145623 -1.486153 2.920646
1.164236 -1.411727 3.651133
1.367137 -1.728553 4.469737
1.421530 -2.052777 5.171100
1.255532 -1.882136 5.969925
1.175836 -1.643247 6.687015
1.185610 -1.572378 7.315744
1.203371 -1.602443 8.125654
1.217455 -1.572781 8.878792
1.163344 -1.444821 9.690627
1.024099 -1.567744 2.349976
1.037050 -1.550550 2.878223
0.991620 -1.477921 3.572350
1.243860 -2.182992 5.289549
1.159828 -1.978566 5.907611
1.093778 -1.684286 6.484847
1.015481 -1.601641 7.291260
1.038024 -1.666100 7.947711
1.074370 -1.648198 8.890712
1.038022 -1.545523 9.584621
0.855006 -1.674480 1.986116
0.894702 -1.623069 2.870692
0.892897 -1.644015 3.302104
1.016177 -2.043803 4.341712
0.986006 -2.330193 4.948914
0.983319 -2.172314 5.633864
0.960266 -1.937894 6.209478
0.892502 -1.674996 6.912247
0.854558 -1.691209 7.754249
0.858060 -1.726467 8.469710
0.827539 -1.656257 9.381174
0.574089 -1.803592 1.584154
0.695403 -1.706309 2.204560
0.666758 -1.770126 3.083644
0.729267 -2.316105 4.676523
0.793059 -2.305903 5.233985
0.775223 -2.071339 5.990936
0.625903 -1.627550 6.700068
0.573417 -1.592562 7.651972
0.680320 -1.716244 8.093821
0.659630 -1.758969 8.979197
0.662721 -1.624534 9.644638
0.576002 -1.535835 0.726794
0.522436 -1.773540 1.546141
0.549521 -1.743331 2.171234
0.612443 -1.769872 2.908735
0.641181 -2.288933 5.171085
0.561563 -2.201024 5.599234
0.501925 -1.658343 6.694588
0.544396 -1.603760 7.273322
0.535491 -1.684667 7.934873
0.548885 -1.770182 8.947188
0.528161 -1.638000 9.627112
0.282701 -1.679813 0.618635
0.391936 -1.844569 1.543929
0.367281 -1.760158 2.179401
0.293471 -2.189145 4.108511
0.409409 -2.353557 4.732425
0.401767 -2.191940 5.593385
0.420517 -1.656207 7.911257
0.373509 -1.748136 8.751237
0.408199 -1.708267 9.314514
0.220482 -1.675905 0.707579
0.193232 -1.767063 1.211209
0.187686 -1.765231 1.953899
0.108467 -2.144007 4.075776
0.308788 -2.360098 4.887860
0.303239 -2.185363 5.599343
0.200029 -1.536319 7.809979
0.237414 -1.722513 8.787131
0.268855 -1.656236 9.468243
0.066518 -1.667025 0.753907
-0.001055 -1.808071 1.600936
0.079944 -1.741191 2.004250
-0.005884 -2.120296 4.173079
0.150961 -1.525782 7.875896
0.078681 -1.643388 8.720090
0.020742 -1.602390 9.443783
-0.080837 -1.638435 0.792580
-0.100403 -1.776137 1.625068
-0.064405 -1.685925 2.111808
-0.191165 -2.078362 4.154865
0.055233 -1.237501 6.847832
-0.051267 -1.172768 7.310605
0.010168 -1.457601 8.041416
-0.084102 -1.597734 8.914531
-0.080412 -1.546446 9.547853
-0.212224 -1.510245 1.008619
-0.217242 -1.734809 1.636775
-0.240147 -1.599581 2.173153
-0.407920 -2.059793 4.591891
-0.362124 -1.752902 5.195961
-0.286685 -1.439476 5.991929
-0.065042 -1.103776 6.793614
-0.105917 -1.133546 7.354945
-0.085729 -1.386775 8.177205
-0.169659 -1.573798 9.070678
-0.173081 -1.505704 9.564677
-0.344553 -1.551714 0.770736
-0.377936 -1.708933 1.283339
-0.377278 -1.544395 2.019378
-0.560987 -1.929766 4.164706
-0.304622 -1.428124 8.815911
-0.292237 -1.452420 9.493705
-0.446978 -1.486840 0.859088
-0.481401 -1.505859 1.845300
-0.396746 -1.466184 2.575199
-0.406906 -1.441719 3.073450
-0.643527 -1.869515 4.132766
-0.726550 -1.865111 4.620764
-0.487120 -1.628341 5.312761
-0.255077 -1.290109 7.579736
-0.316926 -1.212075 8.344768
-0.442888 -1.376891 9.301364
-0.356609 -1.329645 9.966038
-0.655034 -1.370309 0.621421
-0.655767 -1.345188 1.174633
-0.557065 -1.379134 2.140394
-0.636922 -1.343410 2.824570
-0.892466 -1.682026 5.032515
-0.714983 -1.507884 5.485903
-0.538809 -1.260165 8.729924
-0.551981 -1.267161 9.516784
-0.712891 -1.281786 0.693783
-0.685802 -1.325847 1.764194
-0.617116 -1.302230 2.220650
-0.673941 -1.307577 2.844104
-0.868763 -1.502749 3.623477
-0.958464 -1.701134 4.421325
-0.927913 -1.635927 5.052502
-0.614695 -1.327612 5.881029
-0.445735 -1.031248 6.550428
-0.359426 -0.861477 7.522257
-0.417913 -0.993446 8.104381
-0.612221 -1.233347 8.777908
-0.601308 -1.214129 9.660470
-0.779367 -1.191185 1.758964
-0.711218 -1.159978 2.358047
-0.616712 -0.988879 3.051796
-0.991539 -1.415664 4.066007
-1.132877 -1.559086 4.465583
-0.902536 -1.336228 5.510093
-0.607162 -0.976707 6.201450
-0.237057 -0.527514 6.933676
-0.367994 -0.789400 7.722089
-0.583327 -1.166154 8.464868
-0.754168 -1.153189 9.187648
-0.642056 -1.103719 9.872372
-0.797086 -1.106508 0.711291
-0.840694 -1.123288 1.286987
-0.802025 -1.119200 1.849201
-1.028136 -1.282625 3.962603
-1.233028 -1.463335 4.669356
-0.957781 -1.255958 5.500111
-0.602569 -0.930979 6.223148
-0.252841 -0.650507 7.155361
-0.427446 -0.793033 7.790501
-0.792312 -1.138870 8.744567
-0.750577 -1.127507 9.325737
-0.810518 -0.849997 0.969611
-0.891107 -1.015356 1.386424
-0.839466 -0.910735 2.396484
-0.794050 -0.875761 2.973003
-1.108760 -1.061128 4.021843
-1.313374 -1.307091 4.481613
-1.133080 -1.160776 5.301607
-0.824799 -0.810751 5.922921
-0.280704 -0.492875 6.821433
-0.447845 -0.748017 7.610735
-0.966610 -0.998443 8.426655
-0.935927 -1.051838 9.049000
-0.849243 -0.997063 9.644828
-0.828080 -0.857131 0.806993
-0.886210 -0.909855 1.307525
-0.875113 -0.841564 2.237875
-0.866674 -0.760811 2.697487
-0.989535 -0.880593 3.487824
-1.291609 -1.125785 4.309104
-1.282014 -1.124306 4.938709
-0.975704 -0.958505 5.682346
-0.532491 -0.718641 6.631111
-0.582408 -0.681447 7.290799
-0.878894 -0.902522 8.035729
-1.058608 -0.947326 8.660295
-0.960969 -0.915236 9.518950
-0.823809 -0.661398 0.472307
-0.824215 -0.707981 1.033594
-0.956046 -0.728289 1.823284
-0.888176 -0.746303 2.532897
-0.857819 -0.719077 3.109955
-1.062580 -0.765764 3.952625
-0.268848 -0.512020 6.902643
-0.590516 -0.717432 7.792305
-1.120879 -0.851900 8.481329
-0.821503 -0.563882 1.100089
-0.990185 -0.645906 1.676665
-0.929188 -0.642119 2.308421
-0.883446 -0.646624 3.002413
-1.024315 -0.674623 3.800101
-0.310025 -0.506724 6.929921
-0.685005 -0.662003 7.748812
-1.201221 -0.720634 8.369034
-1.151428 -0.694520 9.143809
-0.976014 -0.655977 9.792143
-0.771962 -0.532074 0.369397
-0.807587 -0.497274 1.210406
-0.998564 -0.568890 1.760740
-0.928033 -0.540884 2.703818
-0.907249 -0.483278 3.325575
-1.019087 -0.486850 4.142046
-1.118334 -0.558995 4.606702
-0.976329 -0.480369 5.434602
-0.660584 -0.455698 6.159801
-0.362694 -0.489801 6.905978
-0.843351 -0.562318 7.635694
-1.261857 -0.614593 8.283583
-0.681226 -0.382740 0.402779
-0.809014 -0.472403 1.167030
-0.973094 -0.467822 2.115558
-0.932212 -0.471002 2.766183
-0.920290 -0.408609 3.422240
-1.009965 -0.401924 4.059469
-1.082576 -0.409148 4.819379
-0.904797 -0.382373 5.539750
-0.343533 -0.383923 6.402323
-0.682842 -0.566489 7.284675
-1.247810 -0.474642 7.868618
-1.284073 -0.534470 8.493363
-1.109367 -0.471607 9.534391
-0.860941 -0.370471 0.875544
-1.029613 -0.380604 1.652474
-0.949511 -0.351930 2.402504
-0.924503 -0.354358 3.036550
-0.974716 -0.360146 3.706416
-1.064236 -0.356756 4.692006
-0.942022 -0.317637 5.354905
-0.665534 -0.401148 6.171802
-0.280199 -0.504740 6.890249
-1.357658 -0.375372 8.206498
-1.305699 -0.395340 9.099303
-0.984829 -0.342462 9.870380
-0.775257 -0.423772 0.522074
-0.871368 -0.296217 1.012383
-0.994161 -0.292613 1.923327
-0.937805 -0.255926 2.441132
-0.914948 -0.288395 3.365208
-1.002402 -0.251593 4.070585
-1.067367 -0.309428 4.827352
-0.886148 -0.285206 5.482499
-0.499973 -0.405704 6.325532
-0.655750 -0.345908 6.963380
-1.202972 -0.233390 7.651579
-1.350865 -0.247414 8.540960
-1.278433 -0.302724 9.138495
-0.618595 -0.280654 0.310988
-0.818784 -0.214209 1.018453
-0.979587 -0.186453 1.797285
-0.912387 -0.199841 2.751905
-0.894315 -0.157897 3.165403
-0.993327 -0.167430 4.163877
-1.051116 -0.213883 4.760108
-0.871042 -0.223561 5.460888
-0.352094 -0.380376 6.385071
-0.646285 -0.338579 7.008519
-1.242776 -0.062567 7.713977
-1.366956 -0.136234 8.462486
-1.227308 -0.144207 9.276680
-0.881006 -0.133175 0.925874
-0.963335 -0.104087 1.768864
-0.924403 -0.096131 2.293145
-0.878591 -0.088250 2.968608
-0.955286 -0.087626 3.889348
-1.027098 -0.089548 4.590910
-0.875613 -0.133015 5.315143
-0.517868 -0.254187 6.015891
-0.670732 -0.229248 6.828506
-1.170520 -0.010661 7.623693
-1.348382 -0.015755 8.125435
-1.313263 -0.054768 9.048861
-0.985467 -0.164160 9.890759
-0.824443 -0.077744 0.987895
-0.929647 0.012314 1.661819
-0.904815 -0.043241 2.420631
-0.881447 -0.089005 3.206264
-0.955740 -0.053775 3.958029
-1.026125 -0.042845 4.632138
-0.873925 -0.098682 5.331124
-0.537079 -0.261061 6.087564
-0.713979 -0.108112 6.754857
-1.157716 0.086575 7.615878
-1.332285 0.130903 8.245366
-1.292941 0.100784 9.099695
-0.982172 -0.058137 9.961472
-0.614086 -0.137886 0.396693
-0.743839 -0.037298 1.163676
-0.941306 -0.022606 1.829151
-0.890329 0.016364 2.462832
-0.876200 -0.069354 3.194884
-0.961310 -0.026287 4.104684
-1.025317 0.021274 4.783920
-0.853751 -0.124182 5.394677
-1.164354 0.139253 7.661322
-1.318786 0.219288 8.307008
-1.266190 0.142943 9.200628
-0.323354 -0.285405 0.538108
-0.640966 -0.153561 1.292584
-0.926474 0.060909 2.095337
-0.861101 0.025080 2.862488
-0.914349 0.016341 3.528329
-0.970235 0.001522 4.251789
-0.981243 0.017545 4.963856
-0.762784 -0.043765 5.919557
-0.977411 0.104293 7.348618
-1.113452 0.266817 7.741864
-1.291608 0.333700 8.740932
-1.102982 0.224981 9.579960
-0.485873 -0.201087 0.699710
-0.890883 0.181368 1.621961
-0.914629 0.097965 2.172335
-0.864303 -0.019571 3.054900
-0.994209 0.181496 3.606941
-1.322034 0.498559 4.532912
-0.987781 0.154284 5.300144
-0.501339 -0.236129 6.013579
-0.700657 -0.109323 6.738580
-0.966435 0.221248 7.343764
-1.171036 0.404632 8.092681
-1.255060 0.429713 8.899759
-1.036828 0.220596 9.756937
-0.929749 0.340801 1.972864
-0.852410 0.173574 2.634688
-1.435121 0.876503 3.985714
-1.006976 0.432561 7.831802
-1.175509 0.552013 8.638031
-1.079497 0.519582 9.421181
-0.748112 0.102495 1.251927
-0.928762 0.349579 1.962313
-0.900045 0.310201 2.811734
-1.000708 0.528847 8.006803
-1.061133 0.687898 8.658170
-0.993174 0.542538 9.443475
-0.868045 0.544292 1.407994
-0.918267 0.461955 1.944860
-0.832568 0.463933 2.434068
-1.290909 1.129447 4.064282
-0.765266 0.371510 7.168500
-0.885802 0.587151 7.990197
-1.009136 0.741502 8.743515
-0.957908 0.596117 9.475397
-0.850650 0.764773 1.016102
-0.899272 0.569223 1.987949
-0.839109 0.283740 2.486935
-1.248695 1.265245 4.020924
-0.754358 0.544193 7.744218
-0.946122 0.781589 8.689529
-0.907392 0.688338 9.434940
-0.829346 0.916312 1.256376
-0.877963 0.816245 1.705602
-0.834088 0.334030 2.485251
-1.209485 1.363200 3.999567
-1.128475 1.203906 4.817370
-1.003611 0.798951 5.462043
-0.633992 0.538456 7.055206
-0.689287 0.593435 7.816485
-0.823490 0.802756 8.487753
-0.856276 0.808867 9.344270
-0.722263 1.005898 2.309388
-1.046649 1.637101 4.325160
-0.911793 1.252445 5.207084
-0.517324 0.615245 6.676869
-0.604408 0.599695 7.794813
-0.706070 0.812451 8.370193
-0.664036 1.092352 2.353371
-0.573871 0.550912 7.683305
-0.617405 0.827906 8.338149
-0.713917 0.990395 9.195152
-0.592703 1.189665 2.450943
-0.835885 1.938592 4.376226
-0.534449 0.503660 7.576220
-0.524654 0.753482 8.101376
-0.604987 1.093783 9.202383
-0.449239 1.154695 1.015678
-0.494792 1.235104 1.847556
-0.423073 1.416063 2.530416
-0.613315 2.140209 4.100222
-0.513536 0.541996 7.655463
-0.552796 0.974392 8.595599
-0.499325 1.177950 9.237016
-0.420970 1.158419 1.041326
-0.413229 1.280575 1.845784
-0.326795 1.454329 2.601759
-0.365949 2.246782 4.258057
-0.378194 2.236398 4.845272
-0.425521 1.978518 5.479181
-0.455054 1.037713 8.625629
-0.434401 1.213972 9.275226
-0.169991 1.397277 1.413871
-0.240751 1.336879 1.951562
-0.124862 1.452777 2.770292
-0.175313 2.269439 4.295262
-0.106485 2.283334 4.866883
-0.399953 0.729133 7.921477
-0.238406 1.144507 8.625018
-0.309825 1.265075 9.380874
-0.115116 1.287349 0.768953
-0.013009 1.439249 1.479752
-0.111639 1.362577 2.085630
-0.183252 1.187927 2.755093
0.039416 2.276408 4.482838
0.055076 2.264528 4.961038
-0.262561 0.968061 8.351748
-0.125677 1.311383 8.786674
-0.145014 1.293190 9.564519
0.023972 1.301168 0.732525
0.107466 1.458160 1.481254
-0.032821 1.379503 2.050259
0.023213 1.435640 2.854327
0.202566 1.885510 3.748817
0.230272 2.224940 4.431834
0.212077 2.231363 4.922688
-0.244253 0.930136 8.259052
