4.636256 -3.449094 3.040142
4.603389 -3.425441 3.905611
4.536512 -3.380959 4.948804
4.554339 -3.387203 5.776455
4.558518 -3.386210 6.454274
4.383397 -3.280388 7.086623
4.584391 -3.949412 0.111561
4.355490 -3.786385 1.042987
4.362102 -3.786480 1.882912
4.310884 -3.745474 2.941855
4.301972 -3.735119 3.730942
4.306998 -3.734788 4.445153
4.342025 -3.755112 5.171144
4.339870 -3.749182 6.005426
4.015777 -4.143954 0.926158
4.049491 -4.167131 1.742402
4.006427 -4.126490 2.643390
3.938938 -4.065290 3.617019
4.016944 -4.126269 4.210128
3.961109 -4.074204 5.267884
4.006405 -4.107918 5.910925
3.662979 -4.453621 0.934861
3.656825 -4.441912 1.872894
3.640131 -4.420611 2.704368
3.622157 -4.397301 3.661012
3.637842 -4.407543 4.479691
3.655222 -4.419629 5.266142
3.630921 -4.391277 6.041672
3.357617 -4.820347 0.879796
3.338842 -4.792321 1.859519
3.385737 -4.841589 2.525455
3.320214 -4.759451 3.592014
3.381728 -4.826303 4.131588
3.327640 -4.757165 5.212286
3.315380 -4.737744 6.020135
3.025179 -5.173177 0.745341
3.042536 -5.189098 1.771466
3.049945 -5.193210 2.573761
2.997665 -5.116375 3.401871
2.984174 -5.091850 4.252801
3.005889 -5.114059 5.225841
3.063182 -5.187124 5.829616
2.696388 -5.593496 0.637969
2.654408 -5.515955 1.777630
2.692583 -5.572878 2.370513
2.708948 -5.592846 3.156183
2.688060 -5.551069 4.106199
2.682939 -5.536256 4.887104
2.631635 -5.445184 5.837153
2.307368 -5.922224 0.793256
2.348033 -5.995557 1.437093
2.330770 -5.953139 2.336874
2.297591 -5.877513 3.453049
2.297530 -5.868381 4.389815
2.319835 -5.906750 4.935640
2.308008 -5.875858 5.742335
1.915918 -6.356836 0.721156
1.897518 -6.300412 1.728076
1.916390 -6.336713 2.565765
1.916886 -6.329477 3.298119
1.904828 -6.290160 4.160897
1.877529 -6.212510 5.128854
1.892231 -6.239280 5.912356
1.542496 -6.797987 0.893730
1.550322 -6.810878 1.679911
1.534057 -6.747658 2.624922
1.520537 -6.692233 3.613783
1.525597 -6.699242 4.215918
1.507552 -6.629646 5.225987
1.541085 -6.723279 5.875809
1.557803 -6.764719 6.571070
1.123419 -7.512921 0.202114
1.063797 -7.248807 0.903394
1.040476 -7.127985 2.102387
1.061140 -7.203002 2.731490
1.063557 -7.198258 3.518697
1.053425 -7.135490 4.582183
1.057285 -7.136291 5.397172
1.075172 -7.203575 5.817696
0.345342 -6.697488 0.753997
0.342188 -6.646772 1.742143
0.350391 -6.678381 2.534690
0.352207 -6.666502 3.343101
0.349662 -6.623425 4.212651
0.354961 -6.636128 4.983446
0.354345 -6.605864 5.858858
0.368632 -6.684728 6.440971
-0.175536 -6.805046 0.268423
-0.213939 -6.207545 0.923639
-0.208379 -6.248384 1.547412
-0.206141 -6.221681 2.477166
-0.203152 -6.208569 3.364224
-0.198913 -6.223839 4.089329
-0.199265 -6.166428 4.912491
-0.203842 -6.027305 6.059153
-0.725391 -5.760309 1.027418
-0.725194 -5.915192 1.590838
-0.718142 -5.765085 2.698104
-0.713008 -5.692320 3.626337
-0.710855 -5.753557 4.322704
-0.707257 -5.756000 5.152199
-0.703913 -5.763825 5.941876
-1.209775 -5.381863 1.062295
-1.214648 -5.457013 1.748974
-1.196763 -5.331773 2.821405
-1.198649 -5.376399 3.457916
-1.190020 -5.332520 4.370040
-1.186604 -5.341225 5.353439
-1.182343 -5.333329 6.132361
-1.618714 -5.205769 0.377876
-1.592600 -5.079859 1.005285
-1.588222 -5.078559 1.934142
-1.576785 -5.039557 2.880016
-1.575921 -5.052379 3.606979
-1.560362 -4.988510 4.444488
-1.546844 -4.938109 5.383508
-1.547182 -4.960644 6.244510
-1.848196 -4.424908 0.313606
-1.919853 -4.707834 1.173585
-1.909689 -4.686657 2.167991
-1.908304 -4.695782 3.010907
-1.899496 -4.676845 3.838354
-1.885532 -4.637935 4.626233
-1.871802 -4.602077 5.542598
-1.889451 -4.678334 6.141527
-2.381473 -4.735999 0.174507
-2.282553 -4.469277 0.896592
-2.260213 -4.419762 1.885175
-2.253165 -4.410622 2.696129
-2.253913 -4.423048 3.492262
-2.215120 -4.328982 4.586506
-2.203072 -4.306724 5.461732
-2.223173 -4.373259 6.264916
-2.520465 -3.982379 0.197273
-2.573720 -4.109501 1.152900
-2.555374 -4.080046 2.179597
-2.600720 -4.185808 2.758642
-2.558173 -4.103011 3.769670
-2.522439 -4.034763 4.740767
-2.504023 -4.003203 5.582885
-2.536659 -4.081091 6.167085
-2.895077 -3.879894 1.170814
-2.880134 -3.861505 2.107229
-2.858831 -3.832525 3.134716
-2.889715 -3.892692 3.662481
-2.822829 -3.782706 4.777727
-2.841792 -3.822052 5.368739
-2.816831 -3.785531 6.287761
-3.140274 -3.516254 0.428726
-3.147352 -3.535507 1.540902
-3.165809 -3.569307 2.350615
-3.174947 -3.588837 3.107798
-3.173064 -3.592146 3.886216
-3.086357 -3.472615 5.082606
-3.075603 -3.462883 5.879972
-3.435355 -3.282553 1.878557
-3.388559 -3.231166 2.909510
-3.422151 -3.277602 3.529425
-3.400907 -3.257260 4.422669
-3.387620 -3.247655 5.425548
-3.364600 -3.225026 6.309870
-3.641603 -2.924388 0.583245
-3.764441 -3.059028 1.271755
-3.713965 -3.012225 2.323688
-3.713688 -3.017051 3.125742
-3.634531 -2.940099 4.218741
-3.661260 -2.973085 4.946373
-3.658326 -2.974717 5.689178
-4.018811 -2.793195 1.173311
-3.979253 -2.763091 2.171273
-3.928872 -2.723354 3.206517
-3.941321 -2.738609 3.868276
-3.897233 -2.703903 4.785679
-3.930518 -2.738123 5.446671
-3.858434 -2.678996 6.544331
-4.257055 -2.433269 1.091543
-4.177100 -2.378539 2.197530
-4.251699 -2.439109 2.892993
-4.207155 -2.410247 3.805153
-4.153885 -2.374873 4.739778
-4.147550 -2.374142 5.482563
-4.114618 -2.354095 6.391487
-4.590408 -2.157954 1.200264
-4.587703 -2.160464 2.015133
-4.558366 -2.147040 3.019562
-4.534134 -2.136402 3.936317
-4.509031 -2.123581 4.538635
-4.414181 -2.068788 5.591645
-4.495561 -2.124184 6.303782
-4.981761 -1.915723 0.915429
-4.851406 -1.852520 2.109102
-4.912228 -1.888151 2.790684
-4.881534 -1.876755 3.774981
-4.852998 -1.865338 4.524186
-4.875911 -1.880958 5.224052
-4.791861 -1.842074 6.370502
-5.184701 -1.553555 1.110154
-5.183687 -1.557538 2.036270
-5.230534 -1.581634 2.821405
-5.279658 -1.605883 3.431597
-5.141613 -1.550960 4.485359
-5.145586 -1.557472 5.487628
-5.232348 -1.597696 6.019686
-5.644795 -1.245002 0.728904
-5.603763 -1.235900 1.783132
-5.626708 -1.246966 2.484895
-5.582462 -1.236118 3.398634
-5.575734 -1.238186 4.340808
-5.560800 -1.237185 5.224262
-5.485558 -1.215748 6.131901
-6.110067 -0.875251 0.715256
-5.996740 -0.851637 1.800389
-6.078192 -0.874935 2.420865
-6.063391 -0.875227 3.310161
-6.012600 -0.866859 4.286881
-5.952711 -0.855633 5.138010
-5.917064 -0.850836 6.061681
-6.542494 -0.413275 0.837396
-6.541798 -0.416290 1.542315
-6.451121 -0.406599 2.679531
-6.513615 -0.419565 3.312507
-6.401362 -0.406027 4.372922
-6.415214 -0.411750 5.155214
-6.457690 -0.421236 5.737223
-7.285891 0.051034 0.260581
-7.077055 0.063505 1.305468
-7.049121 0.061842 2.203129
-7.096907 0.054838 2.908377
-7.154138 0.047613 3.488391
-7.108057 0.047534 4.362993
-7.000902 0.051369 5.482518
-7.076826 0.043384 5.887973
-7.851661 0.655059 0.524578
-7.709377 0.649868 1.659881
-7.822322 0.647468 2.247396
-7.723477 0.642492 3.348799
-7.837367 0.640710 3.795350
-7.676106 0.635571 4.912152
-7.713581 0.632473 5.632589
-7.772785 0.629862 6.249368
-7.707051 1.322010 0.421846
-7.650426 1.313356 1.260334
-7.509117 1.296255 2.330365
-7.595811 1.301457 2.876987
-7.545962 1.292830 3.844311
-7.500738 1.284971 4.729495
-7.553171 1.286965 5.322034
-7.544998 1.282694 6.130369
-7.205895 1.853226 0.785142
-7.058290 1.823326 1.971646
-7.154102 1.836741 2.551153
-7.140033 1.831125 3.286945
-7.061004 1.813107 4.374770
-7.144414 1.824178 5.016039
-7.060613 1.806341 5.883512
-7.085257 1.807867 6.465989
-6.694445 2.370253 0.459381
-6.667162 2.359162 1.374588
-6.718466 2.369248 2.036291
-6.618101 2.338585 3.160162
-6.673578 2.349422 3.891133
-6.617507 2.330539 4.906622
-6.658046 2.338310 5.473459
-6.572333 2.311879 6.487294
-6.538057 2.883310 0.261814
-6.355780 2.818518 0.988402
-6.322615 2.802886 1.952047
-6.281904 2.784639 2.931224
-6.344187 2.802700 3.565128
-6.272102 2.773915 4.536471
-6.243586 2.760421 5.376469
-6.268780 2.765559 6.101812
-5.870884 3.237340 0.930270
-5.950314 3.268349 1.629818
-5.915557 3.248779 2.581142
-5.929180 3.251101 3.328974
-5.860454 3.216474 4.357520
-5.920159 3.239268 4.991159
-5.860462 3.209522 5.814968
-5.660498 3.757584 0.462012
-5.547826 3.691340 1.664105
-5.541303 3.683449 2.550204
-5.515758 3.665854 3.341345
-5.579715 3.696536 4.051955
-5.545343 3.674361 4.814514
-5.457024 3.622126 5.818938
-5.523762 3.654845 6.419201
-5.278988 3.520002 7.204942
-5.249488 4.144475 0.451238
-5.187873 4.099150 1.537765
-5.138479 4.062468 2.475517
-5.244486 4.127890 3.016849
-5.152495 4.062933 4.118161
-5.213875 4.099303 4.721546
-5.145297 4.049833 5.743341
-5.200356 4.082886 6.202397
-5.079965 4.001469 6.954065
-4.817054 4.510905 0.575582
-4.823749 4.510640 1.554711
-4.912752 4.575310 2.224515
-4.917063 4.573714 3.113029
-4.879539 4.540458 3.915271
-4.837098 4.503449 4.713117
-4.849586 4.508151 5.598490
-4.869898 4.519595 6.351477
-4.480527 4.934014 0.555320
-4.475955 4.924605 1.444637
-4.527502 4.966868 2.207629
-4.448689 4.888849 3.306591
-4.417749 4.856022 4.109676
-4.425920 4.858815 4.891030
-4.477846 4.902548 5.463616
-4.473210 4.893827 6.226736
-4.124296 5.355231 0.759024
-4.114102 5.339204 1.556278
-4.121667 5.342722 2.269939
-4.141029 5.358078 3.106748
-4.069759 5.274744 4.204502
-4.055076 5.253866 5.008837
-4.032585 5.224549 5.825783
-4.042632 5.230099 6.636840
-3.767635 5.741826 1.050608
-3.796272 5.772076 1.847516
-3.784051 5.750736 2.708846
-3.757471 5.711125 3.612974
-3.782285 5.738484 4.139864
-3.732264 5.668552 5.184161
-3.769507 5.709072 6.052229
-3.666199 6.690195 0.302220
-3.411813 6.300309 1.122151
-3.436202 6.330731 1.921818
-3.402337 6.272603 2.816707
-3.391424 6.249975 3.596670
-3.429083 6.300917 4.330644
-3.418320 6.277756 5.206666
-3.404889 6.251861 5.920100
-3.014621 6.693119 0.538621
-3.089621 6.821018 1.197451
-3.027518 6.700180 2.318774
-3.046829 6.728598 2.992170
-2.994275 6.625756 4.006123
-3.078013 6.770921 4.477762
-3.076327 6.760426 5.313586
-3.054484 6.714455 6.095309
-2.552357 7.252210 0.735105
-2.551402 7.241352 1.551602
-2.521918 7.165473 2.506528
-2.560271 7.242910 3.253006
-2.603596 7.332845 3.866234
-2.563269 7.233344 4.771852
-2.576077 7.254672 5.444870
-2.562282 7.213141 6.455377
-1.958788 7.471682 0.886172
-1.991583 7.557282 1.437115
-1.967698 7.476351 2.448993
-2.011063 7.588752 3.237816
-1.998241 7.540366 4.156704
-1.992425 7.512653 5.011610
-2.006359 7.545546 5.510252
-1.997168 7.508623 6.339025
-1.262792 7.156690 0.187997
-1.210023 6.941129 1.372259
-1.222981 6.976461 2.128002
-1.240059 7.029338 2.748584
-1.231413 6.983312 3.579034
-1.239295 6.999348 4.362993
-1.215436 6.891920 5.490883
-1.242173 6.982426 6.003463
-0.552425 6.567250 0.707740
-0.550997 6.539631 1.525342
-0.543026 6.469848 2.611464
-0.559938 6.547657 3.202151
-0.536536 6.391747 4.372922
-0.538235 6.382218 5.147127
-0.544215 6.396557 5.899048
-0.551944 6.422174 6.578622
0.037228 6.091667 0.538263
0.038449 6.041091 1.409406
0.033735 6.054325 2.179661
0.030793 6.042494 3.116641
0.025737 6.062066 3.820578
0.031383 5.961132 4.830127
0.025323 5.991210 5.523677
0.026821 5.934812 6.464005
0.545934 5.635891 0.629760
0.541615 5.689152 1.406873
0.538555 5.618206 2.383304
0.534738 5.624235 3.230909
0.532001 5.562424 4.097902
0.527864 5.603768 4.880245
0.524637 5.628671 5.519113
0.521785 5.592365 6.312400
0.993574 5.288197 0.527478
0.997062 5.393228 1.312791
0.990200 5.349954 2.224928
0.987014 5.353696 3.007012
0.975222 5.241351 4.003427
0.968024 5.191860 4.898741
0.969550 5.255380 5.506454
0.964048 5.233798 6.435186
1.396412 4.973351 0.576582
1.394667 4.987511 1.450400
1.397371 5.025255 2.118832
1.390797 5.006246 2.958855
1.381850 4.972040 3.819627
1.357733 4.844484 4.942468
1.353805 4.844965 5.845560
1.357810 4.892912 6.565961
1.785791 4.824122 0.447027
1.742922 4.661421 1.541188
1.767457 4.778378 2.150984
1.721424 4.603951 3.340698
1.738978 4.689849 3.892099
1.719293 4.622376 4.769854
1.710283 4.599222 5.572276
2.094706 4.478149 0.406154
2.051222 4.355622 1.416251
2.072393 4.433499 2.181539
2.082324 4.477740 3.072493
2.084226 4.496403 3.945977
2.041042 4.375507 5.003502
2.038495 4.374637 5.497572
2.007878 4.292413 6.488196
2.366465 4.082851 1.449036
2.379805 4.124497 2.241810
2.387254 4.151912 3.044926
2.379074 4.141381 3.859726
2.323612 4.019545 5.011764
2.305823 3.986239 5.881782
2.331484 4.054089 6.343804
2.687535 3.849219 0.353547
2.681337 3.847092 1.393029
2.668279 3.830631 2.339712
2.648975 3.800211 3.107737
2.660534 3.830983 3.951082
2.620094 3.761402 4.952295
2.664360 3.852946 5.452546
2.650312 3.834530 6.397832
2.964932 3.553951 1.409037
3.006662 3.626761 2.104652
2.959440 3.559283 3.116752
2.921458 3.506903 4.159172
2.938187 3.538652 4.746992
2.947219 3.559995 5.571214
3.231081 3.258579 1.563338
3.298778 3.353764 2.186194
3.287546 3.344879 3.026680
3.200332 3.236680 4.195314
3.181650 3.217948 5.052960
3.185068 3.227783 5.771559
3.545408 3.097780 1.412047
3.484679 3.035018 2.456867
3.490998 3.047516 3.242817
3.500307 3.063169 3.987114
3.417476 2.975581 5.114933
3.464820 3.033348 5.625334
3.880537 2.825076 0.480029
3.821933 2.774784 1.440045
3.828788 2.786207 2.241255
3.792776 2.756925 3.098702
3.756025 2.727288 4.014147
3.740388 2.716808 4.754937
3.707831 2.690869 5.617960
4.089344 2.527371 0.701461
4.081000 2.524774 1.452121
4.007142 2.469356 2.376619
4.001312 2.468865 3.134690
3.958841 2.439678 4.139049
4.004192 2.481149 4.884556
3.934525 2.429229 5.818645
4.431636 2.305643 0.767258
4.397539 2.286932 1.712805
4.384104 2.282244 2.588152
4.398251 2.296214 3.358514
4.244157 2.195076 4.527151
4.214876 2.179029 5.343194
4.252871 2.208737 5.948390
4.676301 1.978315 1.127749
4.758311 2.029282 1.775353
4.651080 1.972376 2.849853
4.668911 1.985953 3.483082
4.619965 1.961942 4.361054
4.518115 1.908056 5.414194
4.513333 1.909677 6.282796
5.064860 1.703906 0.961172
5.042925 1.697562 1.808418
5.024121 1.692894 2.693482
4.930026 1.652993 3.713254
4.867982 1.627918 4.640163
4.927816 1.659276 5.225140
4.908816 1.654581 6.123928
5.684369 1.463079 0.483548
5.452111 1.377099 0.888880
5.352299 1.344434 1.977993
5.253967 1.311755 2.944511
5.256479 1.316550 3.765532
5.238722 1.313855 4.624597
5.241975 1.319081 5.477649
5.236228 1.320961 6.343443
5.875042 0.997624 0.527016
5.775015 0.972938 1.335099
5.829207 0.991074 1.943023
5.660505 0.948066 3.004102
5.636624 0.945676 3.966611
5.614738 0.943465 4.844065
5.661889 0.959384 5.403713
5.648832 0.959281 6.194256
6.129300 0.552343 0.695841
6.177620 0.565330 1.473434
6.080350 0.549928 2.313967
6.048429 0.548084 3.308947
6.057664 0.553846 4.192090
6.153544 0.574796 4.655692
6.062832 0.561631 5.707846
6.041818 0.561212 6.540964
6.671083 0.108806 0.997879
6.639082 0.109159 1.898122
6.630568 0.111866 2.730577
6.637157 0.116023 3.504660
6.537984 0.109059 4.467017
6.502088 0.108776 5.323083
6.608790 0.123270 5.875801
7.036222 -0.403333 1.485425
7.113446 -0.397802 2.156781
7.058696 -0.395490 3.102915
7.064197 -0.391851 3.891133
7.152648 -0.385897 4.573173
7.111540 -0.383151 5.514170
7.137053 -0.379470 6.158870
6.731593 -0.950336 0.453590
6.897163 -0.955367 1.024404
6.790785 -0.945604 2.146995
6.776366 -0.941478 2.938379
6.696098 -0.933719 3.874711
6.781194 -0.935171 4.426720
6.710873 -0.927472 5.452670
6.743818 -0.925498 6.244814
6.586113 -1.489577 0.155884
6.362289 -1.456481 1.188334
6.407830 -1.459289 1.867394
6.329533 -1.444300 3.000981
6.343635 -1.442678 3.775463
6.310456 -1.434569 4.654037
6.314250 -1.431722 5.408136
6.286057 -1.424478 6.234581
6.128983 -1.956362 0.292254
5.918407 -1.907423 1.261880
6.021456 -1.926215 1.939208
6.036733 -1.925927 2.726110
5.938015 -1.899956 3.857026
5.934838 -1.895671 4.663844
6.000330 -1.907330 5.157558
5.930314 -1.887860 6.194179
6.030771 -2.476524 0.175797
5.576153 -2.336048 1.160547
5.606775 -2.341348 2.004532
5.678591 -2.359842 2.657519
5.637113 -2.343265 3.569993
5.568326 -2.318192 4.553979
5.631486 -2.334460 5.127563
5.567503 -2.311025 6.067784
5.257443 -2.794705 0.885752
5.298897 -2.807496 1.690658
5.258657 -2.787032 2.614984
5.258873 -2.783651 3.349936
5.205519 -2.757551 4.356674
5.225584 -2.762288 5.054665
5.202072 -2.749073 5.861277
4.994274 -3.158241 0.747741
4.959064 -3.136192 1.736593
4.958676 -3.131648 2.629504
4.968670 -3.133074 3.339814
4.874943 -3.082381 4.331616
4.894085 -3.089089 4.876569
4.871016 -3.072679 5.927050
4.642711 -3.536110 0.381432
4.586255 -3.496664 1.472538
4.567751 -3.480801 2.404602
4.569910 -3.478047 3.197384
4.564818 -3.471330 3.914322
4.493605 -3.423185 4.975007
4.537670 -3.445886 5.706655
4.572138 -3.463289 6.347999
4.239275 -3.828036 1.352979
4.261385 -3.839519 2.165187
4.252541 -3.828417 3.047669
4.261738 -3.831048 3.783489
4.210893 -3.789647 4.697370
4.176469 -3.759957 5.623981
4.181933 -3.759335 6.466428
4.088389 -3.688484 7.161139
4.015130 -4.234512 0.155126
3.967659 -4.188973 1.105700
4.021761 -4.230290 1.868203
3.953896 -4.166919 2.925073
3.991007 -4.194636 3.556954
3.880378 -4.094272 4.767246
3.934965 -4.137060 5.344581
3.912566 -4.113255 6.197262
3.686062 -4.589731 0.853778
3.576535 -4.473228 1.996113
3.585292 -4.476499 2.880846
3.591557 -4.477763 3.687512
3.595853 -4.477636 4.401268
3.624449 -4.501180 5.213079
3.601904 -4.472849 6.150699
3.298235 -4.875893 0.853778
3.328718 -4.907180 1.535708
3.257115 -4.815039 2.689413
3.294635 -4.854238 3.427004
3.278895 -4.830402 4.209743
3.213317 -4.746481 5.197279
3.271970 -4.811918 5.735715
2.970436 -5.214186 0.844552
3.009402 -5.263427 1.481868
2.945281 -5.167446 2.430202
2.911190 -5.112007 3.523183
2.961078 -5.175310 4.304435
2.946654 -5.148418 5.225841
2.903763 -5.082851 6.042199
2.626712 -5.641894 0.897898
2.591997 -5.574744 1.964363
2.580405 -5.548260 2.796156
2.582909 -5.546137 3.535557
2.591453 -5.552765 4.432995
2.592094 -5.547258 5.203840
2.580517 -5.520916 6.022221
2.259301 -5.954283 0.998588
2.287524 -6.003795 1.708700
2.255823 -5.931245 2.639518
2.282027 -5.976528 3.368979
2.296654 -5.998302 4.133743
2.268535 -5.932851 5.071593
2.272777 -5.934448 5.774738
2.036781 -6.796592 0.141263
1.867514 -6.365100 1.020942
1.868153 -6.355989 1.931987
1.899593 -6.426011 2.630401
1.876338 -6.356778 3.598519
1.872101 -6.336530 4.424838
1.894442 -6.385161 5.017072
1.876447 -6.329017 5.985074
1.540153 -7.225044 0.281413
1.421730 -6.826905 1.060379
1.457905 -6.935453 1.696771
1.404782 -6.744249 2.889232
1.415110 -6.765955 3.691762
1.415750 -6.755034 4.562079
1.435776 -6.810611 5.216091
1.444639 -6.827345 6.031428
0.862024 -7.088616 1.172094
0.877145 -7.141980 1.998667
0.880118 -7.140283 2.743341
0.880992 -7.125922 3.624556
0.893171 -7.167863 4.339990
0.899380 -7.182568 5.023778
0.891878 -7.129636 5.877318
0.875610 -7.032832 6.869320
0.265670 -7.030695 0.258133
0.220358 -6.654595 1.084762
0.223476 -6.647670 1.994715
0.219975 -6.590589 2.884264
0.227481 -6.624012 3.598519
0.225168 -6.575617 4.501128
0.222729 -6.526433 5.398502
0.225963 -6.523313 6.222641
-0.311879 -6.209917 0.620807
-0.311113 -6.145055 1.585115
-0.309355 -6.110138 2.411078
-0.305366 -6.115978 3.249285
-0.300788 -6.130610 4.114677
-0.298492 -6.115756 4.819049
-0.299783 -6.005729 5.864153
-0.295231 -6.025461 6.661718
-0.802377 -5.799437 1.218823
-0.796960 -5.748939 2.132682
-0.792220 -5.714718 2.996015
-0.785978 -5.640845 3.949184
-0.780541 -5.594926 4.897068
-0.777165 -5.606743 5.742757
-0.776840 -5.696564 6.389944
-1.273501 -5.365089 1.368434
-1.265093 -5.327358 2.270722
-1.260893 -5.321916 3.078195
-1.249452 -5.257214 3.950152
-1.253257 -5.314267 4.605847
-1.248766 -5.311936 5.562070
-1.242284 -5.288586 6.410308
-1.628542 -5.060461 0.431664
-1.602449 -4.951383 1.578130
-1.612774 -5.023260 2.362598
-1.589499 -4.926795 3.420953
-1.593019 -4.959652 4.048745
-1.580858 -4.918665 5.007680
-1.583886 -4.950986 5.722551
-1.967260 -4.654102 0.761486
-1.975828 -4.699006 1.636803
-1.986256 -4.746908 2.287258
-1.941587 -4.605229 3.403069
-1.939741 -4.612493 4.255309
-1.929404 -4.589302 5.102892
-1.911653 -4.540683 6.018376
-2.323696 -4.348165 0.790980
-2.316228 -4.339326 1.675118
-2.318019 -4.354085 2.480021
-2.300656 -4.320239 3.465786
-2.312524 -4.360253 4.150423
-2.279111 -4.283233 5.090770
-2.286914 -4.312025 5.740660
-2.625488 -4.044340 0.610291
-2.618318 -4.038751 1.543849
-2.625070 -4.061656 2.388009
-2.623343 -4.066938 3.260264
-2.612450 -4.051790 4.028274
-2.602507 -4.039058 4.836432
-2.556830 -3.953287 5.883616
-2.860915 -3.725272 0.584731
-2.924544 -3.844059 1.380398
-2.890478 -3.794023 2.486195
-2.962828 -3.926112 3.054476
-2.875161 -3.782522 4.225674
-2.904367 -3.838982 4.809534
-2.839545 -3.735128 5.937592
-3.194667 -3.544777 1.204271
-3.210978 -3.575404 2.070686
-3.200455 -3.566440 2.901113
-3.126791 -3.467724 4.085004
-3.165478 -3.529292 4.714812
-3.140549 -3.500006 5.645835
-3.103186 -3.452357 6.557806
-3.471958 -3.238991 1.258153
-3.486946 -3.263463 2.142460
-3.499417 -3.283858 2.883172
-3.471260 -3.255967 3.833213
-3.433567 -3.216675 4.822691
-3.447466 -3.238767 5.555918
-3.383295 -3.167333 6.584845
-3.762161 -2.970507 1.278390
-3.769820 -2.985019 2.324218
-3.764715 -2.984904 3.143719
-3.713558 -2.937695 4.047835
-3.679427 -2.908066 4.947530
-3.735203 -2.969790 5.588761
-3.651814 -2.890479 6.688367
-4.059761 -2.708265 1.327809
-4.053983 -2.708434 2.226268
-4.017989 -2.682226 3.143762
-3.990091 -2.662459 3.948556
-3.983089 -2.661291 4.801582
-3.978749 -2.662272 5.623107
-4.358937 -2.474009 0.612532
-4.316969 -2.447036 1.449732
-4.313087 -2.448680 2.282434
-4.272833 -2.423865 3.278145
-4.277785 -2.431788 4.044217
-4.186899 -2.369426 5.136773
-4.161419 -2.354909 5.984278
-4.594863 -2.092074 0.770386
-4.592467 -2.095324 1.689097
-4.631116 -2.122996 2.411594
-4.534452 -2.068757 3.510005
-4.557705 -2.087644 4.378873
-4.529322 -2.074148 5.173100
-4.523648 -2.075016 6.023813
-4.741851 -1.741548 0.293835
-4.974085 -1.866625 1.149608
-4.963415 -1.865164 1.978285
-4.950425 -1.862418 2.791182
-4.898721 -1.839978 3.695442
-4.818048 -1.802878 4.683786
-4.855062 -1.825807 5.426605
-4.829565 -1.817190 6.368615
-5.213921 -1.468645 1.588095
-5.238735 -1.483126 2.474544
-5.294155 -1.509155 3.122930
-5.178606 -1.465842 4.082031
-5.157558 -1.461728 5.053248
-5.193742 -1.480373 5.824654
-5.158032 -1.469936 6.742961
-5.663821 -1.134910 0.854639
-5.688802 -1.146762 1.697507
-5.657833 -1.140699 2.529344
-5.633521 -1.137217 3.460301
-5.574720 -1.122812 4.410583
-5.530190 -1.112384 5.234724
-5.600712 -1.137581 5.817600
-6.118766 -0.796250 0.893631
-6.010849 -0.775179 1.915466
-6.110039 -0.801685 2.561877
-6.033672 -0.787978 3.552322
-5.989984 -0.781979 4.528091
-6.029564 -0.794288 5.170637
-5.966280 -0.783429 6.102316
-6.527469 -0.354755 1.461971
-6.614768 -0.370768 2.053968
-6.478941 -0.355049 3.207938
-6.471469 -0.357630 4.048875
-6.487786 -0.362814 4.653968
-6.518909 -0.370551 5.322579
-6.487691 -0.369794 6.232271
-7.109737 0.138239 0.890059
-7.092656 0.135451 1.801099
-7.171545 0.127144 2.417438
-7.176744 0.123480 3.167569
-7.042071 0.128277 4.252629
-7.138472 0.118779 4.856895
-7.115216 0.116779 5.688375
-7.094594 0.115083 6.407960
-7.781337 0.755832 0.534279
-7.743804 0.751011 1.510441
-7.857636 0.750119 2.090684
-7.779602 0.744155 3.193924
-7.753472 0.740321 3.982555
-7.785095 0.738101 4.594027
-7.690852 0.732006 5.673412
-7.782323 0.731059 6.192359
-7.641045 1.376175 0.475592
-7.506114 1.358345 1.598182
-7.525208 1.356938 2.332425
-7.484838 1.348791 3.307418
-7.554174 1.352062 4.069343
-7.599851 1.353874 4.649232
-7.498713 1.340350 5.526789
-7.481393 1.334567 6.465059
-7.125705 1.924461 0.569398
-7.080204 1.911847 1.579620
-7.153625 1.922477 2.135035
-7.138660 1.916330 2.916310
-7.150185 1.914115 3.876312
-7.154851 1.911572 4.634997
-6.978146 1.875767 5.595694
-6.936017 1.864759 6.380159
-6.666447 2.427668 0.528966
-6.658570 2.421080 1.523324
-6.709151 2.431424 2.191979
-6.650641 2.412173 3.026519
-6.577665 2.388052 4.091665
-6.704307 2.419243 4.597829
-6.576571 2.380293 5.740483
-6.677356 2.404701 6.234664
-6.239422 2.904178 0.621176
-6.224912 2.894537 1.583458
-6.325445 2.927483 2.197742
-6.184024 2.871889 3.322479
-6.215053 2.879180 4.130988
-6.263185 2.893261 4.789075
-6.190257 2.863002 5.711012
-6.178561 2.855157 6.502507
-5.879017 3.311452 0.669591
-5.817968 3.279466 1.691402
-5.955681 3.337777 2.274826
-5.920575 3.317758 3.201570
-5.929047 3.318044 3.926435
-5.867637 3.286095 4.907060
-5.837229 3.268373 5.789614
-5.886050 3.287244 6.372277
-5.480480 3.721884 0.808274
-5.500006 3.728058 1.706407
-5.640021 3.801335 2.333741
-5.608895 3.780066 3.192105
-5.615039 3.779418 3.993837
-5.491110 3.706554 5.042702
-5.549367 3.735414 5.630426
-5.597314 3.757877 6.372277
-5.224190 3.550051 7.215404
-5.177625 4.185111 0.740562
-5.156682 4.166369 1.679110
-5.217803 4.203016 2.379674
-5.152889 4.155099 3.349814
-5.154667 4.151923 4.178471
-5.162068 4.153068 4.890692
-5.119387 4.120395 5.751054
-4.820663 4.621475 0.698278
-4.785313 4.588113 1.679110
-4.861139 4.643973 2.389636
-4.806419 4.595868 3.273625
-4.829344 4.609756 4.026156
-4.775604 4.562202 4.949987
-4.765635 4.550620 5.616091
-4.741436 4.526749 6.472560
-4.472245 5.092460 0.495710
-4.463609 5.078942 1.391840
-4.410605 5.022129 2.543141
-4.451297 5.056118 3.259576
-4.379741 4.982628 4.280657
-4.465921 5.060834 4.763687
-4.366260 4.961303 5.716395
-4.340239 4.930962 6.689105
-4.100340 5.436672 0.543194
-4.046447 5.370546 1.651115
-4.116628 5.442796 2.343759
-4.066776 5.382056 3.302724
-4.022851 5.327947 4.238640
-4.068380 5.373670 4.864868
-4.005263 5.298202 5.858042
-4.076562 5.372888 6.363842
-3.714380 5.846019 0.757655
-3.665626 5.776346 1.694789
-3.724916 5.848292 2.341902
-3.683784 5.786981 3.486018
-3.662498 5.754333 4.206682
-3.646163 5.727383 5.024552
-3.701741 5.794323 5.701404
-3.660883 5.733859 6.776485
-3.304150 6.283072 0.915070
-3.300799 6.270621 1.817781
-3.322951 6.299061 2.533992
-3.337555 6.315840 3.250784
-3.294454 6.240924 4.286519
-3.298943 6.241446 5.082023
-3.302877 6.240622 5.938051
-3.332589 6.282462 6.440328
-2.946375 6.752581 1.046651
-2.945443 6.742660 1.942781
-2.959725 6.762079 2.686800
-2.957124 6.749335 3.556258
-2.990181 6.804060 4.211335
-2.926383 6.676609 5.330487
-2.934402 6.684392 6.088912
-2.459170 7.209519 0.709563
-2.451937 7.183083 1.620283
-2.498007 7.281657 2.217884
-2.508454 7.296461 3.045506
-2.517075 7.307196 3.863973
-2.490630 7.237148 4.755012
-2.477690 7.197334 5.698635
-2.518747 7.285497 6.202461
-1.968153 7.584603 0.830099
-1.975073 7.593369 1.662001
-1.934438 7.461716 2.809837
-1.948883 7.492172 3.631781
-1.984070 7.585529 4.191183
-1.968394 7.528087 5.134535
-1.963194 7.500844 6.063654
-1.125783 7.108316 0.715263
-1.099517 6.985671 1.730146
-1.115132 7.035617 2.405633
-1.117225 7.028786 3.249588
-1.105720 6.965484 4.227573
-1.132484 7.061186 4.823593
-1.117318 6.984454 5.738892
-1.115684 6.965025 6.459028
-0.493240 6.597581 0.372873
-0.481682 6.505488 1.373009
-0.481383 6.480521 2.281511
-0.488677 6.502512 3.062485
-0.490767 6.496949 3.749965
-0.481849 6.420113 4.747698
-0.484853 6.415292 5.611827
-0.498693 6.479057 6.232271
0.084379 6.142148 1.069690
0.094207 5.981508 2.158569
0.082782 6.074199 2.838305
0.080788 6.054495 3.699256
0.083742 5.981120 4.545831
0.078546 6.000056 5.335264
0.080142 5.926701 6.489979
0.598356 6.018020 0.174431
0.596905 5.717614 1.032471
0.593439 5.715217 1.828030
0.589704 5.681702 2.739234
0.586192 5.613473 3.660694
0.582016 5.540034 4.742752
0.578506 5.532375 5.557409
0.575190 5.536638 6.306918
1.054752 5.293819 1.082163
1.049044 5.275288 2.052865
1.043196 5.244913 2.845652
1.044518 5.296896 3.466014
1.030546 5.177070 4.522339
1.030945 5.219122 5.176732
1.021045 5.151525 6.232135
1.466340 5.135924 0.378719
1.449558 5.045491 0.928226
1.438165 5.000654 1.893658
1.422249 4.929075 2.922337
1.429330 4.992368 3.589373
1.398726 4.830863 4.713679
1.392016 4.812650 5.575427
1.404594 4.909370 6.198418
1.831176 4.758126 0.544719
1.805469 4.668316 1.351626
1.803516 4.676318 2.220681
1.801120 4.681067 3.010426
1.779787 4.610769 3.910647
1.771123 4.590480 4.726101
1.755987 4.546383 5.679601
1.767450 4.605346 6.350366
2.162440 4.446781 0.580855
2.133786 4.376828 1.727826
2.141245 4.408816 2.425366
2.126115 4.374183 3.197580
2.072949 4.231775 4.413676
2.073188 4.244016 5.247076
2.085962 4.289438 5.765090
2.484540 4.157389 1.599607
2.409432 3.995617 2.746957
2.409938 4.006561 3.628650
2.394133 3.979059 4.460370
2.373643 3.941719 5.386428
2.384773 3.975775 6.126719
2.664515 3.673945 1.304771
2.741225 3.826121 2.050054
2.734293 3.820048 2.801364
2.681468 3.730607 3.925681
2.709443 3.788899 4.495528
2.672935 3.729326 5.511244
2.640720 3.676851 6.417726
3.072458 3.596120 0.161308
3.002722 3.495879 1.206465
3.053479 3.581340 1.986423
2.978531 3.473665 3.116856
3.020099 3.543643 3.754357
2.965419 3.466100 4.703995
2.947410 3.445318 5.603212
2.914026 3.401275 6.589682
3.261966 3.281114 1.601170
3.302889 3.340476 2.267701
3.241690 3.265695 3.188911
3.178789 3.189734 4.259404
3.233237 3.266453 4.836128
3.200750 3.229102 5.646733
3.586121 3.044532 1.421042
3.599331 3.064360 2.195755
3.511137 2.972925 3.260983
3.554142 3.025390 3.942076
3.473038 2.942159 5.051654
3.461347 2.933778 5.762518
3.855914 2.789309 1.796924
3.853900 2.791723 2.513132
3.802927 2.748823 3.440167
3.745570 2.699500 4.309600
3.745622 2.705197 5.243538
3.768542 2.731966 6.063641
4.150968 2.531894 1.062080
4.083396 2.482945 2.070005
4.090180 2.492756 2.838115
4.032534 2.451561 3.798103
4.075755 2.490209 4.456177
3.993362 2.429863 5.568033
3.999232 2.438330 6.228837
4.494355 2.275768 0.439880
4.393621 2.213195 1.547968
4.355342 2.192164 2.487980
4.305840 2.163285 3.385655
4.361464 2.204286 3.991496
4.301026 2.167929 4.880215
4.221551 2.119426 5.917805
4.765924 1.949110 0.849394
4.715199 1.925484 1.835459
4.646251 1.891505 2.804631
4.675426 1.910954 3.403045
4.646092 1.899242 4.361054
4.596109 1.875031 5.147500
4.592274 1.877105 5.989851
5.265767 1.725126 0.421123
4.978923 1.597253 1.398532
4.957754 1.591982 2.333803
5.006672 1.617786 2.995335
4.934823 1.588935 3.898979
4.960507 1.603992 4.558971
4.899125 1.580405 5.550753
4.918809 1.593280 6.333142
5.316222 1.257943 1.058997
5.360552 1.278195 1.932996
5.402364 1.296242 2.531170
5.255825 1.247744 3.598275
5.269245 1.256161 4.353274
5.321078 1.278242 5.032182
5.314432 1.279697 5.864444
5.844740 0.941913 0.550787
5.798813 0.932393 1.237933
5.717713 0.914858 2.291455
5.705613 0.914929 3.040142
5.719579 0.922032 3.757648
5.607381 0.896285 4.887692
5.597125 0.897227 5.716564
5.653528 0.914962 6.202970
6.176876 0.503586 1.011572
6.180161 0.507636 1.782395
6.194173 0.513741 2.564124
6.173648 0.513658 3.407143
6.133063 0.509985 4.286833
6.127532 0.512349 5.049567
6.076198 0.506663 5.928640
6.806147 0.044005 0.215056
6.599828 0.027929 1.326229
6.558672 0.027891 2.267494
6.680780 0.042388 2.741571
6.558807 0.034850 3.844950
6.557848 0.037903 4.560512
6.564318 0.041801 5.296631
6.530040 0.042726 6.297943
7.054250 -0.447291 0.920796
7.072751 -0.443116 1.757294
7.141026 -0.438161 2.459042
7.089183 -0.435681 3.350766
7.105124 -0.431541 4.195286
7.165121 -0.427135 4.823762
7.058748 -0.425327 5.904663
7.133268 -0.421042 6.414370
6.817648 -1.022224 0.710449
6.792556 -1.016768 1.635951
6.861682 -1.017816 2.273147
6.739143 -1.005764 3.467415
6.787327 -1.005976 4.029622
6.674625 -0.995160 5.066881
6.755374 -0.996934 5.685772
6.749952 -0.992907 6.534982
6.436537 -1.562183 0.639953
6.441459 -1.559059 1.503885
6.331255 -1.538480 2.621225
6.319166 -1.532834 3.509494
6.375584 -1.538109 4.126647
6.337621 -1.529339 4.891422
6.326886 -1.523855 5.786616
6.344756 -1.522905 6.574453
5.998919 -1.471663 7.065874
6.009873 -2.005310 0.720301
6.009792 -2.001040 1.667505
6.050663 -2.007005 2.379546
5.993432 -1.990016 3.306286
6.036979 -1.996566 4.021767
5.910643 -1.963638 5.048115
5.923219 -1.963787 5.643083
5.830359 -1.937709 6.815232
5.682289 -2.441324 0.805570
5.605157 -2.412652 1.820675
5.665490 -2.427755 2.623133
5.581871 -2.397339 3.578175
5.625139 -2.408112 4.166302
5.601869 -2.396771 5.059218
5.626064 -2.400982 5.783346
5.296636 -2.833988 0.889789
5.288410 -2.826584 1.752676
5.193865 -2.783287 2.823731
5.257387 -2.805955 3.463348
5.162723 -2.762631 4.529915
5.259325 -2.799144 5.070736
5.189005 -2.766121 6.040882
4.910282 -3.202883 0.383670
4.846941 -3.166660 1.241427
4.881345 -3.180234 2.018485
4.867238 -3.168776 2.900343
4.864819 -3.163816 3.661811
4.875479 -3.165451 4.426553
4.813290 -3.128801 5.489838
4.796277 -3.116154 6.314728
4.598742 -3.541514 1.269215
4.505349 -3.479346 2.331892
4.502500 -3.473140 3.205156
4.509435 -3.473494 3.957907
4.518685 -3.475459 4.670694
4.525535 -3.475282 5.517006
4.541086 -3.481122 6.220399
4.178818 -3.855017 0.522978
4.221195 -3.881468 1.363297
4.223329 -3.877956 2.298040
4.265618 -3.905304 2.961212
4.210115 -3.859560 3.905580
4.253894 -3.887592 4.643645
4.182350 -3.828990 5.793913
4.186906 -3.828645 6.471729
3.992859 -3.682952 7.150405
3.896678 -4.218499 1.649673
3.922091 -4.236176 2.396889
3.865588 -4.181494 3.389567
3.835254 -4.150013 4.289218
3.853974 -4.162203 4.983037
3.887959 -4.187743 5.654336
3.626730 -4.556292 1.529382
3.569558 -4.492433 2.545851
3.608599 -4.527998 3.145681
3.573626 -4.487155 4.053684
3.544162 -4.451567 5.008513
3.582283 -4.485928 5.653214
3.585589 -5.284882 0.787010
3.197915 -4.815047 1.749688
3.205485 -4.818588 2.556362
3.241432 -4.857454 3.155487
3.230592 -4.838905 3.975354
3.207002 -4.803266 5.066677
3.269893 -4.873809 5.742152
2.948343 -5.334276 0.878717
2.921136 -5.289020 1.711044
2.915270 -5.274106 2.565128
2.937535 -5.299989 3.343432
2.938185 -5.293839 4.269674
2.937890 -5.287573 5.034442
2.888522 -5.210569 5.875080
2.608991 -5.653307 1.067177
2.599567 -5.629694 1.967328
2.579164 -5.587802 2.841039
2.591378 -5.600637 3.744050
2.589232 -5.589340 4.638732
2.537138 -5.493437 5.581386
2.560394 -5.527322 6.200597
2.180252 -6.008556 1.301308
2.158254 -5.952829 2.290057
2.223234 -6.082321 2.844687
2.181885 -5.985498 3.918973
2.168790 -5.948339 4.901775
2.176440 -5.958325 5.487453
2.146871 -5.887682 6.394670
1.812881 -6.453955 0.532574
1.776966 -6.347896 1.641406
1.837075 -6.496138 2.200834
1.826820 -6.458535 3.121473
1.823537 -6.441372 3.839193
1.812168 -6.402079 4.662304
1.793704 -6.340969 5.775719
1.823598 -6.410899 6.367243
1.393391 -7.167163 0.121693
1.316899 -6.887101 1.037763
1.336675 -6.943842 1.790670
1.307186 -6.823219 2.943446
1.343949 -6.943219 3.425840
1.316248 -6.830254 4.486864
1.326423 -6.853778 5.232632
1.336988 -6.879271 5.939390
0.832833 -7.104553 0.579185
0.846962 -7.153416 1.446992
0.840134 -7.100352 2.407370
0.857321 -7.168227 3.067836
0.869270 -7.210571 3.753922
0.854125 -7.114792 4.857035
0.862069 -7.137961 5.546493
0.867311 -7.150099 6.149051
0.125817 -6.323411 0.344295
0.162739 -6.584163 1.474449
0.168896 -6.602952 2.348299
0.177687 -6.653767 2.930033
0.168795 -6.541736 4.024088
0.177538 -6.589215 4.687733
0.175318 -6.541234 5.516220
0.183620 -6.587887 6.102775
-0.368009 -6.140942 0.874319
-0.364606 -6.133529 1.726011
-0.359458 -6.154713 2.684348
-0.355671 -6.154155 3.553717
-0.356027 -6.058100 4.450472
-0.353006 -6.048255 5.239597
-0.349956 -6.031118 6.109664
-0.873805 -5.678962 0.861429
-0.875755 -5.795898 1.504905
-0.872657 -5.804835 2.294748
-0.861950 -5.659172 3.381202
-0.859909 -5.697269 4.201423
-0.855454 -5.682058 5.076096
-0.853878 -5.718173 5.771645
-1.272977 -5.328776 0.552738
-1.268670 -5.326027 1.456219
-1.272306 -5.382648 2.139083
-1.262813 -5.338079 3.104961
-1.255399 -5.307002 3.958642
-1.247484 -5.271476 4.807460
-1.240221 -5.245897 5.773206
-1.234054 -5.225570 6.630394
-1.211398 -5.046458 6.999092
-1.653876 -4.972786 1.371983
-1.669674 -5.064487 1.970474
-1.644507 -4.962669 3.012679
-1.624520 -4.886838 4.067167
-1.634118 -4.948900 4.716961
-1.637367 -4.980519 5.415316
-1.631853 -4.972639 6.294063
-2.028041 -4.600796 1.361757
-2.028682 -4.617070 2.275517
-2.025258 -4.618915 3.144593
-2.017857 -4.606531 3.962683
-2.012693 -4.599861 4.661067
-2.004946 -4.585499 5.426671
-1.989546 -4.551444 6.592131
-1.920639 -4.328861 7.259582
-2.330405 -4.323689 0.652329
-2.338271 -4.354771 1.494369
-2.357512 -4.413799 2.175404
-2.335551 -4.368287 3.170955
-2.329870 -4.363225 3.972759
-2.317127 -4.339960 4.805591
-2.277981 -4.249828 5.849756
-2.639714 -4.037903 0.904425
-2.611036 -3.988051 1.906268
-2.645534 -4.067455 2.613730
-2.642696 -4.069176 3.367644
-2.620152 -4.030599 4.215395
-2.565760 -3.928228 5.346012
-2.572237 -3.948858 6.041852
-2.925712 -3.736377 2.747639
-2.966095 -3.810517 3.358768
-2.908391 -3.721652 4.457813
-2.938856 -3.778716 5.049493
-2.898875 -3.719065 6.032859
-3.237647 -3.508965 1.076164
-3.226077 -3.499883 2.051376
-3.221392 -3.499334 2.855866
-3.202685 -3.479049 3.699597
-3.161108 -3.426809 4.637780
-3.134644 -3.396126 5.571214
-3.183962 -3.470932 6.138868
-3.520610 -3.240702 1.113310
-3.465618 -3.182209 2.249709
-3.472067 -3.195746 3.089721
-3.440859 -3.164342 3.995555
-3.442762 -3.172257 4.814772
-3.454319 -3.190738 5.478039
-3.423182 -3.158973 6.318877
-3.774443 -2.944616 1.479035
-3.853110 -3.029316 2.163654
-3.758463 -2.938821 3.161643
-3.749368 -2.935072 4.047277
-3.766058 -2.956413 4.730805
-3.659736 -2.855260 5.932234
-4.068023 -2.674466 1.354656
-4.051508 -2.665587 2.288932
-4.052070 -2.670298 3.018263
-4.016166 -2.645702 4.135305
-4.040499 -2.670605 4.799570
-3.982001 -2.624611 5.597738
-4.319896 -2.380383 0.607649
-4.360847 -2.415145 1.459795
-4.364465 -2.422922 2.400248
-4.324525 -2.398603 3.331746
-4.327921 -2.405310 4.105776
-4.264591 -2.362820 4.860229
-4.199093 -2.320452 5.930450
-4.682090 -2.117651 0.693636
-4.585401 -2.064355 1.860241
-4.607614 -2.081635 2.572252
-4.552759 -2.052679 3.483254
-4.512590 -2.033202 4.486588
-4.586834 -2.081793 5.082864
-4.551413 -2.064990 6.039911
-4.888844 -1.747743 1.115680
-4.925396 -1.770260 1.948774
-4.977503 -1.799966 2.648737
-4.880221 -1.756312 3.748697
-4.834324 -1.737112 4.552111
-4.842600 -1.744983 5.306069
-4.870843 -1.763236 6.123928
-5.312930 -1.458080 0.200140
-5.225220 -1.427643 1.281950
-5.239685 -1.438045 2.242516
-5.261618 -1.450383 2.971851
-5.251966 -1.449848 3.686379
-5.152872 -1.414909 4.792017
-5.182412 -1.430170 5.487628
-5.125872 -1.411815 6.452837
-5.604658 -1.076663 0.651211
-5.627428 -1.088186 1.613379
-5.715233 -1.118351 2.213222
-5.576017 -1.079521 3.222608
-5.669542 -1.111693 3.870846
-5.608172 -1.096720 4.783022
-5.611383 -1.101286 5.559545
-5.587921 -1.098219 6.487474
-6.065433 -0.700418 1.031262
-6.106453 -0.712953 1.779205
-6.113176 -0.718048 2.579069
-6.056840 -0.709657 3.517865
-5.986053 -0.698200 4.493776
-5.958081 -0.696103 5.420857
-5.924476 -0.692037 6.190060
-6.669337 -0.325406 0.529953
-6.521259 -0.308226 1.540374
-6.599501 -0.322668 2.218151
-6.628974 -0.330621 3.041147
-6.584176 -0.327858 3.896833
-6.509644 -0.320724 4.747294
-6.434586 -0.314173 5.746559
-6.460612 -0.321323 6.501998
-7.036398 0.239388 0.470323
-7.246225 0.224722 1.060845
-7.154575 0.225517 2.081839
-7.107947 0.224159 3.002827
-7.051573 0.223582 3.873690
-7.048969 0.219971 4.731042
-7.159825 0.211358 5.239847
-7.062176 0.212899 6.169585
-7.812160 0.768881 0.857597
-7.801528 0.765373 1.618717
-7.728144 0.759532 2.679216
-7.777872 0.756663 3.518982
-7.785349 0.753626 4.240010
-7.712610 0.748775 5.076867
-7.694830 0.744909 5.893270
-7.766995 0.743497 6.483837
-7.534309 1.422379 0.888383
-7.535096 1.418152 1.866672
-7.560405 1.417544 2.598049
-7.529731 1.410983 3.369001
-7.528774 1.407328 4.176630
-7.458136 1.396044 5.083516
-7.430370 1.389424 5.936275
-7.489726 1.393116 6.488889
-7.028569 1.957794 0.795671
-7.116448 1.971096 1.472144
-7.021143 1.948965 2.467780
-6.997784 1.940965 3.290135
-7.047855 1.946618 4.107809
-7.120365 1.957475 4.692797
-6.995076 1.929897 5.661393
-7.018141 1.931614 6.237358
-6.552161 2.467241 0.887938
-6.588926 2.473735 1.684143
-6.664806 2.491523 2.362227
-6.616647 2.474258 3.247237
-6.579281 2.460142 4.092245
-6.618193 2.467410 4.848208
-6.607451 2.460822 5.648029
-6.579845 2.449052 6.567642
-6.308481 2.963287 0.612517
-6.301483 2.956645 1.495469
-6.254636 2.935217 2.460943
-6.249368 2.929644 3.248900
-6.220515 2.915027 4.148265
-6.204674 2.905339 4.999034
-6.187145 2.895844 5.677360
-5.921635 3.420530 0.881063
-5.859958 3.387561 1.854751
-5.781932 3.346893 2.870839
-5.780733 3.342460 3.676731
-5.732130 3.315713 4.603003
-5.746584 3.318517 5.396417
-5.841959 3.359911 5.880220
-5.494784 3.820384 1.245906
-5.494506 3.815972 2.092848
-5.469157 3.797224 2.990375
-5.519656 3.822265 3.652080
-5.391257 3.744173 4.840296
-5.416592 3.754928 5.531955
-5.436968 3.762585 6.286018
-5.046183 4.184957 0.722257
-5.069945 4.196669 1.544269
-5.038814 4.170253 2.561762
-5.167460 4.254683 3.034853
-5.046504 4.167357 4.092367
-5.037508 4.156830 4.933678
-5.060533 4.168244 5.717878
-5.015020 4.132952 6.575829
-4.856186 4.023034 7.065183
-4.747058 4.626841 0.799806
-4.690727 4.576153 1.787466
-4.707973 4.584599 2.745053
-4.713318 4.584484 3.528593
-4.758426 4.617558 4.076499
-4.685774 4.553715 5.077504
-4.706730 4.566491 5.793476
-4.477789 5.128226 0.886988
-4.427407 5.075274 1.747850
-4.336182 4.982098 2.858838
-4.468941 5.104631 3.406678
-4.457401 5.088818 4.214330
-4.390740 5.020024 5.143402
-4.344072 4.970203 6.068871
-4.079568 5.455647 0.481571
-4.074290 5.445585 1.132347
-4.063589 5.427654 2.072686
-4.014822 5.367326 3.078180
-4.066930 5.420750 3.696398
-4.064322 5.413172 4.417541
-4.039514 5.380706 5.201609
-4.040330 5.376362 6.005974
-3.636847 5.839127 0.514980
-3.651537 5.852065 1.394377
-3.693037 5.901523 2.093631
-3.641098 5.825320 3.196356
-3.695542 5.892572 3.786297
-3.629247 5.798113 4.805809
-3.697521 5.884046 5.324755
-3.676985 5.850383 6.249320
-3.321892 6.366668 0.634798
-3.289323 6.307281 1.698926
-3.323536 6.355258 2.357441
-3.308258 6.324618 3.199605
-3.300806 6.305474 4.128030
-3.296643 6.292874 4.881776
-3.253011 6.217174 5.831330
-3.307481 6.297858 6.349604
-2.855173 6.827125 1.093344
-2.847610 6.805072 1.901455
-2.892430 6.885040 2.488816
-2.858163 6.809982 3.514947
-2.891387 6.867264 4.161868
-2.886010 6.849099 4.999862
-2.842126 6.755957 5.997843
-2.514898 7.420764 0.337095
-2.458824 7.279431 1.423690
-2.456985 7.265068 2.342680
-2.470570 7.288866 3.027513
-2.458320 7.250877 3.910866
-2.470199 7.269705 4.689547
-2.472589 7.267890 5.354838
-2.453635 7.213552 6.318193
-1.863616 7.578346 0.506582
-1.827728 7.456959 1.551602
-1.861680 7.547983 2.291859
-1.856406 7.518396 3.298349
-1.870095 7.550359 3.940719
-1.843570 7.457111 4.969384
-1.863102 7.504857 5.730423
-1.877511 7.539433 6.339025
-1.083476 6.994678 0.562334
-1.065482 6.904578 1.558457
-1.078011 6.940960 2.321879
-1.083702 6.951666 2.990496
-1.080166 6.921707 3.863856
-1.069325 6.859723 4.889814
-1.080317 6.891676 5.557833
-1.061276 6.799721 6.424567
-0.424851 6.557637 0.519600
-0.407322 6.426045 1.437093
-0.414319 6.446833 2.244546
-0.419793 6.456482 3.121055
-0.419452 6.428401 4.082618
-0.417365 6.391034 4.994396
-0.419105 6.386509 5.553616
-0.423201 6.384127 6.564409
0.148693 6.091120 0.421641
0.148485 6.044272 1.338617
0.151093 5.962477 2.263556
0.144552 5.998166 3.089348
0.138642 6.030762 3.828955
0.137560 5.995681 4.726387
0.139067 5.923068 5.731295
0.132148 5.981851 6.214623
0.654719 5.560268 0.706477
0.651068 5.607115 1.563969
0.648671 5.656942 2.136789
0.643190 5.501834 3.308565
0.640739 5.592133 3.914312
0.636023 5.515349 4.951652
0.633524 5.579584 5.555160
0.629063 5.514450 6.539988
1.091226 5.347202 0.250704
1.078248 5.252190 1.405254
1.080481 5.320439 2.188810
1.066205 5.205998 3.270974
1.063120 5.202973 3.915593
1.056319 5.166246 4.767774
1.049827 5.139434 5.737416
1.052982 5.210605 6.366405
1.504595 5.031860 0.509314
1.483459 4.933397 1.512482
1.473873 4.900634 2.421117
1.488630 5.002099 2.968068
1.471109 4.922629 3.881738
1.449053 4.818160 4.863287
1.440315 4.790321 5.768520
1.450071 4.864273 6.392103
1.847054 4.652944 0.566313
1.837012 4.627402 1.350415
1.821861 4.584397 2.281799
1.815772 4.576416 3.179801
1.818121 4.600998 4.043755
1.815910 4.606918 4.866171
1.806244 4.579114 5.439638
1.774583 4.475050 6.587191
2.137497 4.249454 0.514344
2.174164 4.368191 1.391587
2.162162 4.345196 2.279977
2.138193 4.289279 3.314098
2.129471 4.274230 4.082628
2.119438 4.256141 4.909298
2.095359 4.198636 5.849394
2.376207 3.889340 0.771282
2.464356 4.103004 1.606634
2.461810 4.106333 2.441320
2.457699 4.106652 3.332042
2.417008 4.023175 4.316289
2.393715 3.979501 5.251166
2.377813 3.952231 6.119671
2.829286 3.868562 0.202493
2.751060 3.735637 1.446072
2.788641 3.810797 2.077675
2.727329 3.707204 3.116797
2.728591 3.717215 3.952188
2.711290 3.693093 4.801151
2.704230 3.687823 5.645050
2.692110 3.673350 6.503656
2.986532 3.459866 0.503718
3.066003 3.591707 1.503975
3.042554 3.562709 2.430606
2.998792 3.501667 3.305943
2.981173 3.482524 4.328452
2.981785 3.489684 5.094206
2.934175 3.421780 5.862013
3.285358 3.227781 2.764614
3.243862 3.180637 3.702374
3.215305 3.149807 4.572524
3.213262 3.153485 5.454305
3.209007 3.153624 6.243257
3.787360 3.223063 0.343672
3.664381 3.091751 1.031296
3.543433 2.965779 2.193579
3.598700 3.030656 2.783372
3.498177 2.927230 3.944314
3.555775 2.994606 4.522556
3.472030 2.909821 5.700977
3.445132 2.885563 6.535353
3.947921 2.811280 0.556531
3.943219 2.811280 1.289668
3.811441 2.693980 2.276201
3.792002 2.681439 3.215777
3.873439 2.762197 3.984949
3.837615 2.733137 4.724799
3.707939 2.618587 5.842086
4.188092 2.487045 0.622359
4.136411 2.452156 1.680266
4.142084 2.460833 2.432818
4.066368 2.406991 3.493704
4.051676 2.399734 4.271309
4.037163 2.392892 5.098082
4.073292 2.425190 5.775742
4.390931 2.143625 1.008386
4.477903 2.204599 1.632512
4.410999 2.165617 2.659623
4.398548 2.161877 3.519306
4.407547 2.171492 4.212966
4.290249 2.099105 5.244419
4.262026 2.084470 6.022017
4.932602 1.995686 0.596161
4.768647 1.908156 1.239850
4.700590 1.875132 2.167991
4.688950 1.872819 2.992856
4.671714 1.867379 3.811915
4.678502 1.874723 4.528252
4.585114 1.828206 5.561883
4.650744 1.868452 6.344501
5.014026 1.548988 0.518160
5.093096 1.588787 1.403882
5.054184 1.575686 2.318418
4.982421 1.548210 3.314635
4.976864 1.549195 4.039889
4.895664 1.517937 5.131910
4.921342 1.532998 5.864394
5.762090 1.351584 0.325257
5.435352 1.239328 0.993878
5.442095 1.245589 1.829023
5.335659 1.213154 2.936706
5.315963 1.209969 3.747920
5.319233 1.214460 4.466267
5.331803 1.222294 5.197309
5.324080 1.223510 6.046042
5.738804 0.847107 0.685418
5.707035 0.843398 1.713474
5.722130 0.850631 2.432685
5.698967 0.848393 3.285393
5.660318 0.842523 4.236426
5.722906 0.861905 4.876569
5.669655 0.852257 5.842501
5.665810 0.854427 6.545061
6.508209 0.546792 0.319808
6.248729 0.502070 1.034960
6.103460 0.480206 2.147830
6.162885 0.494542 2.903032
6.141698 0.494799 3.838916
6.165113 0.502035 4.492838
6.169672 0.505847 5.159680
6.121131 0.501171 6.121854
6.738762 0.035604 0.801197
6.716092 0.037399 1.729045
6.668588 0.036904 2.706468
6.650951 0.039090 3.607688
6.688578 0.045520 4.204831
6.619517 0.042976 5.211443
6.635602 0.047891 5.958765
7.121810 -0.518133 0.437297
7.125187 -0.513864 1.398309
7.204513 -0.509301 2.120965
7.066548 -0.507015 3.197166
7.006073 -0.504158 4.092245
7.102816 -0.499838 4.689744
7.064116 -0.496032 5.713860
7.130116 -0.492921 6.158870
6.836290 -1.097266 0.369510
6.773714 -1.088796 1.356325
6.830390 -1.089131 2.133732
6.805104 -1.083879 2.949280
6.657506 -1.069235 4.061296
6.679214 -1.067439 4.797402
6.674749 -1.063714 5.578597
6.731191 -1.064634 6.219563
6.186345 -1.572808 0.394588
6.397478 -1.601402 1.044071
6.275256 -1.578251 2.157928
6.334279 -1.583423 2.976511
6.403438 -1.590943 3.606300
6.308932 -1.572593 4.568977
6.273180 -1.563771 5.357641
6.290992 -1.563442 6.031382
5.943823 -2.056662 0.134642
5.906528 -2.043150 1.193275
5.812601 -2.016852 2.140582
5.837186 -2.018525 3.050787
5.840940 -2.015432 3.933983
5.867154 -2.018643 4.587000
5.900630 -2.023503 5.252334
5.833448 -2.003836 6.120622
5.354849 -2.414021 0.077008
5.518201 -2.461129 1.347244
5.528616 -2.460349 2.249927
5.555960 -2.465941 2.960671
5.560397 -2.463658 3.768860
5.593766 -2.471259 4.467419
5.503746 -2.437609 5.437300
5.483469 -2.427264 6.256441
5.250765 -2.842031 1.627020
5.202400 -2.817743 2.569758
5.123725 -2.780984 3.522496
5.213482 -2.815302 4.044945
5.196610 -2.804257 4.917199
5.181957 -2.794227 5.767054
4.898197 -3.219300 1.263961
4.849436 -3.189825 2.194698
