-0.417042 -1.921905 7.995368
-1.366395 -0.023201 8.027826
-0.227172 1.021086 8.008000
1.291791 0.831216 7.976706
-0.227172 -1.921905 8.021600
1.101921 -1.447229 7.985405
-0.891718 -1.732035 8.044188
-0.891718 -0.592812 8.038731
0.532310 0.831216 8.029952
-1.461329 0.071734 8.039914
-0.891718 -0.497877 8.006155
1.291791 -1.257359 8.058066
-1.366395 0.071734 7.985466
-1.461329 0.166669 8.012127
-0.606913 1.305892 8.015895
0.627245 0.926151 8.053745
0.057634 -1.921905 8.024336
-1.556265 0.356540 8.057173
-1.081589 -0.877618 8.016273
-0.322107 1.210957 8.018390
0.817115 1.021086 8.035542
-1.461329 0.261605 7.999687
-1.461329 0.356540 7.967611
1.196856 0.926151 8.043097
-1.556265 0.451475 8.023415
1.101921 1.021086 7.989249
0.152569 0.826020 8.105848
0.143562 0.831216 8.105848
0.200037 0.779690 8.105848
0.193607 0.783748 8.105848
0.247504 0.763303 8.105848
1.481662 0.513142 8.105848
1.461688 0.546410 8.105848
1.576597 0.397229 8.105848
1.574334 0.404007 8.105848
1.576597 0.420041 8.105848
1.604362 0.356540 8.105848
1.580704 0.451475 8.105848
1.529130 0.480762 8.105848
1.495107 0.498943 8.105848
1.576597 0.460961 8.105848
1.434194 0.580885 8.105848
1.426404 0.593878 8.105848
1.416804 0.641346 8.105848
0.200037 0.736280 8.063415
0.152569 0.783748 8.091294
0.057634 0.831216 8.087638
0.105101 0.831216 8.095429
1.481662 0.498943 8.081801
1.576597 0.404007 8.098424
1.576597 0.451475 8.069845
0.247504 0.791756 8.153316
0.213908 0.831216 8.153316
1.481662 0.524822 8.153316
1.468453 0.546410 8.153316
1.576597 0.382712 8.153316
1.547306 0.404007 8.153316
1.539707 0.451475 8.153316
1.588117 0.356540 8.153316
1.529130 0.491317 8.153316
1.522971 0.498943 8.153316
1.457030 0.593878 8.153316
1.435492 0.641346 8.153316
1.624064 0.267273 8.153316
1.589907 0.309072 8.153316
1.627890 0.261605 8.153316
0.152569 0.831216 8.109894
0.200037 0.783748 8.111377
0.247504 0.783748 8.147320
0.200037 0.831216 8.143621
1.576597 0.451475 8.119409
1.434194 0.593878 8.123676
1.434194 0.641346 8.150081
-0.986653 -1.681245 8.153316
0.342439 -1.848367 8.153316
-1.011377 -0.782682 8.153316
-1.483674 0.736280 8.153316
1.605334 -0.782682 8.153316
0.437375 -1.846517 8.153316
-1.052615 -1.637099 8.153316
1.628021 -0.687747 8.153316
-0.986653 -0.741708 8.153316
-1.461329 0.804836 8.153316
1.668943 -0.592812 8.153316
0.471463 -1.826970 8.153316
-1.081589 -1.597445 8.153316
0.152569 0.897214 8.153316
-1.122839 -1.542164 8.153316
0.132662 0.926151 8.153316
1.671532 -0.577840 8.153316
0.530169 -1.732035 8.153316
-1.454299 0.831216 8.153316
-1.176524 -0.442838 8.153316
1.291791 0.806955 8.153316
1.685669 -0.497877 8.153316
-1.215985 -0.402942 8.153316
-0.132236 1.012016 8.153316
-0.796783 -1.771631 8.153316
1.720957 -0.402942 8.153316
-0.166272 1.021086 8.153316
1.271810 0.831216 8.153316
-0.846425 -1.732035 8.153316
-0.037302 0.979603 8.153316
0.532310 -1.731162 8.153316
-1.081589 -0.512911 8.153316
-0.701848 -1.802280 8.153316
-0.221292 1.116022 8.153316
-1.404561 0.926151 8.153316
-1.111282 -0.497877 8.153316
-0.606913 -1.816272 8.153316
0.627245 -1.745577 8.153316
1.196856 0.881589 8.153316
0.057634 0.972539 8.153316
0.536690 -1.732035 8.153316
-0.986653 -0.524935 8.153316
1.756426 -0.308007 8.153316
-1.366395 0.982540 8.153316
-0.891718 -1.705839 8.153316
0.683865 -1.732035 8.153316
1.149051 0.926151 8.153316
0.342439 0.797033 8.153316
1.724977 -0.213071 8.153316
0.722180 -1.709230 8.153316
1.708763 -0.118136 8.153316
-0.511978 -1.855099 8.153316
0.437375 0.827550 8.153316
-1.335368 1.021086 8.153316
-0.574276 -1.826970 8.153316
1.687791 -0.023201 8.153316
0.445122 0.831216 8.153316
0.795164 -1.637099 8.153316
-1.461329 -0.031722 8.153316
1.006986 1.089721 8.153316
-0.417042 -1.898309 8.153316
0.532310 0.861799 8.153316
0.817115 -1.620017 8.153316
-1.467096 -0.023201 8.153316
-1.271459 1.110015 8.153316
0.957952 1.116022 8.153316
-0.322107 -1.887457 8.153316
0.912051 -1.573255 8.153316
-1.366395 -0.079629 8.153316
-0.227172 1.160438 8.153316
-0.227172 -1.907569 8.153316
-1.556265 0.048060 8.153316
-1.267642 1.116022 8.153316
1.101921 1.036060 8.153316
0.932607 -1.542164 8.153316
-1.570845 0.071734 8.153316
-1.248545 -0.308007 8.153316
0.605276 0.926151 8.153316
-1.570224 0.166669 8.153316
-1.176524 -1.445858 8.153316
1.118407 1.021086 8.153316
-1.271459 -0.276627 8.153316
0.627245 0.946410 8.153316
1.006986 -1.482769 8.153316
-1.234241 -1.352294 8.153316
-1.564423 0.261605 8.153316
-1.198370 1.210957 8.153316
0.722180 1.000316 8.153316
1.055284 -1.447229 8.153316
-1.338031 -0.213071 8.153316
-1.175176 -1.447229 8.153316
-1.610933 0.356540 8.153316
0.750192 1.021086 8.153316
1.101921 -1.415819 8.153316
-1.176524 1.222703 8.153316
0.851888 1.116022 8.153316
-1.258480 -1.257359 8.153316
-1.353577 -0.118136 8.153316
0.817115 1.087583 8.153316
1.192630 -1.352294 8.153316
-1.081589 1.192830 8.153316
0.912051 1.139335 8.153316
-1.193328 -1.162424 8.153316
-1.601296 0.451475 8.153316
-1.161071 1.210957 8.153316
-1.591774 0.546410 8.153316
-1.176524 -1.146768 8.153316
1.196856 -1.348453 8.153316
-1.571184 0.641346 8.153316
-0.962618 -0.687747 8.153316
-1.151700 -1.067488 8.153316
-0.986653 1.204813 8.153316
-1.556265 0.662422 8.153316
-1.143700 -0.972553 8.153316
-0.956255 -0.592812 8.153316
1.282463 -1.257359 8.153316
1.671532 0.175245 8.153316
-1.109420 -0.877618 8.153316
1.291791 -1.234742 8.153316
-0.978271 1.210957 8.153316
-1.081589 -0.841393 8.153316
1.699166 0.071734 8.153316
-0.927955 1.305892 8.153316
1.386726 -1.163760 8.153316
1.675533 0.166669 8.153316
-0.132236 -1.900300 8.153316
-0.891718 1.327505 8.153316
1.388098 -1.162424 8.153316
-0.037302 -1.891504 8.153316
-0.796783 1.357360 8.153316
1.442979 -1.067488 8.153316
1.386726 0.701293 8.153316
-0.701848 1.356295 8.153316
0.057634 -1.910787 8.153316
1.481662 -1.022923 8.153316
1.362106 0.736280 8.153316
-0.606913 1.331613 8.153316
0.152569 -1.896650 8.153316
1.517209 -0.972553 8.153316
-0.417042 1.297916 8.153316
1.561448 -0.877618 8.153316
0.247504 -1.855862 8.153316
-0.430526 1.305892 8.153316
1.576597 -0.841006 8.153316
-0.230191 1.210957 8.153316
-0.322107 1.281995 8.153316
-0.511978 1.356922 8.153316
0.437375 -1.826970 8.096760
-1.176524 -0.402942 8.097384
-1.366395 0.926151 8.073507
1.576597 -0.782682 8.100106
-0.322107 -1.921905 8.061456
-1.081589 -0.497877 8.133877
0.532310 -1.732035 8.151271
1.671532 -0.497877 8.114617
1.291791 0.831216 8.103080
-0.986653 -0.497877 8.140260
-1.176524 1.210957 8.124891
-0.037302 0.926151 8.075952
-0.606913 -1.826970 8.097051
0.057634 0.926151 8.108474
-0.227172 1.116022 8.145944
1.101921 1.021086 8.096013
-1.461329 -0.023201 8.146218
-0.891718 1.305892 8.111323
-1.556265 0.071734 8.120642
-0.796783 1.305892 8.108188
0.817115 -1.637099 8.125775
0.912051 1.116022 8.134147
-1.556265 0.166669 8.125968
-1.176524 -0.308007 8.082614
-0.701848 1.305892 8.090611
-1.271459 -0.213071 8.090346
-1.556265 0.261605 8.133543
-1.176524 -1.067488 8.061374
-0.511978 1.305892 8.062518
1.006986 -1.542164 8.067456
-1.556265 0.546410 8.073108
1.671532 0.166669 8.085010
-1.556265 0.641346 8.099690
1.196856 -1.352294 8.132855
1.386726 -1.162424 8.130521
1.576597 0.351121 8.200784
1.573953 0.356540 8.200784
1.623596 0.261605 8.200784
1.599710 0.309072 8.200784
1.545054 0.404007 8.200784
1.535852 0.451475 8.200784
1.532506 0.498943 8.200784
1.481662 0.523955 8.200784
1.529130 0.503454 8.200784
1.576597 0.356540 8.192477
1.624064 0.261605 8.194694
1.529130 0.498943 8.195238
1.576597 0.332505 8.248252
1.554832 0.356540 8.248252
1.614550 0.261605 8.248252
1.593779 0.309072 8.248252
1.533430 0.404007 8.248252
1.529130 0.449357 8.248252
1.528761 0.451475 8.248252
1.482738 0.498943 8.248252
1.481662 0.503640 8.248252
1.196856 -1.360329 8.248252
1.203997 -1.352294 8.248252
1.244324 -1.306582 8.248252
1.246217 -1.304826 8.248252
1.291791 -1.260895 8.248252
1.294407 -1.257359 8.248252
1.339259 -1.211941 8.248252
1.341533 -1.209891 8.248252
1.384885 -1.162424 8.248252
1.529130 0.451475 8.247463
1.529130 0.498943 8.207580
-0.986653 -1.668207 8.248252
-1.141879 -0.782682 8.248252
-1.518771 0.736280 8.248252
0.342439 -1.854235 8.248252
1.600563 -0.782682 8.248252
-1.081589 -0.731529 8.248252
-1.479239 0.831216 8.248252
0.432698 -1.826970 8.248252
1.291791 0.783236 8.248252
-1.461329 0.875849 8.248252
-1.050248 -0.687747 8.248252
0.152569 0.917323 8.248252
1.268552 0.831216 8.248252
0.437375 -1.824317 8.248252
1.641564 -0.687747 8.248252
-1.420994 0.926151 8.248252
-1.081589 -0.616790 8.248252
-1.055358 -1.637099 8.248252
1.196856 0.915159 8.248252
-1.109248 -0.592812 8.248252
0.136549 0.926151 8.248252
0.532310 -1.756713 8.248252
1.186927 0.926151 8.248252
1.661979 -0.592812 8.248252
-1.081589 -1.626846 8.248252
-1.366395 0.988635 8.248252
-1.139116 -1.542164 8.248252
-1.176524 -0.529903 8.248252
1.671532 -0.554510 8.248252
1.006986 1.103142 8.248252
-1.345749 1.021086 8.248252
0.627245 -1.738987 8.248252
-1.206045 -0.497877 8.248252
-0.132236 1.089323 8.248252
0.981548 1.116022 8.248252
-0.142172 1.116022 8.248252
-1.289598 1.116022 8.248252
-1.264065 -0.402942 8.248252
1.101921 1.022089 8.248252
-0.891718 -1.745072 8.248252
1.686797 -0.497877 8.248252
-0.925534 -1.732035 8.248252
0.722180 -1.753998 8.248252
-0.037302 1.076566 8.248252
-1.271459 1.140625 8.248252
1.103219 1.021086 8.248252
1.743165 -0.402942 8.248252
-0.796783 -1.741503 8.248252
-1.366395 -0.214480 8.248252
0.754527 -1.732035 8.248252
-1.181368 1.210957 8.248252
-1.369928 -0.213071 8.248252
0.073834 1.021086 8.248252
0.835796 1.116022 8.248252
1.766468 -0.377822 8.248252
-0.701848 -1.777496 8.248252
0.912051 1.133839 8.248252
0.057634 1.089346 8.248252
-1.176524 1.212856 8.248252
0.805676 -1.637099 8.248252
-1.431365 -0.118136 8.248252
1.776991 -0.308007 8.248252
0.817115 -1.629665 8.248252
-0.606913 -1.812010 8.248252
-1.461329 -0.069631 8.248252
0.342439 0.780200 8.248252
1.766468 -0.218266 8.248252
0.912051 -1.567468 8.248252
-1.081589 1.222072 8.248252
1.671532 0.202568 8.248252
-1.536828 -0.023201 8.248252
0.279180 0.831216 8.248252
1.763682 -0.213071 8.248252
-0.986653 1.254617 8.248252
-0.511978 -1.837071 8.248252
0.247504 0.851180 8.248252
0.954272 -1.542164 8.248252
1.715994 -0.023201 8.248252
-1.271459 -0.392282 8.248252
1.754904 -0.118136 8.248252
-0.547192 -1.826970 8.248252
1.681690 0.071734 8.248252
-1.314987 -0.308007 8.248252
0.437375 0.809433 8.248252
1.676832 0.166669 8.248252
-0.417042 -1.861866 8.248252
-0.908641 1.305892 8.248252
1.006986 -1.508130 8.248252
0.470452 0.831216 8.248252
1.101921 -1.454226 8.248252
-0.891718 1.315768 8.248252
1.469654 0.546410 8.248252
-1.556265 -0.002644 8.248252
0.532310 0.903673 8.248252
1.111715 -1.447229 8.248252
-0.796783 1.371704 8.248252
1.426029 0.641346 8.248252
-1.606400 0.071734 8.248252
-0.227172 -1.900687 8.248252
-0.322107 -1.885001 8.248252
-0.158611 1.210957 8.248252
1.386726 0.693047 8.248252
-0.132236 -1.906731 8.248252
-0.738858 1.400827 8.248252
-1.601570 0.166669 8.248252
-0.227172 1.257630 8.248252
1.335325 0.736280 8.248252
-0.037302 -1.911668 8.248252
-0.606913 1.391085 8.248252
-0.676507 1.400827 8.248252
-1.589093 0.261605 8.248252
-1.176524 -1.470186 8.248252
0.057634 -1.908904 8.248252
-0.701848 1.407971 8.248252
-1.188554 -1.447229 8.248252
-1.595838 0.356540 8.248252
0.552239 0.926151 8.248252
0.152569 -1.886112 8.248252
1.386726 -1.160238 8.248252
-1.235733 -1.352294 8.248252
-1.606818 0.451475 8.248252
0.627245 0.980313 8.248252
1.443088 -1.067488 8.248252
0.247504 -1.864433 8.248252
-0.321906 1.305892 8.248252
-1.584146 0.546410 8.248252
0.708844 1.021086 8.248252
-1.271459 -1.291378 8.248252
1.481662 -1.012046 8.248252
-1.285829 -1.257359 8.248252
-0.538740 1.400827 8.248252
-1.580900 0.641346 8.248252
0.722180 1.030701 8.248252
-1.276093 -1.162424 8.248252
-1.556265 0.671163 8.248252
-0.417042 1.396349 8.248252
1.506293 -0.972553 8.248252
0.817115 1.102089 8.248252
-0.429039 1.400827 8.248252
-1.271459 -1.151571 8.248252
1.545960 -0.877618 8.248252
-0.511978 1.407480 8.248252
-1.211868 -1.067488 8.248252
1.576597 -0.845671 8.248252
-1.180148 -0.972553 8.248252
-0.322107 1.306039 8.248252
-1.176524 -0.937403 8.248252
-1.172071 -0.877618 8.248252
-1.081589 -0.782682 8.213609
0.437375 -1.826970 8.155602
-1.461329 0.831216 8.168434
-0.986653 -0.687747 8.188640
-0.891718 -1.732035 8.212501
0.532310 -1.732035 8.153680
-1.081589 -0.592812 8.231321
-0.986653 -0.592812 8.172919
1.766468 -0.308007 8.165773
-1.271459 1.116022 8.166953
0.722180 -1.732035 8.176632
-1.176524 -0.497877 8.218102
-0.132236 1.021086 8.184046
-1.081589 1.210957 8.221584
-0.037302 1.021086 8.179395
-1.176524 -1.447229 8.161879
-1.366395 -0.213071 8.245121
-0.986653 1.210957 8.172158
0.057634 1.021086 8.231951
-1.366395 -0.118136 8.168361
1.101921 -1.447229 8.237727
-1.271459 -1.257359 8.198882
-1.271459 -0.308007 8.183769
0.247504 0.831216 8.186562
1.196856 -1.352294 8.236612
-1.271459 -1.162424 8.241652
-0.701848 1.400827 8.215397
1.291791 -1.257359 8.163258
-1.176524 -1.067488 8.217750
-0.417042 1.305892 8.163580
-0.227172 1.210957 8.157934
-1.176524 -0.972553 8.243402
1.386726 -1.162424 8.223078
-0.322107 1.305892 8.247913
-0.511978 1.400827 8.216434
0.722180 1.021086 8.230850
1.244324 -1.411953 8.295719
1.238132 -1.399761 8.295719
1.248385 -1.399761 8.295719
1.196856 -1.372562 8.295719
1.244324 -1.398417 8.295719
1.211563 -1.352294 8.295719
1.240998 -1.304826 8.295719
1.244324 -1.299346 8.295719
1.284602 -1.257359 8.295719
1.291791 -1.250079 8.295719
1.339259 -1.213013 8.295719
1.342729 -1.209891 8.295719
1.364199 -1.162424 8.295719
1.576597 0.318237 8.295719
1.552526 0.356540 8.295719
1.606238 0.261605 8.295719
1.581699 0.309072 8.295719
1.529130 0.392090 8.295719
1.521552 0.404007 8.295719
1.491370 0.451475 8.295719
1.481662 0.467888 8.295719
1.244324 -1.399761 8.290885
1.244324 -1.304826 8.277822
1.291791 -1.257359 8.277628
1.529130 0.404007 8.265819
1.481662 0.498943 8.250971
1.196856 -1.379952 8.343186
1.219206 -1.352294 8.343186
1.239401 -1.304826 8.343186
1.222827 -1.257359 8.343186
1.244324 -1.237448 8.343186
1.291791 -1.238452 8.343186
1.336258 -1.209891 8.343186
1.339259 -1.200070 8.343186
1.344956 -1.162424 8.343186
1.576597 0.326966 8.343186
1.557639 0.356540 8.343186
1.603973 0.261605 8.343186
1.584445 0.309072 8.343186
1.529130 0.388042 8.343186
1.514774 0.404007 8.343186
1.484893 0.451475 8.343186
1.481662 0.456645 8.343186
1.244324 -1.399761 8.339281
1.244324 -1.257359 8.318421
1.339259 -1.209891 8.332805
-0.986653 -1.687127 8.343186
-1.176524 1.207104 8.343186
1.708345 -0.402942 8.343186
-1.366395 -0.403636 8.343186
0.152569 1.062624 8.343186
-1.167423 1.210957 8.343186
-1.047442 -1.637099 8.343186
0.647039 -1.732035 8.343186
-1.366905 -0.402942 8.343186
0.113724 1.116022 8.343186
1.651477 0.166669 8.343186
1.734954 -0.308007 8.343186
0.722180 -1.720479 8.343186
-1.081589 1.261543 8.343186
-1.081589 -1.612981 8.343186
-1.202720 -0.782682 8.343186
1.747831 -0.213071 8.343186
0.342439 0.857366 8.343186
0.817115 -1.655880 8.343186
-1.202556 -0.687747 8.343186
-1.169447 -1.542164 8.343186
-0.986653 1.297116 8.343186
0.251249 0.926151 8.343186
1.744415 -0.023201 8.343186
0.861276 -1.637099 8.343186
-1.202597 -0.592812 8.343186
1.683340 0.071734 8.343186
0.420736 0.926151 8.343186
0.912051 -1.609618 8.343186
-1.235465 -0.497877 8.343186
1.671532 0.112328 8.343186
-0.891718 -1.735024 8.343186
0.247504 0.963095 8.343186
-0.944418 1.305892 8.343186
-1.271459 -0.462824 8.343186
1.006986 -1.557139 8.343186
1.758431 -0.118136 8.343186
0.220498 1.021086 8.343186
-0.901245 -1.732035 8.343186
1.428154 0.546410 8.343186
1.034821 -1.542164 8.343186
-0.796783 -1.732890 8.343186
0.437375 0.966294 8.343186
-0.891718 1.321805 8.343186
1.386726 0.639124 8.343186
-1.382656 -0.308007 8.343186
-1.432306 -0.213071 8.343186
0.532310 1.008117 8.343186
1.385884 0.641346 8.343186
-0.701848 -1.752640 8.343186
-0.796783 1.347712 8.343186
1.339687 0.736280 8.343186
-0.606913 -1.799920 8.343186
-0.132236 1.240087 8.343186
-1.556265 0.004609 8.343186
-0.204230 1.305892 8.343186
-0.417042 -1.860998 8.343186
1.308867 0.831216 8.343186
-0.701848 1.385706 8.343186
-0.508847 -1.826970 8.343186
1.101921 -1.474023 8.343186
-0.037302 1.217465 8.343186
-1.588168 0.071734 8.343186
1.291791 0.851637 8.343186
-0.612732 1.400827 8.343186
-0.511978 -1.825570 8.343186
-1.612803 0.166669 8.343186
1.125442 -1.447229 8.343186
-0.606913 1.401582 8.343186
-0.322107 -1.895455 8.343186
0.057634 1.180824 8.343186
-1.542736 -0.023201 8.343186
-1.461329 -0.163329 8.343186
-0.227172 -1.896053 8.343186
-0.006508 1.210957 8.343186
-1.630128 0.261605 8.343186
-0.417042 1.396153 8.343186
-1.518207 -0.118136 8.343186
-0.432115 1.400827 8.343186
1.386726 -1.119457 8.343186
-1.176524 -1.526060 8.343186
-1.598023 0.356540 8.343186
-0.511978 1.412098 8.343186
1.447721 -1.067488 8.343186
-1.206095 -1.447229 8.343186
-0.227172 1.331798 8.343186
-1.603256 0.451475 8.343186
1.481662 -1.006053 8.343186
-1.239530 -1.352294 8.343186
-0.322107 1.342464 8.343186
-1.598597 0.546410 8.343186
-0.132236 -1.891953 8.343186
1.509085 -0.972553 8.343186
-1.271459 -1.312753 8.343186
-0.037302 -1.921193 8.343186
-1.312401 -1.257359 8.343186
1.556952 -0.877618 8.343186
-1.600727 0.641346 8.343186
0.627245 1.018613 8.343186
1.576597 -0.825569 8.343186
-1.332643 -1.162424 8.343186
0.057634 -1.921529 8.343186
-1.562098 0.736280 8.343186
1.593566 -0.782682 8.343186
0.152569 -1.907876 8.343186
0.631775 1.021086 8.343186
-1.318034 -1.067488 8.343186
-1.556265 0.748957 8.343186
1.635190 -0.687747 8.343186
-1.275593 -0.972553 8.343186
0.722180 1.099278 8.343186
0.247504 -1.847596 8.343186
-1.468451 0.831216 8.343186
1.670279 -0.592812 8.343186
-1.271459 -0.963323 8.343186
0.342439 -1.853164 8.343186
-1.461329 0.851863 8.343186
0.792601 1.116022 8.343186
-1.218604 -0.877618 8.343186
1.671532 -0.589745 8.343186
0.437375 -1.831746 8.343186
-1.436629 0.926151 8.343186
0.448575 -1.826970 8.343186
1.698748 -0.497877 8.343186
-1.366395 0.983131 8.343186
1.198994 0.926151 8.343186
0.532310 -1.778240 8.343186
-1.345995 1.021086 8.343186
1.101921 1.048478 8.343186
0.627245 -1.735206 8.343186
1.010958 1.116022 8.343186
-1.313102 1.116022 8.343186
1.196856 0.928226 8.343186
-1.271459 1.166463 8.343186
1.120230 1.021086 8.343186
0.817115 1.119833 8.343186
0.912051 1.135371 8.343186
1.006986 1.117974 8.343186
-1.366395 -0.402942 8.342327
0.722180 -1.732035 8.330633
0.152569 0.926151 8.280421
-1.176524 1.210957 8.257879
1.671532 0.166669 8.276383
-0.132236 1.116022 8.254681
-1.176524 -0.782682 8.294654
0.817115 -1.637099 8.276192
1.766468 -0.308007 8.284466
-1.176524 -0.687747 8.304505
-0.037302 1.116022 8.292316
-0.511978 -1.826970 8.323092
-1.176524 -0.592812 8.300261
0.152569 1.021086 8.326908
1.006986 -1.542164 8.282234
-0.701848 1.400827 8.254193
-1.081589 -0.687747 8.257768
0.057634 1.116022 8.259735
-0.606913 1.400827 8.333673
1.386726 0.641346 8.340413
0.342439 0.831216 8.307432
-1.271459 -0.402942 8.258526
0.247504 0.926151 8.339889
-0.227172 1.305892 8.325823
-1.271459 -1.067488 8.302313
-1.556265 0.736280 8.327807
0.437375 0.831216 8.286140
-1.366395 -0.308007 8.322694
-1.271459 -0.972553 8.337696
1.291791 0.831216 8.279232
0.437375 0.926151 8.332490
-1.461329 -0.118136 8.297681
0.532310 0.926151 8.274539
-1.176524 -0.877618 8.261627
-0.132236 1.210957 8.285957
-0.037302 1.210957 8.334341
0.437375 -1.826970 8.260334
0.817115 1.116022 8.322001
1.196856 0.926151 8.310061
1.006986 1.116022 8.333169
1.196856 -1.402072 8.390655
1.200137 -1.399761 8.390655
1.244324 -1.364222 8.390655
1.254057 -1.352294 8.390655
1.247905 -1.304826 8.390655
1.253592 -1.257359 8.390655
1.291791 -1.223244 8.390655
1.302417 -1.209891 8.390655
1.337009 -1.162424 8.390655
1.196856 -1.399761 8.360838
1.244324 -1.352294 8.361631
1.244324 -1.304826 8.370255
1.244324 -1.257359 8.386505
1.339259 -1.162424 8.375655
1.196856 -1.361556 8.438122
1.206403 -1.352294 8.438122
1.244324 -1.307733 8.438122
1.246644 -1.304826 8.438122
1.281059 -1.257359 8.438122
1.291791 -1.239323 8.438122
1.305629 -1.209891 8.438122
1.328427 -1.162424 8.438122
1.196856 -1.399761 8.401376
1.244324 -1.352294 8.417665
-1.366395 -0.418165 8.438122
-0.986653 -1.673219 8.438122
1.706360 -0.402942 8.438122
-1.391888 -0.402942 8.438122
0.661914 -1.732035 8.438122
1.714009 -0.308007 8.438122
-1.030085 -1.637099 8.438122
0.722180 -1.701263 8.438122
-1.176524 1.240078 8.438122
0.342439 1.091407 8.438122
-1.081589 -1.595287 8.438122
-1.285073 -0.782682 8.438122
-1.081589 1.304650 8.438122
1.641104 0.166669 8.438122
1.709601 -0.213071 8.438122
0.817115 -1.648954 8.438122
-1.271459 -0.726106 8.438122
-1.156136 -1.542164 8.438122
-1.075175 1.305892 8.438122
1.617790 0.261605 8.438122
0.831012 -1.637099 8.438122
-1.266529 -0.687747 8.438122
1.721686 -0.118136 8.438122
1.576597 0.342521 8.438122
-0.986653 1.323570 8.438122
0.258148 1.116022 8.438122
0.912051 -1.567821 8.438122
-1.271459 -0.642289 8.438122
1.566450 0.356540 8.438122
1.702776 -0.023201 8.438122
-0.796783 -1.748398 8.438122
-1.287860 -0.592812 8.438122
-0.889826 -1.732035 8.438122
0.967117 -1.542164 8.438122
-0.891718 1.367050 8.438122
1.680553 0.071734 8.438122
0.437375 1.071492 8.438122
-1.333369 -0.497877 8.438122
-0.701848 -1.762376 8.438122
-0.796783 1.375585 8.438122
-1.556545 -0.023201 8.438122
1.671532 0.093332 8.438122
0.532310 1.045834 8.438122
1.006986 -1.515659 8.438122
-1.591406 0.071734 8.438122
-1.430513 -0.308007 8.438122
-0.701848 1.398963 8.438122
-0.606913 -1.782816 8.438122
-1.624785 0.166669 8.438122
1.063611 -1.447229 8.438122
-1.461329 -0.221499 8.438122
-0.697955 1.400827 8.438122
1.481662 0.495838 8.438122
-0.037302 1.270319 8.438122
-1.470170 -0.213071 8.438122
1.101921 -1.412505 8.438122
-1.642233 0.261605 8.438122
-0.606913 1.415640 8.438122
-0.073134 1.305892 8.438122
-0.891718 -1.731452 8.438122
-1.633993 0.356540 8.438122
1.460903 0.546410 8.438122
-1.556265 -0.023730 8.438122
-0.511978 1.388576 8.438122
1.497159 0.451475 8.438122
-1.499893 -0.118136 8.438122
-0.511978 -1.832734 8.438122
-1.614946 0.451475 8.438122
-0.544484 1.400827 8.438122
1.386726 -1.105407 8.438122
0.057634 1.216232 8.438122
-0.516946 -1.826970 8.438122
-1.622786 0.546410 8.438122
1.461438 -1.067488 8.438122
-0.482187 1.400827 8.438122
1.390646 0.641346 8.438122
0.152569 1.210998 8.438122
-0.417042 -1.880011 8.438122
1.481662 -1.004453 8.438122
1.386726 0.648843 8.438122
-0.417042 1.404339 8.438122
-1.593107 0.641346 8.438122
-0.322107 -1.869652 8.438122
1.490459 -0.972553 8.438122
-0.227172 -1.897349 8.438122
-0.322107 1.394289 8.438122
-0.227172 1.341033 8.438122
-1.568926 0.736280 8.438122
-0.132236 -1.878177 8.438122
-0.361580 1.400827 8.438122
1.555886 -0.877618 8.438122
-0.132236 1.332858 8.438122
-0.037302 -1.908395 8.438122
-1.176524 -1.472220 8.438122
-1.556265 0.771288 8.438122
1.576597 -0.834479 8.438122
0.057634 -1.895346 8.438122
-1.183005 -1.447229 8.438122
0.247504 1.118914 8.438122
-1.506655 0.831216 8.438122
-1.263506 -1.352294 8.438122
0.152569 -1.910979 8.438122
0.152612 1.210957 8.438122
1.593396 -0.782682 8.438122
-1.505152 0.926151 8.438122
0.247504 -1.844405 8.438122
-1.271459 -1.342392 8.438122
0.342439 -1.839764 8.438122
1.333153 0.736280 8.438122
-1.461329 0.992458 8.438122
-1.330464 -1.257359 8.438122
0.627245 1.055810 8.438122
1.618579 -0.687747 8.438122
0.437375 -1.828574 8.438122
-1.412531 1.021086 8.438122
-1.352400 -1.162424 8.438122
0.722180 1.098418 8.438122
0.443300 -1.826970 8.438122
-1.366395 1.057868 8.438122
1.291791 0.797537 8.438122
1.658921 -0.592812 8.438122
0.532310 -1.764139 8.438122
0.746045 1.116022 8.438122
-1.323831 -1.067488 8.438122
-1.327514 1.116022 8.438122
-1.300388 -0.972553 8.438122
1.671532 -0.554461 8.438122
1.232049 0.831216 8.438122
-1.271459 1.173747 8.438122
-1.312179 -0.877618 8.438122
0.627245 -1.744087 8.438122
1.196856 0.885519 8.438122
-1.205129 1.210957 8.438122
1.687810 -0.497877 8.438122
1.184408 0.926151 8.438122
1.006986 1.114469 8.438122
1.004922 1.116022 8.438122
1.101921 1.032867 8.438122
1.108277 1.021086 8.438122
0.817115 1.148382 8.438122
0.912051 1.150855 8.438122
-1.271459 -0.782682 8.420388
-1.271459 -0.592812 8.424403
1.006986 -1.542164 8.414008
-1.176524 1.210957 8.385934
-1.556265 -0.023201 8.436541
-1.271459 -0.497877 8.380119
-0.986653 1.305892 8.371009
1.101921 -1.447229 8.389186
-1.461329 -0.213071 8.429090
0.152569 1.116022 8.379484
-1.461329 0.926151 8.375998
0.342439 0.926151 8.385207
-0.511978 1.400827 8.379724
-0.417042 1.400827 8.422087
-1.366395 1.021086 8.402316
0.247504 1.021086 8.346910
0.342439 1.021086 8.372890
0.247504 1.116022 8.424926
0.437375 1.021086 8.372166
0.532310 1.021086 8.374557
-0.891718 -1.732035 8.389610
-0.132236 1.305892 8.388818
1.386726 0.641346 8.346543
0.057634 1.210957 8.399364
0.152569 1.210957 8.438003
-0.511978 -1.826970 8.398437
1.291791 0.831216 8.402551
0.627245 1.021086 8.349272
-1.271459 -0.877618 8.400427
1.196856 0.926151 8.385576
1.006986 1.116022 8.380733
-0.986653 -1.684353 8.533057
0.627245 1.082576 8.533057
0.942357 -1.542164 8.533057
0.582940 1.116022 8.533057
-1.007907 -1.637099 8.533057
-0.986653 1.348280 8.533057
-1.576463 -0.023201 8.533057
1.006986 -1.491367 8.533057
0.722180 1.067839 8.533057
-1.081589 -1.587947 8.533057
-0.891718 1.362055 8.533057
-1.369843 -0.592812 8.533057
1.074710 -1.447229 8.533057
-1.144629 -1.542164 8.533057
0.817115 1.113725 8.533057
-1.580234 0.071734 8.533057
-0.816623 1.400827 8.533057
-1.399191 -0.497877 8.533057
0.824665 1.116022 8.533057
-1.641498 0.166669 8.533057
1.101921 -1.426584 8.533057
-0.796783 1.410252 8.533057
-0.227172 -1.928164 8.533057
-1.452528 -0.402942 8.533057
-1.651200 0.183003 8.533057
1.291791 0.782522 8.533057
-0.254462 -1.921905 8.533057
-1.670306 0.261605 8.533057
1.231267 0.831216 8.533057
-0.701848 1.417555 8.533057
1.196856 0.878442 8.533057
-0.891718 -1.736193 8.533057
-1.339480 -0.782682 8.533057
-0.606913 1.423066 8.533057
1.143662 0.926151 8.533057
-1.658658 0.356540 8.533057
-0.920936 -1.732035 8.533057
-1.339165 -0.687747 8.533057
1.180148 -1.352294 8.533057
1.101921 1.029303 8.533057
-1.651200 0.370901 8.533057
-0.796783 -1.772840 8.533057
-0.511978 1.406952 8.533057
1.014179 1.116022 8.533057
-1.366395 -0.603238 8.533057
-1.611290 0.451475 8.533057
-0.701848 -1.779486 8.533057
1.109891 1.021086 8.533057
1.196856 -1.340465 8.533057
-0.417042 1.416837 8.533057
-1.605119 0.546410 8.533057
-0.606913 -1.825823 8.533057
0.532310 1.137680 8.533057
1.289229 -1.257359 8.533057
-0.227172 1.362784 8.533057
-1.587113 0.641346 8.533057
-1.556265 -0.237531 8.533057
0.912051 1.143019 8.533057
-0.277142 1.400827 8.533057
1.291791 -1.253856 8.533057
-0.511978 -1.863541 8.533057
-1.566173 -0.213071 8.533057
-1.556265 0.689726 8.533057
1.006986 1.122071 8.533057
-0.604656 -1.826970 8.533057
-0.322107 1.422002 8.533057
-1.540276 0.736280 8.533057
-1.461329 -0.391938 8.533057
-0.417042 -1.894015 8.533057
-1.512472 -0.308007 8.533057
-1.535014 0.831216 8.533057
1.671532 0.102688 8.533057
1.356304 -1.162424 8.533057
-0.322107 -1.891546 8.533057
1.640873 0.166669 8.533057
-1.554832 0.926151 8.533057
1.600924 0.261605 8.533057
-1.461329 1.003783 8.533057
-1.560574 -0.118136 8.533057
0.342439 1.101833 8.533057
1.386726 -1.124670 8.533057
1.576597 0.314488 8.533057
-1.437152 1.021086 8.533057
-1.176524 -1.495714 8.533057
0.330094 1.116022 8.533057
-1.366395 1.102087 8.533057
1.561752 0.356540 8.533057
1.440687 -1.067488 8.533057
-1.196860 -1.447229 8.533057
-1.343917 1.116022 8.533057
1.704524 -0.023201 8.533057
0.345876 1.116022 8.533057
-1.251011 -1.352294 8.533057
1.481662 -0.988690 8.533057
-1.271459 1.146588 8.533057
1.683896 0.071734 8.533057
-0.138386 -1.921905 8.533057
-1.212890 1.210957 8.533057
-0.132236 1.281192 8.533057
-1.271459 -1.327149 8.533057
1.488770 -0.972553 8.533057
-1.176524 1.252384 8.533057
1.481662 0.546279 8.533057
-0.153876 1.305892 8.533057
-1.319871 -1.257359 8.533057
-1.118828 1.305892 8.533057
-0.132236 -1.907216 8.533057
1.481574 0.546410 8.533057
-0.037302 1.267539 8.533057
1.576597 -0.887084 8.533057
-1.345388 -1.162424 8.533057
1.527526 0.451475 8.533057
-1.081589 1.328216 8.533057
-0.037302 -1.900797 8.533057
1.583469 -0.877618 8.533057
0.152569 1.179109 8.533057
1.405929 0.641346 8.533057
-1.355359 -1.067488 8.533057
0.057634 -1.893576 8.533057
1.592825 -0.782682 8.533057
1.386726 0.696850 8.533057
-1.342174 -0.972553 8.533057
0.057855 1.210957 8.533057
1.373693 0.736280 8.533057
0.152569 -1.885901 8.533057
-1.344180 -0.877618 8.533057
0.057634 1.211043 8.533057
1.631642 -0.687747 8.533057
0.247504 -1.872008 8.533057
1.671532 -0.600644 8.533057
0.247504 1.170039 8.533057
0.342439 -1.851649 8.533057
1.675422 -0.592812 8.533057
0.394261 -1.826970 8.533057
0.437375 1.118861 8.533057
1.701343 -0.497877 8.533057
0.437375 -1.806847 8.533057
1.681851 -0.402942 8.533057
0.532310 -1.763820 8.533057
1.716960 -0.308007 8.533057
0.609599 -1.732035 8.533057
1.703611 -0.213071 8.533057
0.627245 -1.726104 8.533057
0.722180 -1.662155 8.533057
1.700429 -0.118136 8.533057
0.775808 -1.637099 8.533057
0.817115 -1.628614 8.533057
0.912051 -1.573046 8.533057
-0.796783 1.400827 8.495413
-1.366395 -0.592812 8.525894
1.196856 -1.352294 8.453314
-0.701848 1.400827 8.443832
-1.366395 -0.497877 8.481777
0.532310 1.116022 8.489033
-0.227172 -1.921905 8.489029
-1.651200 0.261605 8.473688
-1.271459 -0.687747 8.442626
0.817115 1.116022 8.529821
-0.891718 -1.732035 8.479972
-1.651200 0.356540 8.502983
-0.511978 1.400827 8.521557
1.576597 -0.877618 8.490703
-1.556265 -0.213071 8.495091
1.006986 1.116022 8.483119
-0.322107 1.400827 8.452193
-1.556265 0.736280 8.462480
-1.461329 -0.308007 8.468662
1.671532 -0.592812 8.522111
-1.556265 -0.118136 8.525570
0.437375 1.116022 8.523439
-1.081589 1.305892 8.441027
-0.132236 1.305892 8.473050
0.152569 1.210957 8.438213
0.437375 -1.826970 8.442004
0.627245 -1.732035 8.509994
0.817115 -1.637099 8.492852
-0.037302 1.303823 8.627993
-0.042989 1.305892 8.627993
0.010166 1.284579 8.627993
0.057634 1.262086 8.627993
0.105101 1.241749 8.627993
0.066281 1.258424 8.627993
0.145734 1.210957 8.627993
-0.132236 1.346153 8.627993
-0.084769 1.321965 8.627993
-1.388438 -0.592812 8.627993
-1.603761 -0.023201 8.627993
-0.986653 -1.676131 8.627993
0.934730 -1.542164 8.627993
0.722180 1.091307 8.627993
-1.431014 -0.497877 8.627993
-1.629045 0.071734 8.627993
-0.986653 1.344746 8.627993
0.638031 1.116022 8.627993
1.006986 -1.498964 8.627993
-1.019214 -1.637099 8.627993
-0.891718 1.353950 8.627993
-1.461329 -0.409739 8.627993
0.817115 1.100962 8.627993
-1.081589 -1.583358 8.627993
-1.651200 0.120261 8.627993
1.079159 -1.447229 8.627993
-1.464702 -0.402942 8.627993
-0.796783 1.387960 8.627993
-1.129971 -1.542164 8.627993
-1.673535 0.166669 8.627993
0.912051 1.076133 8.627993
1.101921 -1.421997 8.627993
-0.759149 1.400827 8.627993
1.196856 -1.356105 8.627993
1.291791 0.801716 8.627993
-0.796783 -1.747313 8.627993
-1.684655 0.261605 8.627993
1.266925 0.831216 8.627993
-0.606913 1.387039 8.627993
-0.848682 -1.732035 8.627993
1.201343 -1.352294 8.627993
1.196856 0.901973 8.627993
-1.362610 -0.782682 8.627993
-1.661912 0.356540 8.627993
1.178792 0.926151 8.627993
-0.606913 -1.827275 8.627993
-0.636904 1.400827 8.627993
1.291791 -1.275917 8.627993
-1.354786 -0.687747 8.627993
-0.607577 -1.826970 8.627993
1.101921 1.008231 8.627993
-0.701848 1.408876 8.627993
1.061728 1.021086 8.627993
-0.701848 -1.767866 8.627993
-1.651200 0.386962 8.627993
1.315302 -1.257359 8.627993
-1.366395 -0.642750 8.627993
1.006986 1.040164 8.627993
1.374637 -1.162424 8.627993
-0.891718 -1.718756 8.627993
-1.627661 0.451475 8.627993
-0.544912 1.400827 8.627993
0.532310 1.147725 8.627993
1.386726 -1.152765 8.627993
-1.531831 -0.308007 8.627993
0.627245 1.121013 8.627993
-0.511978 1.413435 8.627993
1.447313 -1.067488 8.627993
-0.511978 -1.895577 8.627993
1.466707 -0.972553 8.627993
-1.549930 -0.213071 8.627993
-1.595803 0.546410 8.627993
-0.417042 -1.887224 8.627993
-0.417042 1.415763 8.627993
1.671532 0.179456 8.627993
1.481662 -0.941942 8.627993
1.603445 0.261605 8.627993
-1.556265 -0.198613 8.627993
1.558161 -0.877618 8.627993
1.576597 0.316279 8.627993
-0.322107 1.422724 8.627993
1.558588 0.356540 8.627993
-1.592739 -0.118136 8.627993
1.576597 -0.860439 8.627993
-0.322107 -1.891901 8.627993
-0.227172 1.409710 8.627993
1.615048 -0.782682 8.627993
-1.600834 0.641346 8.627993
-0.227172 -1.910542 8.627993
1.632402 -0.687747 8.627993
1.714864 -0.023201 8.627993
-1.569149 0.736280 8.627993
1.698049 0.071734 8.627993
1.671532 -0.622811 8.627993
1.677606 0.166669 8.627993
-1.176524 -1.457186 8.627993
0.152569 1.207991 8.627993
-0.132236 -1.912612 8.627993
1.685203 -0.592812 8.627993
-1.183286 -1.447229 8.627993
-1.556265 0.769014 8.627993
1.537525 0.451475 8.627993
1.680078 -0.497877 8.627993
-1.260415 -1.352294 8.627993
-0.037302 -1.907901 8.627993
-0.210128 1.400827 8.627993
1.699495 -0.402942 8.627993
-1.538965 0.831216 8.627993
1.503259 0.546410 8.627993
-1.271459 -1.337679 8.627993
0.057634 -1.846021 8.627993
-1.541867 0.926151 8.627993
1.700456 -0.308007 8.627993
1.481662 0.582241 8.627993
0.247504 1.194690 8.627993
-1.322494 -1.257359 8.627993
1.451107 0.641346 8.627993
1.766468 -0.226652 8.627993
0.152569 -1.901658 8.627993
0.342439 1.160837 8.627993
1.394927 0.736280 8.627993
-1.488564 1.021086 8.627993
1.772190 -0.213071 8.627993
-1.351717 -1.162424 8.627993
0.437375 1.135990 8.627993
1.766468 -0.145421 8.627993
-1.461329 1.051260 8.627993
1.386726 0.747585 8.627993
0.247504 -1.882742 8.627993
1.732593 -0.118136 8.627993
-1.366395 -1.101598 8.627993
-1.366395 1.105010 8.627993
-1.375413 -1.067488 8.627993
0.342439 -1.829620 8.627993
-1.392597 -0.972553 8.627993
-1.339208 1.116022 8.627993
0.360261 -1.826970 8.627993
-1.373718 -0.877618 8.627993
-1.366395 -0.817566 8.627993
0.437375 -1.820360 8.627993
-1.271459 1.149107 8.627993
0.532310 -1.765500 8.627993
-1.204376 1.210957 8.627993
-1.176524 1.232172 8.627993
0.601451 -1.732035 8.627993
-1.098551 1.305892 8.627993
0.627245 -1.726244 8.627993
0.722180 -1.696195 8.627993
-1.081589 1.318697 8.627993
0.792352 -1.637099 8.627993
0.817115 -1.620977 8.627993
0.912051 -1.565905 8.627993
-1.461329 -0.402942 8.590935
-1.651200 0.166669 8.554044
1.196856 -1.352294 8.621559
0.627245 1.116022 8.617816
-0.796783 1.400827 8.546674
-1.556265 -0.213071 8.560504
-0.227172 -1.921905 8.600498
0.912051 1.116022 8.546599
-1.556265 0.736280 8.611295
-0.606913 1.400827 8.585073
1.291791 -1.257359 8.537107
-0.891718 -1.732035 8.547116
1.101921 1.021086 8.557181
-0.606913 -1.826970 8.567115
1.006986 1.116022 8.541240
-0.227172 1.400827 8.603221
-1.461329 1.021086 8.562948
1.481662 -0.972553 8.552244
0.342439 1.116022 8.543655
1.671532 0.166669 8.606945
-0.132236 1.305892 8.583890
1.576597 -0.877618 8.546294
-1.366395 -1.067488 8.579693
1.481662 0.546410 8.533212
-1.366395 -0.972553 8.571984
-1.366395 -0.877618 8.606874
1.386726 0.736280 8.581306
1.766468 -0.213071 8.592232
0.057634 1.295642 8.675460
0.025126 1.305892 8.675460
0.105101 1.281548 8.675460
0.152569 1.264924 8.675460
-0.084769 1.334325 8.675460
-0.123009 1.353359 8.675460
-0.037302 1.336066 8.675460
-0.132236 1.360480 8.675460
0.010166 1.316405 8.675460
-0.037302 1.305892 8.631532
0.010166 1.305892 8.666039
0.105101 1.258424 8.647979
0.152569 1.210957 8.632391
0.152569 1.258424 8.670382
-0.132236 1.353359 8.651423
0.152569 1.303711 8.722927
0.144689 1.305892 8.722927
-0.084769 1.340523 8.722927
-0.099342 1.353359 8.722927
-0.037302 1.320476 8.722927
-0.132236 1.371914 8.722927
-0.014012 1.353359 8.722927
0.057634 1.331162 8.722927
0.047693 1.353359 8.722927
0.010166 1.363923 8.722927
0.105101 1.312320 8.722927
0.057634 1.305892 8.697452
0.105101 1.305892 8.710631
0.010166 1.353359 8.691802
1.708987 -0.213071 8.722927
0.936538 -1.542164 8.722927
-0.986653 1.365899 8.722927
1.759585 -0.118136 8.722927
1.101921 1.009174 8.722927
1.006986 -1.510362 8.722927
-0.891718 1.377498 8.722927
-0.986653 -1.700147 8.722927
1.077777 -1.447229 8.722927
1.082728 1.021086 8.722927
1.754273 -0.023201 8.722927
-1.016605 -1.637099 8.722927
1.101921 -1.409259 8.722927
0.912051 1.070751 8.722927
-1.081589 -1.565001 8.722927
1.006986 1.061727 8.722927
1.174263 -1.352294 8.722927
-1.105762 -1.542164 8.722927
-1.366395 -0.738618 8.722927
1.196856 -1.311112 8.722927
-1.396456 -0.687747 8.722927
-1.650830 -0.023201 8.722927
1.196856 0.926361 8.722927
-1.416120 -0.592812 8.722927
-0.891718 -1.737306 8.722927
1.245952 -1.257359 8.722927
-1.646720 0.071734 8.722927
-0.815300 1.400827 8.722927
-1.461329 -0.507684 8.722927
-0.922629 -1.732035 8.722927
-1.466621 -0.497877 8.722927
-0.796783 1.406269 8.722927
1.291791 -1.236840 8.722927
-1.651200 0.091969 8.722927
-0.796783 -1.762735 8.722927
-1.463964 -0.402942 8.722927
-0.701848 1.391915 8.722927
1.197286 0.926151 8.722927
-1.672407 0.166669 8.722927
-0.701848 -1.796335 8.722927
-0.771800 1.400827 8.722927
1.355336 -1.162424 8.722927
-1.356522 -0.782682 8.722927
-0.606913 -1.805147 8.722927
-0.635102 1.400827 8.722927
1.386726 -1.125514 8.722927
0.532310 1.192576 8.722927
-1.556265 -0.234568 8.722927
-1.680121 0.261605 8.722927
-0.606913 1.413355 8.722927
1.424888 -1.067488 8.722927
-1.562911 -0.213071 8.722927
0.627245 1.173988 8.722927
-0.511978 -1.837245 8.722927
1.481662 -0.978028 8.722927
-0.539856 -1.826970 8.722927
-1.525739 -0.308007 8.722927
-0.511978 1.443232 8.722927
-0.417042 -1.891929 8.722927
1.485345 -0.972553 8.722927
-1.688207 0.356540 8.722927
-1.599308 -0.118136 8.722927
-0.417042 1.439029 8.722927
0.722180 1.133310 8.722927
1.576597 -0.883226 8.722927
-0.322107 -1.918188 8.722927
-0.322107 1.440041 8.722927
1.581686 -0.877618 8.722927
-1.651200 0.437558 8.722927
-0.227172 -1.913124 8.722927
0.759654 1.116022 8.722927
-0.227172 1.422006 8.722927
1.601551 -0.782682 8.722927
-0.132236 -1.890475 8.722927
-1.643178 0.451475 8.722927
-0.037302 -1.909657 8.722927
1.618910 -0.687747 8.722927
0.057634 -1.864729 8.722927
-1.366395 -1.165941 8.722927
-1.610641 0.546410 8.722927
1.648328 -0.592812 8.722927
-1.367456 -1.162424 8.722927
0.152569 -1.861697 8.722927
-0.177489 1.400827 8.722927
1.671532 0.138145 8.722927
1.670049 -0.497877 8.722927
-1.176524 -1.453092 8.722927
0.247504 -1.874368 8.722927
1.671532 -0.483153 8.722927
1.648444 0.166669 8.722927
-1.643407 0.641346 8.722927
0.342439 -1.842830 8.722927
1.682366 -0.402942 8.722927
-1.183790 -1.447229 8.722927
0.247504 1.275806 8.722927
-1.586737 0.736280 8.722927
1.592141 0.261605 8.722927
0.437375 -1.834035 8.722927
1.686858 -0.308007 8.722927
-1.271459 -1.383477 8.722927
0.342439 1.222455 8.722927
1.576597 0.319754 8.722927
0.467737 -1.826970 8.722927
-1.313785 -1.352294 8.722927
1.569450 0.356540 8.722927
-1.562764 0.831216 8.722927
0.437375 1.198082 8.722927
0.532310 -1.794901 8.722927
-1.343633 -1.257359 8.722927
0.369285 1.210957 8.722927
-1.556265 0.858726 8.722927
1.708317 0.071734 8.722927
-1.384473 -1.067488 8.722927
-1.403426 -0.972553 8.722927
0.627245 -1.744878 8.722927
-1.534215 0.926151 8.722927
0.817115 1.091566 8.722927
-1.384186 -0.877618 8.722927
0.659909 -1.732035 8.722927
1.481662 0.542270 8.722927
-1.366395 -0.827763 8.722927
1.479461 0.546410 8.722927
-1.489907 1.021086 8.722927
1.291791 0.829995 8.722927
0.722180 -1.702837 8.722927
1.531908 0.451475 8.722927
1.290436 0.831216 8.722927
-1.461329 1.048723 8.722927
0.812230 -1.637099 8.722927
1.427898 0.641346 8.722927
-1.366395 1.105456 8.722927
0.817115 -1.631677 8.722927
1.395590 0.736280 8.722927
0.912051 -1.555260 8.722927
-1.336972 1.116022 8.722927
1.386726 0.759493 8.722927
-1.271459 1.155457 8.722927
-1.176524 1.208944 8.722927
-1.168676 1.210957 8.722927
-1.081589 1.296399 8.722927
-1.072620 1.305892 8.722927
-1.366395 -0.687747 8.664427
1.766468 -0.213071 8.657906
-0.796783 1.400827 8.709674
-1.461329 -0.497877 8.710338
1.196856 0.926151 8.721785
-0.701848 1.400827 8.718425
-0.891718 -1.732035 8.712091
-0.606913 1.400827 8.711831
0.722180 1.116022 8.693946
1.196856 -1.352294 8.681361
-0.606913 -1.826970 8.629768
-1.556265 -0.213071 8.689657
1.671532 0.166669 8.711509
1.291791 -1.257359 8.694487
-1.556265 0.831216 8.680301
0.247504 1.210957 8.651335
1.481662 0.546410 8.716696
-1.366395 -1.162424 8.711032
0.342439 1.210957 8.711879
-1.176524 1.210957 8.715035
-1.271459 -1.352294 8.657803
1.481662 -0.972553 8.714814
-1.081589 1.305892 8.697446
1.576597 -0.877618 8.703686
0.437375 -1.826970 8.653728
1.671532 -0.592812 8.667430
0.627245 -1.732035 8.657410
1.671532 -0.497877 8.683818
-0.037302 1.350974 8.770395
-0.041243 1.353359 8.770395
-0.132236 1.379162 8.770395
-0.084769 1.371855 8.770395
0.010166 1.340886 8.770395
0.057634 1.348931 8.770395
0.105101 1.343642 8.770395
0.152569 1.327054 8.770395
0.152569 1.305892 8.726409
-0.084769 1.353359 8.732278
0.010166 1.353359 8.757834
-0.132236 1.384598 8.817863
-0.084769 1.365681 8.817863
-0.037302 1.356509 8.817863
0.010166 1.351087 8.817863
-0.013101 1.353359 8.817863
0.057634 1.347982 8.817863
0.105101 1.346689 8.817863
0.152569 1.347138 8.817863
-0.037302 1.353359 8.785349
-0.986653 1.362918 8.817863
1.101921 0.985475 8.817863
-1.081589 -1.561555 8.817863
0.972416 -1.542164 8.817863
-1.435772 -0.782682 8.817863
1.084457 1.021086 8.817863
-1.105612 -1.542164 8.817863
1.729271 -0.213071 8.817863
1.732696 -0.118136 8.817863
1.006986 -1.522501 8.817863
1.713482 -0.023201 8.817863
-1.681121 -0.023201 8.817863
1.091802 -1.447229 8.817863
-0.986653 -1.633915 8.817863
1.101921 -1.441495 8.817863
-1.660612 0.071734 8.817863
-1.403722 -0.687747 8.817863
1.154750 -1.352294 8.817863
-0.322107 -1.926132 8.817863
-1.699864 0.166669 8.817863
1.006986 1.088845 8.817863
-0.382706 -1.921905 8.817863
-1.688838 0.261605 8.817863
1.196856 -1.301377 8.817863
-0.304950 -1.921905 8.817863
0.924027 1.116022 8.817863
-1.658184 0.356540 8.817863
-1.427102 -0.592812 8.817863
-0.891718 -1.741014 8.817863
1.251139 -1.257359 8.817863
-0.914056 -1.732035 8.817863
-1.651200 0.382185 8.817863
1.189670 0.926151 8.817863
-0.796783 -1.760453 8.817863
1.291791 -1.202666 8.817863
-1.461329 -0.528765 8.817863
-1.641742 0.451475 8.817863
-0.701848 -1.811817 8.817863
0.532310 1.249983 8.817863
-0.906826 1.400827 8.817863
-0.606913 -1.817163 8.817863
0.627245 1.242703 8.817863
-1.637517 0.546410 8.817863
0.722180 1.239002 8.817863
-0.984681 -1.637099 8.817863
1.333797 -1.162424 8.817863
-0.891718 1.410357 8.817863
-1.647328 0.641346 8.817863
0.817115 1.173243 8.817863
-1.475878 -0.497877 8.817863
-0.511978 -1.834250 8.817863
-0.796783 1.446505 8.817863
-1.587584 0.736280 8.817863
-0.538489 -1.826970 8.817863
1.386726 -1.117633 8.817863
0.780454 1.210957 8.817863
-0.701848 1.468180 8.817863
-0.417042 -1.908421 8.817863
-1.506641 -0.402942 8.817863
0.912051 1.119092 8.817863
-0.651981 1.495762 8.817863
-1.556265 0.822901 8.817863
1.435315 -1.067488 8.817863
-0.227172 -1.884840 8.817863
-1.545230 0.831216 8.817863
-0.511978 1.468159 8.817863
1.481662 -0.981718 8.817863
-0.597866 1.495762 8.817863
1.671532 0.114856 8.817863
-1.366395 -1.302278 8.817863
-0.417042 1.469297 8.817863
1.627325 0.166669 8.817863
-1.373593 -1.257359 8.817863
1.485341 -0.972553 8.817863
-1.507547 0.926151 8.817863
-0.322107 1.468613 8.817863
1.605830 0.261605 8.817863
-1.366395 -1.214123 8.817863
-1.461329 1.000674 8.817863
1.545149 -0.877618 8.817863
1.576597 0.318597 8.817863
-0.227172 1.438969 8.817863
-1.440296 1.021086 8.817863
1.558105 0.356540 8.817863
-1.271459 -1.461643 8.817863
1.559012 -0.782682 8.817863
-1.366395 1.100575 8.817863
-1.298693 -1.447229 8.817863
-1.533943 -0.308007 8.817863
1.694025 0.071734 8.817863
-0.606913 1.497471 8.817863
-1.347712 1.116022 8.817863
-1.176524 -1.464104 8.817863
1.576597 -0.743444 8.817863
-1.328416 -1.352294 8.817863
1.481662 0.494717 8.817863
-1.271459 1.165862 8.817863
1.601313 -0.687747 8.817863
1.465484 0.546410 8.817863
-1.545314 -0.213071 8.817863
-1.176524 1.193862 8.817863
-1.355160 -1.162424 8.817863
-0.158568 1.400827 8.817863
1.503767 0.451475 8.817863
1.642910 -0.592812 8.817863
-1.154000 1.210957 8.817863
-1.366395 -1.120762 8.817863
-1.556265 -0.186817 8.817863
1.429291 0.641346 8.817863
-1.087895 1.305892 8.817863
0.247504 1.305367 8.817863
1.671532 -0.518153 8.817863
-1.628044 -0.118136 8.817863
0.246761 1.305892 8.817863
-1.408913 -1.067488 8.817863
1.386726 0.701298 8.817863
-1.081589 1.312576 8.817863
0.342439 1.265443 8.817863
-1.386024 -0.972553 8.817863
1.677065 -0.497877 8.817863
-1.651200 -0.092293 8.817863
1.356782 0.736280 8.817863
-0.132236 -1.886245 8.817863
0.437375 1.220239 8.817863
1.303271 0.831216 8.817863
1.291791 0.842966 8.817863
-0.037302 -1.908279 8.817863
-1.419377 -0.877618 8.817863
0.057634 -1.878159 8.817863
1.196856 0.922546 8.817863
0.152569 -1.856131 8.817863
1.700193 -0.402942 8.817863
0.247504 -1.852275 8.817863
0.342439 -1.844897 8.817863
1.710397 -0.308007 8.817863
0.436296 -1.826970 8.817863
0.437375 -1.826646 8.817863
0.532310 -1.782268 8.817863
0.627245 -1.746859 8.817863
0.661767 -1.732035 8.817863
0.722180 -1.694271 8.817863
0.817115 -1.656269 8.817863
0.858988 -1.637099 8.817863
0.912051 -1.576081 8.817863
-1.366395 -0.782682 8.742868
-0.986653 -1.637099 8.810410
-0.891718 1.400827 8.800718
-1.651200 -0.023201 8.723947
0.912051 1.116022 8.808928
-1.651200 0.071734 8.753779
-0.322107 -1.921905 8.737577
-1.556265 -0.213071 8.785579
-0.701848 1.400827 8.744934
1.196856 0.926151 8.725743
-0.606913 1.495762 8.811351
0.532310 1.210957 8.763350
1.576597 -0.877618 8.746869
-1.556265 0.831216 8.802430
0.627245 1.210957 8.777849
-1.366395 -1.257359 8.768920
1.576597 -0.782682 8.776868
-1.366395 -1.162424 8.789468
-1.461329 1.021086 8.773319
0.722180 1.210957 8.767284
-1.271459 -1.447229 8.789397
0.817115 1.116022 8.754185
1.671532 -0.497877 8.774051
0.437375 -1.826970 8.816636
-1.081589 1.305892 8.758904
0.437375 1.210957 8.794620
0.817115 -1.637099 8.736478
1.291791 0.831216 8.725469
1.386726 0.736280 8.747553
0.057634 1.350298 8.865331
0.012567 1.353359 8.865331
-0.037302 1.361357 8.865331
0.010166 1.353674 8.865331
0.103311 1.353359 8.865331
0.152569 1.336780 8.865331
0.107199 1.353359 8.865331
0.105101 1.353599 8.865331
0.010166 1.353359 8.858182
0.105101 1.353359 8.850117
0.152569 1.300840 8.912798
0.142354 1.305892 8.912798
0.057634 1.350088 8.912798
0.038588 1.353359 8.912798
-0.037302 1.366367 8.912798
0.010166 1.358294 8.912798
0.105101 1.337958 8.912798
0.152569 1.305892 8.902883
0.105101 1.353359 8.868737
-0.986653 -1.641943 8.912798
-1.072077 1.305892 8.912798
1.291791 0.812821 8.912798
1.671532 -0.032874 8.912798
-1.495534 -0.782682 8.912798
-0.994170 -1.637099 8.912798
1.266945 0.831216 8.912798
-1.005016 1.400827 8.912798
0.912051 -1.592182 8.912798
-1.478864 -0.687747 8.912798
-1.081589 -1.569041 8.912798
-0.986653 1.418303 8.912798
1.668685 -0.023201 8.912798
1.196856 0.911333 8.912798
1.006986 -1.561681 8.912798
-1.469469 -0.592812 8.912798
-1.144173 -1.542164 8.912798
1.155500 0.926151 8.912798
-1.366395 -0.650353 8.912798
1.037939 -1.542164 8.912798
-0.891718 1.447993 8.912798
-1.393411 -0.592812 8.912798
1.101921 0.942619 8.912798
-0.891718 -1.733443 8.912798
1.715591 -0.402942 8.912798
-0.894219 -1.732035 8.912798
-0.796783 1.481682 8.912798
1.723649 -0.308007 8.912798
1.066254 1.021086 8.912798
1.101921 -1.461055 8.912798
-0.796783 -1.769972 8.912798
-0.769438 1.495762 8.912798
-1.510672 -0.497877 8.912798
1.006986 1.115706 8.912798
1.726106 -0.213071 8.912798
1.006039 1.116022 8.912798
-1.366395 -0.589278 8.912798
1.114213 -1.447229 8.912798
-0.701848 -1.802843 8.912798
-0.606913 1.480924 8.912798
-1.531124 -0.402942 8.912798
-0.606913 -1.799102 8.912798
1.196856 -1.357006 8.912798
-0.634574 1.495762 8.912798
-0.511978 -1.828165 8.912798
1.702619 -0.118136 8.912798
-0.513948 -1.826970 8.912798
1.201641 -1.352294 8.912798
-1.364990 -0.592812 8.912798
-0.511978 1.476265 8.912798
0.722180 1.203656 8.912798
-0.417042 -1.877527 8.912798
-0.417042 1.446015 8.912798
0.697734 1.210957 8.912798
1.279577 -1.257359 8.912798
-1.556265 -0.321337 8.912798
-0.322107 -1.893059 8.912798
0.532310 1.283789 8.912798
