0.030086 -1.935236 7.550214
0.033942 -1.908653 7.858775
0.055639 -1.755660 8.062490
0.042786 -1.847352 8.413860
0.042840 -1.847815 8.791296
0.039537 -1.872169 9.235299
0.040958 -1.862826 9.549385
0.041921 -1.856721 9.864453
0.064652 -1.696292 10.014380
0.085378 -1.550855 10.527639
-0.154289 -1.888893 1.454405
-0.183966 -2.010966 1.995286
-0.140590 -1.833979 2.292271
-0.141988 -1.839814 2.381337
-0.142368 -1.841399 2.404880
-0.149819 -1.872419 2.821263
-0.134997 -1.812369 3.246877
-0.143524 -1.847705 3.598108
-0.120517 -1.753664 3.632598
-0.128251 -1.785669 3.918883
-0.138645 -1.828639 4.270390
-0.122127 -1.761398 4.504234
-0.106040 -1.695924 4.739305
-0.128810 -1.789854 5.354528
-0.135021 -1.815457 5.509295
-0.149832 -1.876487 5.860337
-0.118994 -1.750892 6.249287
-0.135860 -1.820332 6.601056
-0.157056 -1.906926 6.538709
-0.194570 -2.060685 6.802091
-0.163127 -1.932533 7.129632
-0.151988 -1.887303 7.371749
-0.164504 -1.939326 8.007302
-0.142814 -1.850689 8.053947
-0.145841 -1.863650 8.494180
-0.160088 -1.922200 8.712078
-0.120168 -1.759136 8.853631
-0.135315 -1.821841 9.428593
-0.128487 -1.794245 9.676503
-0.117195 -1.748309 9.859609
-0.351465 -1.957351 1.300869
-0.288715 -1.773391 1.462565
-0.326888 -1.885797 1.874797
-0.297358 -1.799310 2.034961
-0.301628 -1.812052 2.255411
-0.311108 -1.840272 2.671181
-0.288404 -1.774004 3.030099
-0.305808 -1.825603 3.577384
-0.311282 -1.841814 3.731113
-0.282494 -1.757443 3.830927
-0.301785 -1.814516 4.312883
-0.337563 -1.919565 4.387683
-0.315418 -1.854814 4.620333
-0.285392 -1.767406 5.329147
-0.329188 -1.896106 5.531570
-0.381099 -2.048741 5.862302
-0.374741 -2.029981 5.754886
-0.340683 -1.930553 6.271047
-0.283098 -1.761716 6.398609
-0.306556 -1.830884 6.749251
-0.353410 -1.968553 6.946635
-0.362446 -1.995618 7.512986
-0.327786 -1.893900 7.493817
-0.318801 -1.867836 7.801816
-0.327445 -1.893693 8.307184
-0.309600 -1.841508 8.486765
-0.303907 -1.825108 8.798205
-0.299252 -1.811752 9.110708
-0.282947 -1.764090 9.293038
-0.279942 -1.755578 9.607529
-0.247250 -1.659991 9.953406
-0.549204 -1.921952 1.575360
-0.514569 -1.846380 1.928666
-0.515063 -1.847480 1.950876
-0.475605 -1.761149 2.044180
-0.496995 -1.808549 2.787008
-0.502359 -1.820409 2.940109
-0.466680 -1.742406 3.102375
-0.478127 -1.767686 3.386959
-0.496860 -1.809019 3.802192
-0.501124 -1.818423 3.889863
-0.515667 -1.850481 4.173622
-0.464540 -1.738964 4.747094
-0.469952 -1.750881 4.834987
-0.675997 -2.202479 5.400943
-0.650767 -2.147410 5.633908
-0.585459 -2.004597 5.886416
-0.556595 -1.941524 6.057271
-0.503722 -1.826043 6.444719
-0.523639 -1.870181 7.141622
-0.547997 -1.923370 6.946126
-0.512747 -1.846578 7.470077
-0.514662 -1.851103 7.908305
-0.504833 -1.829815 8.217044
-0.474313 -1.763071 8.330409
-0.484076 -1.784515 8.418210
-0.444073 -1.697226 8.821805
-0.470518 -1.755568 9.397347
-0.515225 -1.853725 9.746883
-0.438883 -1.686624 9.829311
-0.406734 -1.616539 10.242145
-0.684051 -1.754040 1.051680
-0.738892 -1.847569 1.336522
-0.695359 -1.773688 1.693494
-0.706350 -1.792653 2.107342
-0.672184 -1.734796 2.593688
-0.670529 -1.731952 2.549948
-0.690462 -1.766180 3.029790
-0.653662 -1.703721 3.322944
-0.654764 -1.705611 3.344711
-0.693052 -1.771203 4.021185
-0.698550 -1.780616 4.108267
-0.608039 -1.626659 4.286787
-0.623013 -1.652283 4.505774
-0.998027 -2.291164 5.365026
-0.955603 -2.219012 5.467589
-0.925081 -2.167202 5.699504
-0.864672 -2.064651 6.145294
-0.843573 -2.028921 6.445315
-0.753477 -1.875639 6.572562
-0.635596 -1.675197 6.918734
-0.652773 -1.704531 7.071704
-0.685728 -1.760803 7.355396
-0.670833 -1.735639 7.662241
-0.709486 -1.801868 8.362815
-0.694779 -1.776767 8.253824
-0.721518 -1.822635 8.824558
-0.694950 -1.777523 9.004490
-0.708641 -1.801101 9.446776
-0.715105 -1.812338 9.824698
-0.601028 -1.618128 9.775625
-0.919763 -1.757329 1.127167
-0.872235 -1.692891 1.677149
-0.872881 -1.693784 1.701156
-0.826814 -1.631268 2.123306
-0.837753 -1.646318 2.409486
-0.794415 -1.587486 2.769061
-0.812562 -1.612389 3.121338
-0.821342 -1.624428 3.276589
-0.851701 -1.666030 3.759240
-1.248496 -2.207075 4.975508
-1.230072 -2.182208 5.399562
-1.180815 -2.115180 5.504481
-1.159728 -2.086654 5.867424
-1.046045 -1.931860 5.928221
-0.985558 -1.849756 6.443984
-0.971232 -1.830441 6.812757
-0.800751 -1.598306 6.900018
-0.732081 -1.504995 7.296146
-0.896516 -1.729102 7.601231
-0.851857 -1.668340 7.713641
-0.887617 -1.717380 8.350313
-0.823767 -1.630413 8.333994
-0.856205 -1.674895 8.907916
-0.837079 -1.648978 9.155496
-0.807470 -1.608752 9.338414
-0.838934 -1.651873 9.850126
-0.742955 -1.521239 9.999976
-1.126527 -1.759550 1.349853
-1.001248 -1.614779 1.576003
-1.022027 -1.639102 2.187215
-1.017772 -1.634130 2.079523
-0.967261 -1.575888 2.436098
-0.995683 -1.609019 2.982781
-0.993243 -1.606177 2.940364
-0.953758 -1.560718 3.365708
-1.490775 -2.182544 5.018098
-1.408715 -2.087572 4.864488
-1.394339 -2.071181 5.351510
-1.441746 -2.126201 5.758008
-1.239245 -1.892261 6.264690
-1.113988 -1.747438 6.326958
-1.042516 -1.665222 7.240809
-1.012049 -1.630305 7.898605
-1.048797 -1.672906 8.117428
-1.011995 -1.630433 8.296463
-0.987561 -1.602294 8.541731
-0.976553 -1.589713 8.853459
-0.942606 -1.550543 9.035163
-0.947856 -1.556796 9.414508
-0.921147 -1.526168 9.956342
-0.857634 -1.452886 10.304428
-1.061168 -1.434750 1.073116
-1.285137 -1.650260 1.416093
-1.149669 -1.520127 1.710861
-1.165729 -1.535752 2.128778
-1.175962 -1.545688 2.350491
-1.105315 -1.477770 2.383128
-1.132090 -1.503727 2.867273
-1.141966 -1.513292 3.023914
-1.109585 -1.482399 3.583269
-1.646154 -1.998818 4.669354
-1.572663 -1.928427 5.301943
-1.520539 -1.878381 5.471353
-1.531768 -1.889216 5.559679
-1.427077 -1.788687 5.877365
-1.362612 -1.726952 6.457452
-1.215383 -1.585383 6.457275
-1.140317 -1.513603 7.378902
-1.097148 -1.472353 7.974873
-1.126019 -1.500181 8.130412
-1.155470 -1.528568 8.285741
-1.154820 -1.528107 8.663326
-1.157593 -1.530939 9.042022
-1.107394 -1.482721 9.160102
-1.045767 -1.423641 9.570330
-1.056771 -1.434389 9.953264
-1.277909 -1.389065 1.226743
-1.356954 -1.451455 1.247895
-1.290912 -1.399503 1.667699
-1.302061 -1.408417 1.953429
-1.309004 -1.413958 2.108362
-1.241635 -1.360882 2.335270
-1.283440 -1.394145 3.014206
-1.276076 -1.388291 2.907654
-1.218367 -1.342866 3.203072
-1.639860 -1.675965 4.358382
-1.787035 -1.792348 4.945509
-1.745279 -1.759513 5.241592
-1.748414 -1.761997 5.265384
-1.718224 -1.738316 5.627146
-1.624245 -1.664327 6.073876
-1.540998 -1.598621 6.052337
-1.343832 -1.443132 6.329412
-1.125580 -1.271489 7.828166
-1.237146 -1.359756 8.378030
-1.237298 -1.360027 8.756490
-1.301515 -1.410821 9.042532
-1.216744 -1.343915 9.029271
-1.270526 -1.386590 9.606402
-1.233678 -1.357584 9.791519
-1.483579 -1.321308 1.238217
-1.408291 -1.272447 1.526958
-1.419072 -1.279567 1.812496
-1.432134 -1.288169 2.097899
-1.371656 -1.248992 2.521040
-1.373143 -1.249968 2.545087
-1.401482 -1.268556 2.961829
-1.334981 -1.225389 3.191544
-1.799607 -1.528068 4.474845
-1.908783 -1.599154 4.676808
-1.779099 -1.514922 4.987774
-1.664106 -1.440489 5.949968
-1.534964 -1.356590 6.206535
-1.512414 -1.342061 6.575869
-1.208314 -1.144841 8.100537
-1.323407 -1.219748 8.231006
-1.367992 -1.248962 8.805881
-1.293048 -1.200237 8.857224
-1.265823 -1.182623 9.106193
-1.256892 -1.176932 9.421907
-1.188040 -1.132304 9.834432
-1.602778 -1.170211 1.164864
-1.522479 -1.128554 1.453383
-1.552050 -1.144172 2.131075
-1.568577 -1.152868 2.416295
-1.477521 -1.105503 2.381848
-1.403223 -1.066945 2.609988
-1.439346 -1.085902 3.093661
-1.464014 -1.098832 3.380046
-1.938282 -1.345857 4.466798
-1.966024 -1.360361 4.683460
-1.925556 -1.339444 5.044141
-1.756292 -1.251843 6.243885
-1.472461 -1.104390 6.674277
-1.232823 -0.980144 7.737976
-1.124818 -0.924096 8.075801
-1.363128 -1.048112 8.314046
-1.480591 -1.109369 8.797693
-1.368496 -1.051047 8.717535
-1.423950 -1.080090 9.295090
-1.434175 -1.085542 9.675990
-1.337846 -1.035442 9.663533
-1.248910 -0.989314 10.011177
-1.802376 -1.054540 1.318380
-1.632818 -0.985814 1.741251
-1.643244 -0.990123 1.961088
-1.555401 -0.954476 2.055960
-1.580443 -0.964788 2.472942
-1.523817 -0.941955 2.963704
-1.542556 -0.949641 3.184370
-1.569102 -0.960520 3.470414
-2.042164 -1.152966 4.361150
-2.124359 -1.186555 4.963111
-1.963993 -1.121482 5.146782
-1.876080 -1.085787 5.186182
-1.754803 -1.036856 6.153661
-1.407470 -0.895835 6.320119
-1.267505 -0.839074 6.581794
-0.894265 -0.687944 7.966586
-1.207218 -0.815229 8.474491
-1.392092 -0.890310 8.446377
-1.534092 -0.948172 8.996216
-1.451408 -0.914606 9.047606
-1.440849 -0.910424 9.362784
-1.490689 -0.930842 9.876294
-1.301643 -0.854063 9.894447
-1.709164 -0.820441 1.472800
-1.741607 -0.830318 2.150980
-1.639868 -0.800006 2.050583
-1.661337 -0.806511 2.402832
-1.676841 -0.811198 2.623869
-1.710379 -0.821316 3.041031
-1.641247 -0.800838 3.337029
-2.021092 -0.914155 4.157517
-2.247383 -0.981587 4.412756
-2.105824 -0.939579 4.787332
-1.929357 -0.887099 4.906512
-1.433296 -0.739999 6.546100
-1.108247 -0.643661 7.773376
-1.008373 -0.614071 8.181369
-1.283915 -0.696178 8.489010
-1.417326 -0.735926 8.620069
-1.384467 -0.726228 8.869970
-1.538950 -0.772386 9.421907
-1.526929 -0.768795 9.380268
-1.558989 -0.778483 9.828541
-1.775557 -0.657372 1.404330
-1.803604 -0.663141 2.018267
-1.714819 -0.645554 2.180659
-1.729157 -0.648474 2.402832
-1.771565 -0.657074 2.952119
-1.676080 -0.638116 2.986521
-1.708929 -0.644755 3.340102
-2.106440 -0.724011 4.228261
-2.321194 -0.766716 4.355592
-2.185292 -0.739858 4.795394
-2.055723 -0.714259 5.239079
-1.524405 -0.609006 6.181295
-1.497898 -0.603860 6.555901
-1.181989 -0.541514 7.851074
-1.080879 -0.521557 8.259591
-1.277196 -0.560551 8.234665
-1.406105 -0.586318 8.724419
-1.354924 -0.576209 8.909054
-1.417867 -0.588785 9.132979
-1.580923 -0.621356 9.686168
-1.690813 -0.643300 10.039653
-1.530787 -0.454967 1.386076
-1.750574 -0.477324 1.863093
-1.774909 -0.479914 2.281265
-1.780930 -0.480551 2.371612
-1.724210 -0.474996 2.928835
-1.726371 -0.475222 2.953705
-1.666826 -0.469342 3.382236
-2.199421 -0.523497 4.475940
-2.348389 -0.538653 4.808023
-2.196019 -0.523357 5.121296
-1.807838 -0.484352 5.800517
-1.580979 -0.461560 6.209636
-1.581955 -0.461819 6.716229
-1.281264 -0.431445 6.737024
-1.155212 -0.419099 7.970665
-1.115842 -0.415200 8.221402
-1.420262 -0.446075 8.595251
-1.541098 -0.458304 8.660061
-1.526135 -0.456892 8.976359
-1.495027 -0.453828 9.227583
-1.506046 -0.455063 9.612058
-1.637694 -0.468497 10.032896
-1.637026 -0.468530 10.352270
-1.317662 -0.436259 10.337109
-1.872314 -0.312948 1.534111
-1.773486 -0.312213 1.564577
-1.690461 -0.311700 1.924270
-1.691886 -0.311719 1.950740
-1.717690 -0.312046 2.371773
-1.754852 -0.312479 2.858062
-1.762777 -0.312567 2.950116
-1.696431 -0.312182 3.314409
-2.113406 -0.315633 4.299389
-2.261390 -0.316854 4.635100
-2.257617 -0.317021 5.257518
-1.957594 -0.314949 5.859473
-1.606308 -0.312394 6.154237
-1.565221 -0.312181 6.461478
-1.443651 -0.311389 6.857200
-0.876408 -0.307325 7.527023
-0.849238 -0.307220 7.844857
-1.247202 -0.310330 8.199325
-1.420171 -0.311717 8.464119
-1.577120 -0.312961 8.660319
-1.580692 -0.313108 9.041379
-1.589050 -0.313291 9.423492
-1.581580 -0.313334 9.740592
-1.577414 -0.313402 10.058655
-1.489902 -0.312760 10.113103
-1.277730 -0.311260 10.429577
-1.791102 -0.137136 1.452056
-1.809725 -0.135574 1.869242
-1.605422 -0.154124 1.771260
-1.727870 -0.143118 2.184806
-1.647624 -0.150509 2.478533
-1.697934 -0.146128 3.095153
-1.712595 -0.144843 3.250421
-2.141634 -0.106170 4.354876
-2.261357 -0.095325 4.493855
-2.283180 -0.093388 4.646193
-2.268521 -0.094896 5.201276
-1.893290 -0.129258 5.943127
-1.518760 -0.163373 6.106995
-1.434085 -0.171261 6.700615
-1.015015 -0.209651 7.571679
-1.151956 -0.197373 8.133207
-1.368063 -0.177731 8.174371
-1.593702 -0.157354 8.636584
-1.540882 -0.162216 8.819321
-1.641996 -0.153131 9.173359
-1.668298 -0.150767 9.262968
-1.543882 -0.162171 9.542301
-1.463556 -0.169608 9.956713
-1.513393 -0.165124 10.113103
-1.489598 -0.027638 1.086383
-1.702229 0.011625 1.567704
-1.700603 0.011337 1.527331
-1.618503 -0.003997 1.887056
-1.647324 0.001190 2.374466
-1.658286 0.003172 2.531844
-1.572033 -0.012871 2.697002
-1.595840 -0.008550 2.986931
-2.257025 0.113547 4.468875
-2.307067 0.122713 4.816555
-2.243495 0.110853 5.050621
-2.268150 0.115374 5.204807
-2.099748 0.084096 5.392495
-1.870307 0.041434 5.795915
-1.717341 0.012995 6.052536
-1.579439 -0.012673 6.377840
-1.280403 -0.068269 6.881025
-1.011359 -0.118193 7.035045
-1.121282 -0.097974 7.529383
-1.190016 -0.085325 7.821126
-1.340145 -0.057558 8.020899
-1.491527 -0.029558 8.218842
-1.602122 -0.009190 8.639164
-1.608411 -0.008032 8.662383
-1.725038 0.013455 9.081015
-1.656259 0.000667 9.198087
-1.572290 -0.015030 9.608959
-1.556863 -0.018086 10.221699
-1.420639 -0.043408 10.440224
-1.391408 0.090639 1.176228
-1.586082 0.146792 1.260909
-1.700480 0.179649 1.742799
-1.718575 0.184756 2.095920
-1.627925 0.158564 2.192033
-1.546138 0.134886 2.421070
-1.556997 0.137969 2.577661
-1.511936 0.124759 3.206159
-1.539763 0.132695 3.495309
-1.577585 0.143494 3.850271
-1.717686 0.183807 4.216143
-2.213540 0.326876 4.305044
-2.269590 0.342918 4.716271
-2.196871 0.321877 4.884179
-1.429402 0.099984 6.134047
-1.295649 0.061276 6.463306
-1.206697 0.035431 6.996689
-1.024133 -0.017277 7.063987
-1.054039 -0.008838 7.649496
-1.168604 0.024202 7.718018
-1.517298 0.124761 7.937303
-1.605094 0.149982 8.292238
-1.696877 0.176354 8.646080
-1.737143 0.187807 9.158072
-1.614765 0.152516 9.078515
-1.531467 0.128342 9.490081
-1.505283 0.120703 9.742381
-1.542618 0.131330 10.194303
-1.270158 0.052565 10.610351
-1.375467 0.218320 1.113609
-1.283026 0.182077 1.141518
-1.392195 0.224704 1.629503
-1.587990 0.301377 1.843989
-1.509985 0.270702 2.139015
-1.523305 0.275848 2.362656
-1.557729 0.289176 2.850645
-1.581613 0.298441 3.139931
-1.595667 0.303897 3.296984
-1.425271 0.237046 3.474616
-1.362204 0.212224 3.776514
-1.679167 0.336357 4.096897
-2.007573 0.464956 4.474821
-2.036911 0.476381 4.694462
-1.966431 0.448698 4.864024
-2.018099 0.468832 5.214052
-1.196393 0.146312 6.500275
-1.148375 0.127407 6.745987
-0.997649 0.068259 6.946604
-0.904762 0.031690 7.419821
-1.225940 0.157530 7.578140
-1.534581 0.278337 8.086743
-1.556302 0.286821 8.177144
-1.644000 0.321077 8.531346
-1.628607 0.314937 8.845897
-1.705601 0.345020 9.133420
-1.696044 0.341167 9.449143
-1.581512 0.296179 9.729758
-1.341352 0.201982 9.909966
-1.531191 0.439939 1.269942
-1.540617 0.444606 1.559215
-1.383913 0.365141 2.057835
-1.470911 0.409177 2.010989
-1.418687 0.382532 2.639278
-1.434753 0.390582 2.863393
-1.436646 0.391531 2.888516
-1.477212 0.411885 3.377406
-1.403059 0.374306 3.545419
-1.364501 0.354620 4.046992
-1.470685 0.408295 4.192415
-1.812023 0.580802 4.768527
-1.878036 0.614269 4.582936
-1.385238 0.364379 6.131193
-1.173679 0.257211 6.480924
-1.102948 0.221383 6.593209
-1.022523 0.180501 7.130794
-1.081930 0.210456 7.425254
-1.160315 0.250139 7.361155
-1.322766 0.332218 7.697427
-1.620472 0.482673 8.203482
-1.626304 0.485615 8.228432
-1.608954 0.476726 8.542670
-1.577934 0.460942 8.792061
-1.617766 0.480916 9.306200
-1.471171 0.406690 9.454649
-1.521038 0.431739 9.972455
-1.311553 0.325656 10.222170
-1.497338 0.587857 1.679691
-1.346989 0.493227 2.113624
-1.436269 0.549293 2.200042
-1.360510 0.501629 2.365247
-1.382798 0.515500 2.723239
-1.413835 0.534845 3.147158
-1.432345 0.546392 3.371976
-1.368085 0.505928 3.607389
-1.292554 0.458431 3.710996
-1.153255 0.370786 4.027397
-1.315156 0.472262 4.707767
-1.494144 0.584704 4.771359
-1.624014 0.666181 5.111603
-1.543920 0.615839 5.153342
-1.476975 0.573508 5.873333
-1.241736 0.425643 6.020524
-1.122839 0.350813 6.350112
-1.101646 0.337356 6.729747
-0.976787 0.258803 6.997675
-0.981334 0.261651 7.022414
-1.294892 0.458406 7.738775
-1.506046 0.591017 7.913978
-1.568570 0.630197 8.201939
-1.633414 0.670835 8.489183
-1.634832 0.671585 8.868514
-1.543373 0.614123 8.854138
-1.565212 0.627679 9.301569
-1.575273 0.633859 9.684110
-1.437499 0.547235 9.833959
-1.255660 0.432861 10.148505
-1.353123 0.658899 1.552971
-1.448598 0.731773 1.971373
-1.288142 0.609035 1.939490
-1.315803 0.629977 2.494377
-1.313384 0.628143 2.451597
-1.348455 0.654754 3.005822
-1.375151 0.675036 3.360596
-1.382430 0.680569 3.450325
-1.334348 0.643642 3.816016
-1.251540 0.580305 3.784573
-1.285469 0.606121 4.140721
-1.337452 0.645695 4.629012
-1.276839 0.599257 4.799715
-1.311842 0.625921 5.089054
-1.394400 0.688834 5.709057
-1.213501 0.550500 5.567914
-1.137679 0.492261 6.161412
-1.038005 0.415852 6.558858
-0.986096 0.376071 6.737303
-0.923605 0.328220 6.849150
-1.022407 0.403582 7.411609
-1.257273 0.583107 7.790246
-1.429114 0.714551 7.832202
-1.486996 0.758718 8.119589
-1.519202 0.783294 8.274718
-1.562133 0.815909 8.850552
-1.536203 0.795975 9.098743
-1.543444 0.801364 9.479454
-1.473137 0.747557 9.531995
-1.283577 0.602445 9.776185
-1.206782 0.717197 1.468222
-1.299027 0.803019 2.018749
-1.297318 0.801443 1.976844
-1.240198 0.747998 2.338794
-1.266975 0.772769 2.827647
-1.281126 0.785875 3.050870
-1.238435 0.745862 3.482916
-1.245465 0.752382 3.573683
-1.190982 0.701451 3.808487
-1.228720 0.736477 4.231819
-1.237384 0.744521 4.322623
-1.280339 0.784414 4.745026
-1.327580 0.828306 5.166574
-1.266120 0.770922 5.273073
-1.204927 0.713787 5.380117
-1.141683 0.654501 6.038760
-1.020042 0.540933 6.234383
-0.889566 0.419151 6.364448
-0.963699 0.488100 6.860507
-1.010350 0.531497 7.153514
-1.118953 0.632729 7.356516
-1.322926 0.822890 7.666936
-1.350975 0.848991 7.823170
-1.454959 0.945766 8.374425
-1.525507 1.011431 8.726538
-1.196978 0.704525 9.680079
-1.108416 0.621780 9.963700
-1.118813 0.631185 10.651043
-1.141956 0.833074 1.705845
-1.165307 0.859006 2.329457
-1.169477 0.863645 2.421519
-1.107507 0.794000 2.520775
-1.146102 0.837020 3.211229
-1.156412 0.848525 3.369289
-1.181734 0.876795 3.726365
-1.112576 0.799138 3.696175
-1.168866 0.862032 4.386165
-1.183231 0.878091 4.544033
-1.217718 0.916655 4.900560
-1.240804 0.942477 5.124202
-1.206780 0.904120 5.430253
-1.166975 0.859301 5.671342
-0.973498 0.641971 5.748757
-0.912597 0.573290 6.347866
-0.933736 0.596956 6.507711
-0.964709 0.631634 6.734462
-0.941544 0.605469 7.049182
-1.070708 0.750342 7.454011
-1.310877 1.019971 7.674788
-1.261158 0.964079 7.789616
-1.309638 1.018389 8.078650
-1.307496 1.015804 8.458740
-1.397404 1.116551 8.944180
-1.287063 0.992558 9.090375
-1.179545 0.871565 9.598114
-1.253471 0.954423 9.954379
-1.097282 0.778889 10.203955
-1.005427 0.675623 10.424922
-1.068748 0.958729 2.135938
-1.069601 0.959886 2.159808
-1.030769 0.906341 2.656003
-1.044776 0.925405 2.946066
-1.053034 0.936652 3.102956
-1.027576 0.901419 3.669130
-1.029137 0.903549 3.693054
-0.990479 0.850346 3.995053
-1.075539 0.966873 4.339223
-1.116040 1.022182 4.827337
-1.077870 0.969684 5.065196
-1.111907 1.016195 5.420676
-1.018477 0.887864 5.677753
-0.904969 0.732092 5.736451
-0.813078 0.605870 5.997692
-0.869297 0.682743 6.492757
-0.838858 0.640848 6.738617
-0.893215 0.715202 7.165829
-0.763801 0.537670 7.098544
-0.935802 0.773466 7.481979
-1.167691 1.091449 7.834524
-1.190806 1.123082 7.990544
-1.224519 1.169220 8.212228
-1.244938 1.196965 8.722931
-1.214106 1.154564 8.905627
-1.196855 1.130569 9.513447
-1.124723 1.031449 9.794648
-1.029114 0.900184 9.945081
-0.946505 0.786722 10.163469
-0.854153 0.847599 1.300609
-1.012054 1.111874 1.514400
-0.972907 1.046020 2.008268
-0.924418 0.964765 2.105207
-0.941346 0.992811 2.596196
-0.959237 1.022510 3.020104
-0.912428 0.944066 3.120408
-0.926928 0.968169 3.411552
-0.899686 0.922284 3.846990
-0.905184 0.931434 3.938236
-0.988018 1.069849 4.415984
-0.943597 0.995402 4.520373
-0.980415 1.056753 5.010209
-0.993101 1.077900 5.167349
-0.905034 0.930315 5.356896
-0.829455 0.803558 5.682503
-0.781812 0.723413 6.280624
-0.784274 0.727521 6.305317
-0.778403 0.717415 6.753333
-0.979184 1.053115 7.585473
-1.082285 1.225516 7.983070
-1.062051 1.191483 8.230318
-1.101506 1.257374 8.518476
-1.074078 1.211334 8.701070
-1.056847 1.182328 8.950546
-1.050658 1.171769 9.267105
-0.986749 1.064582 9.547558
-0.989439 1.068669 10.229426
-0.722458 0.830284 1.078969
-0.722752 0.830887 1.105471
-0.815392 1.026680 1.593693
-0.863964 1.129311 1.881606
-0.823447 1.043450 1.979714
-0.836762 1.071280 2.472394
-0.853469 1.106294 2.964512
-0.851973 1.103157 2.924241
-0.826421 1.048734 3.359229
-0.794016 0.979946 3.596034
-0.804820 1.002655 3.822739
-0.858727 1.116638 4.037124
-0.874652 1.150143 4.329108
-0.870492 1.140864 4.967142
-0.876624 1.153781 5.059750
-0.887435 1.176554 5.218664
-0.772600 0.932831 6.005937
-0.724167 0.829938 6.472554
-0.744071 0.871913 6.700406
-0.693778 0.765129 7.104759
-0.654593 0.682125 7.152895
-0.628432 0.626599 7.336588
-0.817186 1.025844 7.898503
-0.916826 1.236736 8.006358
-0.963740 1.335761 8.426283
-0.997324 1.406659 8.713167
-0.982944 1.376029 8.961207
-0.986165 1.382569 9.341955
-0.898898 1.197784 9.356563
-0.908369 1.217289 10.101978
-0.808359 1.005350 10.351388
-0.688002 0.750205 10.769951
-0.715287 1.093155 1.472789
-0.787894 1.292645 1.756403
-0.760418 1.216721 2.119592
-0.760960 1.218190 2.145797
-0.736763 1.151222 2.577732
-0.746693 1.178211 2.936713
-0.713413 1.086624 2.970568
-0.688646 1.018208 3.272234
-0.735293 1.146220 3.621014
-0.903348 1.607890 4.349483
-0.849455 1.459333 4.664711
-0.783086 1.276695 4.718359
-0.801563 1.327200 5.074583
-0.614427 0.811014 6.544279
-0.640237 0.881689 6.906190
-0.557155 0.652852 7.198019
-0.646497 0.898022 7.875320
-0.792596 1.299901 7.937561
-0.818036 1.369622 8.227221
-0.844419 1.441941 8.516159
-0.845263 1.443913 8.897390
-0.827864 1.395875 9.081867
-0.863830 1.494496 9.436297
-0.768373 1.231780 9.548336
-0.723097 1.106687 10.128712
-0.629990 1.254128 1.458871
-0.658756 1.365888 1.811262
-0.636037 1.277063 1.974010
-0.641500 1.297922 2.331013
-0.623247 1.226261 2.695523
-0.630812 1.255320 3.053091
-0.580410 1.058751 3.029165
-0.647191 1.318388 3.700708
-0.752284 1.728092 3.877340
-0.777672 1.827107 3.889993
-0.761949 1.765400 4.187916
-0.729398 1.637786 4.698135
-0.670191 1.406306 5.122135
-0.538231 0.889638 6.658703
-0.564725 0.992355 7.154300
-0.504927 0.758734 7.447818
-0.530442 0.857714 7.878118
-0.636658 1.271942 7.940895
-0.650877 1.327125 8.164963
-0.678853 1.435712 8.587032
-0.694252 1.495498 8.809838
-0.705333 1.538522 8.966351
-0.688538 1.472407 9.443088
-0.652976 1.333424 9.658489
-0.615237 1.185567 10.172459
-0.512015 1.311072 1.563800
-0.529960 1.422860 1.850075
-0.516205 1.336278 2.079892
-0.518461 1.349958 2.304558
-0.508576 1.287073 2.802622
-0.508914 1.289135 2.828093
-0.480631 1.111563 3.070996
-0.536594 1.460917 3.599210
-0.621872 1.994241 3.920247
-0.616171 1.957563 4.413077
-0.584047 1.756447 4.399893
-0.576468 1.707006 5.398102
-0.459746 0.973283 6.841600
-0.449808 0.910698 7.022940
-0.434435 0.813494 7.497459
-0.445583 0.882707 7.793331
-0.497735 1.209079 7.881826
-0.522018 1.360724 8.082542
-0.521621 1.357481 8.465157
-0.534223 1.435806 8.755717
-0.535163 1.440930 9.139444
-0.530534 1.411441 9.391771
-0.507934 1.269508 9.607808
-0.488866 1.149548 9.892446
-0.458631 0.959464 10.277209
-0.403159 1.659477 1.694980
-0.391223 1.467630 1.860683
-0.386095 1.384071 2.155657
-0.387365 1.402941 2.445374
-0.389526 1.435393 2.867537
-0.384212 1.349524 3.033091
-0.372749 1.165192 3.209001
-0.429308 2.065878 4.091761
-0.430044 2.077222 4.180261
-0.433102 2.124401 4.528086
-0.420382 1.920917 4.514643
-0.405854 1.686090 4.975252
-0.410918 1.764697 5.458831
-0.418047 1.878425 5.531060
-0.355431 0.870733 6.648245
-0.355151 0.863974 7.098808
-0.349214 0.766578 7.573534
-0.355821 0.870142 8.004052
-0.373284 1.150197 7.889121
-0.395559 1.503781 8.462281
-0.392247 1.449860 8.644969
-0.395000 1.493131 8.801484
-0.391815 1.441232 8.985215
-0.389928 1.409776 9.236092
-0.387372 1.366115 9.782935
-0.378618 1.224936 10.000220
-0.369594 1.077899 10.518618
-0.246298 1.681011 1.484127
-0.252087 1.500550 1.913722
-0.255354 1.395214 1.810477
-0.251725 1.514588 2.160996
-0.254470 1.429253 2.390661
-0.234817 2.071568 3.885727
-0.234039 2.098600 4.104443
-0.232695 2.145007 4.452641
-0.235436 2.058526 4.555340
-0.240467 1.907617 5.521361
-0.269363 0.996269 6.619257
-0.273667 0.862254 6.954915
-0.274796 0.829378 7.271816
-0.274864 0.831764 7.725396
-0.272194 0.920635 8.088188
-0.262875 1.217622 8.039622
-0.259017 1.345693 8.531086
-0.256050 1.443958 8.887802
-0.256554 1.431052 9.205239
-0.259352 1.342266 9.257737
-0.257881 1.394436 9.776704
-0.261734 1.274279 10.060969
-0.267827 1.083678 10.445736
-0.133464 1.299408 1.469141
-0.119896 1.404832 1.623010
-0.104982 1.521164 1.974516
-0.115116 1.443588 2.336719
-0.114913 1.445223 2.361357
-0.018166 2.198300 3.999781
-0.027363 2.127664 4.230961
-0.025872 2.139421 4.319913
-0.073630 1.771878 5.225281
-0.081599 1.710758 5.463362
-0.065563 1.835257 5.601988
-0.071617 1.789132 5.906470
-0.173245 1.005063 7.042939
-0.174411 0.995934 7.000570
-0.197723 0.816818 7.564533
-0.186680 0.903211 7.928044
-0.154623 1.151853 8.106500
-0.140501 1.262234 8.532828
-0.137363 1.286757 8.624372
-0.124731 1.385433 8.982258
-0.121333 1.412855 9.433909
-0.130118 1.345127 9.553961
-0.130977 1.339260 9.874578
-0.125889 1.379772 10.329312
-0.167885 1.055316 10.613708
0.073875 1.696071 1.450179
0.032119 1.510077 1.681094
0.013347 1.426734 1.976086
0.039776 1.545172 2.326209
0.022379 1.467965 2.622950
0.154766 2.060297 3.724230
0.182071 2.182436 3.931244
0.168138 2.120690 4.227159
0.156856 2.070863 4.589622
0.098960 1.812897 4.853432
0.070106 1.684785 5.303401
0.128838 1.947417 5.687188
0.137590 1.986785 5.907100
0.052588 1.607623 6.005205
0.000297 1.374782 6.351845
-0.051147 1.145733 6.703550
-0.101725 0.920548 7.060275
-0.140029 0.749821 7.196044
-0.161169 0.656174 7.674179
-0.095829 0.948292 8.059182
-0.037121 1.210615 8.303519
-0.012319 1.321899 8.729125
-0.006813 1.346602 8.820508
0.002837 1.390407 9.338845
0.013087 1.436372 9.496458
0.007069 1.409880 9.749700
0.015456 1.447958 10.203234
-0.030797 1.242019 10.521601
0.141987 1.391132 1.310286
0.175619 1.493861 1.530968
0.213935 1.611134 2.014172
0.183244 1.517619 2.044874
0.187413 1.530550 2.268559
0.167227 1.469524 2.764695
0.202335 1.576683 2.913890
0.152359 1.424802 3.355017
0.151095 1.420909 3.313756
0.420603 2.242912 3.865948
0.442225 2.309357 4.406182
0.365234 2.075086 4.796964
0.286568 1.835652 5.128617
0.222971 1.641802 5.119350
0.309582 1.906242 5.570616
0.325579 1.955285 5.856416
0.212117 1.609692 6.086442
0.129747 1.358849 6.301138
0.078338 1.202849 6.988060
0.019128 1.022451 7.056095
-0.056423 0.792471 7.349657
-0.105710 0.642453 7.556169
-0.018069 0.909900 7.875233
0.070558 1.180345 8.188696
0.088847 1.236318 8.414835
0.119033 1.328685 8.773915
0.120579 1.333785 9.159647
0.189579 1.544491 9.554706
0.168286 1.479711 9.673512
0.143506 1.404600 10.088788
0.090884 1.244664 10.538835
0.310245 1.464771 1.341198
0.356775 1.572272 1.759395
0.318765 1.484802 1.855767
0.292126 1.423887 2.417630
0.294682 1.429848 2.509414
0.299346 1.440715 2.667526
0.654466 2.260022 4.417502
0.619991 2.180699 4.520598
0.466682 1.828668 5.886660
0.355972 1.573792 6.032546
0.310649 1.469765 6.493024
0.245558 1.320001 6.691483
0.065501 0.905869 7.433292
-0.016622 0.717060 7.867084
0.103478 0.993983 8.250757
0.144660 1.088835 8.251333
0.211724 1.243797 8.879710
0.260344 1.355832 8.944573
0.286918 1.417500 9.529663
0.297988 1.443069 9.621180
0.304266 1.457833 10.007749
0.210758 1.242658 10.257997
0.451032 1.428189 1.354662
0.507839 1.530801 1.772034
0.463189 1.450466 1.933901
0.469310 1.461636 2.157117
0.434652 1.399476 2.586145
0.448490 1.424637 2.942384
0.858203 2.163595 4.229772
0.837869 2.127237 4.654513
0.762628 1.991888 4.967346
0.774462 2.013307 5.121115
0.438941 1.409646 6.361971
0.413333 1.363669 6.605648
0.005684 0.630092 7.889548
0.152162 0.894229 8.274053
0.300876 1.162392 8.651635
0.368739 1.284737 8.783547
0.408532 1.356616 9.074467
0.412780 1.364519 9.459608
0.455701 1.442030 9.749628
0.443270 1.419799 10.001792
0.525801 1.297998 1.373672
0.587069 1.387701 1.595940
0.644114 1.471116 1.618553
0.593618 1.397416 1.848522
0.609728 1.421242 2.338875
0.574046 1.369349 2.836972
0.569224 1.362241 2.731272
0.869868 1.802520 4.020364
1.039788 2.050948 4.009630
1.065467 2.088688 4.358130
0.944960 1.912839 4.971400
0.970844 1.950841 5.256033
0.847193 1.770328 5.748375
0.773496 1.662795 6.137817
0.555435 1.344315 6.750409
0.140321 0.738096 8.019608
0.331857 1.018423 8.537151
0.380283 1.089188 8.470517
0.532361 1.311870 9.070832
0.547415 1.333931 9.163223
0.607264 1.421634 9.520589
0.615650 1.434109 9.906850
0.560902 1.354260 10.258980
0.589679 1.171060 1.595257
0.720374 1.327395 1.677729
0.675446 1.273941 2.238414
0.673780 1.271929 2.196648
0.686117 1.286824 2.486859
0.703706 1.308032 2.843189
1.230326 1.938365 3.980396
1.288236 2.007945 4.648538
1.233176 1.942150 4.751553
1.178342 1.876626 4.855119
1.130268 1.819218 5.024106
1.203350 1.906944 5.695501
1.095308 1.777832 5.885401
0.996117 1.659337 6.142514
0.852696 1.488023 6.553694
0.703589 1.309880 6.904609
0.213471 0.724312 8.036337
0.481640 1.045216 8.459516
0.559301 1.138123 8.525523
0.598520 1.185133 8.750481
0.713105 1.322469 9.373392
0.705159 1.312947 9.331703
0.739383 1.354127 9.849214
0.615476 1.206136 10.230757
0.829626 1.244647 1.296144
0.837237 1.252332 1.587398
0.786443 1.202152 2.149430
0.790486 1.206207 2.242046
0.801163 1.216907 2.467413
0.820566 1.236329 2.825316
0.826068 1.241832 2.917782
1.203566 1.617154 4.136162
1.417060 1.829107 4.123505
1.373586 1.786077 4.420420
1.409263 1.821651 4.768687
1.370402 1.783202 5.067788
1.341551 1.754720 5.433068
1.324260 1.737744 5.863471
1.232255 1.646333 5.711188
1.166464 1.581273 6.294243
0.961195 1.377518 6.377775
0.825057 1.242602 6.926623
0.352548 0.773982 8.035835
0.555579 0.975691 8.348915
0.679428 1.098768 8.616029
0.736587 1.155645 8.907654
0.851505 1.269982 9.463702
0.774701 1.193725 9.451043
0.701949 1.121650 9.800639
0.647245 1.067526 10.219884
0.941253 1.152941 1.024224
0.962019 1.170181 1.778140
1.045574 1.238378 1.930119
0.974981 1.180878 2.092722
0.922826 1.138548 2.588219
0.936399 1.149708 2.812104
0.874058 1.098965 3.044780
1.622759 1.710071 4.450702
1.555743 1.655464 4.553391
1.534949 1.638706 5.044815
1.453430 1.572221 5.020052
1.523807 1.629830 5.562441
1.392673 1.522972 5.751838
1.311354 1.456869 6.269772
1.173357 1.344390 6.399122
0.474391 0.775173 8.281184
0.704588 0.962870 8.231604
0.866917 1.095405 8.631415
0.958768 1.170477 9.054594
0.875052 1.102204 9.040709
0.928345 1.145899 9.625326
0.770257 1.016992 9.642160
1.043194 1.062544 1.053232
1.048375 1.066118 1.277759
0.976580 1.017910 1.639111
1.062864 1.076045 1.726643
0.992365 1.028684 2.022801
1.026581 1.051961 2.646016
1.046200 1.065281 2.936946
0.985557 1.024560 3.237188
1.697224 1.504266 4.526148
1.700177 1.506264 4.551121
1.686614 1.497342 5.107920
1.643993 1.468756 5.408041
1.613706 1.448500 5.774395
1.515958 1.382645 5.685269
1.406682 1.309208 6.070804
1.198196 1.168923 6.348435
0.998130 1.034671 7.583916
0.895474 0.965673 7.920908
0.980798 1.023128 7.920126
1.041784 1.064303 8.209001
1.024956 1.053091 8.523225
1.026287 1.054132 8.904907
0.983440 1.025349 9.088486
1.007260 1.041559 9.538741
0.871289 0.950055 9.687019
1.154348 0.963609 1.519060
1.250626 1.015725 1.735666
1.169482 0.971924 1.895353
1.180296 0.977848 2.116516
1.108700 0.939255 2.410628
1.127323 0.949423 2.698623
1.060708 0.913524 2.995167
1.289165 1.037219 3.594104
1.643187 1.228860 4.410282
1.748996 1.286099 4.548336
1.698424 1.258870 4.844392
1.728128 1.275002 5.061092
1.701657 1.260848 5.488875
1.638620 1.226837 5.658329
1.576426 1.193281 5.828648
1.450776 1.125482 6.149593
1.278057 1.032320 6.691753
1.135048 0.955094 6.888289
1.006169 0.885529 7.153302
1.050691 0.909673 7.375672
1.025155 0.895982 7.687544
1.117380 0.945980 8.108985
1.098453 0.935862 8.422364
1.183317 0.981857 8.776405
1.035835 0.902194 8.919355
1.160425 0.969709 9.406782
1.189634 0.985657 9.855936
1.046583 0.908391 10.005137
1.136560 0.808352 1.188699
1.231036 0.848589 1.276205
1.245972 0.855090 1.697916
1.259327 0.860872 1.986933
1.195820 0.834013 2.481414
1.193081 0.832833 2.439152
1.233354 0.850162 2.993912
1.160578 0.819269 3.226286
1.376787 0.911398 3.561134
1.399433 0.921112 3.782830
1.666966 1.035209 4.484822
1.823027 1.101785 4.949351
1.884826 1.128226 5.361770
1.797813 1.091209 5.402135
1.786059 1.086375 5.898091
1.609196 1.011126 5.958198
1.479235 0.955927 6.281627
1.300972 0.880247 6.827120
1.165928 0.822865 7.092266
1.170770 0.824934 7.115882
1.231472 0.850866 7.404906
1.220212 0.846203 7.783273
1.182053 0.830047 8.030157
1.177951 0.828431 8.410949
1.212519 0.843318 8.925638
1.236846 0.853825 9.374945
1.189230 0.833501 9.199534
1.148167 0.816211 9.745805
1.037020 0.769006 10.029165
0.733081 0.639749 10.309278
1.297139 0.730509 1.038469
1.307264 0.733881 1.397124
1.315537 0.736612 1.618718
1.342890 0.745583 2.171339
1.356538 0.750042 2.392639
1.267492 0.721461 2.488674
1.304337 0.733461 2.975788
1.234865 0.711237 3.273269
1.276597 0.724785 3.694488
1.373633 0.755968 3.706172
1.351023 0.748911 4.336452
1.182337 0.694769 4.518812
1.468264 0.786636 4.500512
1.723939 0.868939 4.953361
1.787761 0.889583 5.367308
1.845751 0.908331 5.715254
1.790443 0.890637 5.951148
1.655785 0.847475 6.272931
1.511417 0.801172 6.532101
1.316425 0.738517 6.529004
1.350122 0.749555 7.168813
1.413239 0.769931 7.455974
1.386492 0.761439 7.766380
1.330800 0.743603 7.945581
1.308815 0.736642 8.258200
1.433656 0.776916 8.743869
1.383475 0.760852 8.925760
1.242868 0.715741 9.136240
1.304892 0.735744 9.358116
1.284883 0.729516 9.970187
1.110343 0.673461 10.053670
0.858882 0.592821 10.535393
1.472601 0.622749 1.439234
1.289115 0.583334 1.737262
1.384895 0.603944 1.690929
1.399065 0.607088 1.980466
1.322628 0.590745 2.342684
1.358339 0.598592 2.831792
1.365829 0.600234 2.922702
1.300434 0.586270 3.288322
1.358467 0.598944 3.843993
1.481659 0.625540 4.055176
1.492727 0.627952 4.145704
1.441795 0.617103 4.513722
1.472778 0.623846 4.736527
1.642595 0.660564 5.206810
1.646476 0.661408 5.231181
1.704802 0.674080 5.583556
1.671076 0.666937 5.953638
1.399600 0.608526 6.099752
1.439421 0.617328 6.805422
1.403417 0.609519 6.630945
1.491979 0.628724 7.051650
1.460785 0.622107 7.362044
1.337694 0.595709 7.697244
1.440733 0.618032 8.118779
1.403011 0.609989 8.366623
1.439190 0.617944 8.880303
1.370226 0.603132 8.997904
1.301684 0.588410 9.115999
1.291272 0.586270 9.434169
1.251922 0.577973 9.982783
1.086019 0.542394 10.433026
1.527090 0.484337 1.523352
1.528176 0.484476 1.550443
1.448936 0.475096 1.975551
1.453944 0.475725 2.065307
1.372755 0.466070 2.360320
1.393416 0.468642 2.649385
1.428456 0.472983 3.070803
1.357027 0.464500 3.369289
1.401980 0.470032 3.791145
1.559701 0.489120 4.265581
1.580255 0.491637 4.420941
1.485053 0.480217 4.457921
1.446804 0.475762 4.892799
1.523620 0.485140 5.379325
1.659040 0.501464 5.583624
1.663105 0.501960 5.606999
1.568930 0.490838 6.193663
1.417823 0.472776 6.454445
1.477107 0.479986 6.742893
1.607323 0.495664 6.877406
1.558960 0.489933 7.120226
1.497327 0.482589 7.298010
1.483902 0.481096 7.675205
1.475135 0.480163 8.053665
1.418940 0.473473 8.234639
1.508785 0.484486 8.946415
1.401240 0.471568 8.931079
1.408048 0.472507 9.314090
1.359306 0.466712 9.499053
1.299345 0.459665 9.980703
1.065580 0.431675 10.229431
1.552330 0.335290 1.092102
1.463680 0.333318 1.452269
1.493382 0.334212 2.074618
1.487402 0.334038 1.968308
1.522780 0.335044 2.523920
1.451265 0.333477 2.889034
1.447891 0.333385 2.848888
1.380298 0.331910 3.215902
1.423734 0.333065 3.640573
1.580532 0.336904 4.118369
1.567395 0.336561 4.012351
1.522864 0.335651 4.447844
1.603631 0.337725 5.002391
1.639171 0.338631 5.226199
1.665238 0.339294 5.383914
1.605136 0.337955 5.624554
1.436536 0.334050 5.818069
1.555223 0.337037 6.437734
1.742730 0.341422 6.356034
1.760247 0.342013 6.925400
1.599607 0.338296 7.124092
1.681277 0.340328 7.477226
1.637477 0.339375 7.721903
1.629322 0.339302 8.099507
1.643758 0.339781 8.544214
1.590192 0.338578 8.726339
1.537704 0.337401 8.909232
1.524882 0.337198 9.225257
1.439960 0.335330 9.637763
1.455793 0.335824 10.023029
1.584176 0.182780 1.318462
1.587292 0.182579 1.408527
1.593326 0.182183 1.564633
1.517707 0.187913 2.056513
1.544762 0.186051 2.477666
1.447012 0.193267 2.508896
1.492017 0.190124 3.063555
1.500309 0.189541 3.153886
1.542558 0.186559 3.575176
1.567243 0.184809 3.797598
1.478671 0.191371 3.899421
1.522595 0.188245 4.254747
1.580083 0.184139 4.675621
1.643391 0.179604 5.095655
1.647181 0.179332 5.119607
1.618366 0.181593 5.555739
1.473308 0.192390 5.879469
1.502333 0.190299 6.036106
1.740759 0.172779 6.220278
1.700521 0.175842 6.526959
1.677654 0.177646 6.900821
1.802533 0.168612 7.450531
1.711170 0.175363 7.497530
1.667711 0.178644 7.742494
1.694171 0.176854 8.252092
1.507603 0.190632 8.327044
1.658461 0.179684 8.879628
1.664866 0.179332 9.260909
1.480750 0.192931 9.341803
1.452248 0.195112 9.593708
1.277498 0.208136 10.039854
1.086974 0.222303 10.424227
1.595009 0.037227 1.341431
1.598218 0.036722 1.433041
1.532473 0.047892 2.124791
1.526365 0.048875 2.017973
1.468748 0.058672 2.646794
1.492161 0.054865 2.937722
1.500133 0.053566 3.029641
1.547221 0.045879 3.518832
1.466058 0.059451 3.687749
1.605164 0.036392 4.032733
1.650356 0.028978 4.388229
1.547229 0.046146 4.361009
1.625308 0.033318 4.915270
1.629150 0.032686 4.940791
1.674211 0.025273 5.230060
1.453037 0.062261 5.701164
1.517290 0.051672 6.056807
1.792155 0.006013 6.437839
1.823704 0.000808 6.592861
1.759591 0.011542 6.768674
1.725313 0.017349 7.076945
1.628934 0.033550 7.541328
1.730802 0.016717 7.960544
1.624705 0.034382 7.943115
1.619465 0.035375 8.322154
1.732026 0.016761 8.741428
1.585574 0.041221 8.951578
1.535191 0.049671 9.135565
1.524946 0.051478 9.452838
1.506601 0.054729 10.066265
1.296927 0.089752 10.382671
1.592729 -0.111631 1.376528
1.504488 -0.088252 1.603188
1.511330 -0.090009 1.760026
1.529745 -0.094757 2.115481
1.566476 -0.104278 2.669108
1.493208 -0.084831 2.966466
1.478947 -0.081121 2.791898
1.509046 -0.088955 3.147675
1.549973 -0.099627 3.569232
1.559499 -0.102114 3.659672
1.519400 -0.091361 4.159044
1.564973 -0.103282 4.514239
1.614564 -0.116265 4.868858
1.657876 -0.127610 5.156947
1.693081 -0.136836 5.378770
1.528242 -0.093238 5.568676
1.448318 -0.072095 5.676529
1.630425 -0.120039 6.145989
1.767452 -0.156163 6.348338
1.865023 -0.181776 6.831344
1.803594 -0.165495 7.007923
1.832649 -0.172983 7.579085
1.807165 -0.166152 7.889341
1.719311 -0.142933 7.937934
1.731157 -0.145917 8.381873
1.731428 -0.145865 8.761207
1.702509 -0.138263 8.653793
1.650392 -0.124323 9.193966
1.660521 -0.126873 9.576547
1.595020 -0.109535 9.696218
1.448054 -0.070553 10.208681
1.380015 -0.192661 1.140892
1.672258 -0.300801 1.487728
1.593548 -0.271524 1.847600
1.497998 -0.236141 1.812297
1.505732 -0.238953 1.970636
1.521952 -0.244864 2.261320
1.466755 -0.224229 2.824539
1.484976 -0.230903 3.049317
1.523555 -0.245052 3.472560
1.532682 -0.248403 3.564580
1.577993 -0.265046 3.987065
1.612322 -0.277665 4.276921
1.530798 -0.247431 4.381946
1.559820 -0.258107 4.606177
1.638319 -0.287000 5.160037
1.652247 -0.292129 5.251679
1.442636 -0.214323 5.724759
1.458171 -0.220047 5.817032
1.753762 -0.329349 6.399122
1.745906 -0.326453 6.357573
1.722528 -0.317668 6.730427
1.675949 -0.300332 6.973098
1.659723 -0.294196 7.348644
1.602973 -0.273114 7.527665
1.577743 -0.263663 7.839685
1.711353 -0.312972 8.391119
1.677389 -0.300308 8.638880
1.698568 -0.308004 9.085126
1.615153 -0.277087 9.137287
1.586904 -0.266538 9.387900
1.677527 -0.299892 10.035210
1.397092 -0.195992 10.085152
1.639074 -0.457066 1.551504
1.547570 -0.413048 1.515353
1.466347 -0.373885 1.743982
1.498576 -0.389177 2.365758
1.508528 -0.393911 2.522628
1.434116 -0.358024 2.753554
1.445877 -0.363629 2.910790
1.481107 -0.380434 3.332922
1.521620 -0.399781 3.754472
1.538045 -0.407630 3.911192
1.547876 -0.412329 4.001772
1.507473 -0.392737 4.435699
1.535559 -0.406174 4.658585
1.574175 -0.424655 4.947236
1.536116 -0.406212 5.317642
1.424101 -0.352153 5.773494
1.461056 -0.369857 5.997025
1.664903 -0.467904 6.116263
1.752562 -0.509915 6.600287
1.794986 -0.530253 6.821117
1.676425 -0.473088 7.151182
1.634778 -0.452963 7.395463
1.654001 -0.462181 7.485708
1.720096 -0.493739 8.191528
1.702115 -0.484978 8.504322
1.670390 -0.469626 8.752474
1.640491 -0.455152 9.001587
1.612429 -0.441562 9.251643
1.568207 -0.420219 9.436642
1.580496 -0.425998 9.820517
1.146508 -0.345812 1.092962
1.412523 -0.506966 1.441137
1.413308 -0.507433 1.465472
1.416376 -0.509260 1.556077
1.430654 -0.517786 1.911652
1.444897 -0.526316 2.200817
1.380352 -0.487049 2.563335
1.395221 -0.495982 2.786717
1.411493 -0.505766 3.009965
1.446095 -0.526589 3.431710
1.479150 -0.546500 3.786753
1.403215 -0.500424 3.888802
1.455784 -0.532117 4.376776
1.515054 -0.567873 4.863701
1.535517 -0.580222 5.019913
1.565814 -0.598509 5.241899
1.428926 -0.515422 5.497279
1.419552 -0.509553 6.002979
1.496922 -0.556483 5.942766
1.696209 -0.677065 6.605665
1.605082 -0.621824 6.584535
1.549518 -0.588071 6.761048
1.680923 -0.667490 7.442845
1.602582 -0.619976 7.489820
1.662209 -0.656022 7.776571
1.626924 -0.634539 8.021927
1.684646 -0.669300 8.662508
1.655539 -0.651562 8.910329
1.628163 -0.634872 9.159099
1.636729 -0.639926 9.540304
1.596149 -0.615255 9.725251
1.493058 -0.552648 10.007306
1.188426 -0.507850 0.996571
1.359213 -0.634062 1.415765
1.362031 -0.636110 1.507929
1.383797 -0.652000 2.063755
1.405860 -0.668160 2.486711
1.323366 -0.607131 2.453412
1.341018 -0.620079 2.744745
1.360912 -0.634686 3.035855
1.410934 -0.671457 3.657088
1.407329 -0.668806 3.616264
1.360449 -0.633973 3.984093
1.418593 -0.676780 4.539035
1.414034 -0.673423 4.498223
1.463314 -0.709723 4.919910
1.482921 -0.724170 5.077108
1.371127 -0.641296 5.465193
1.352181 -0.627104 5.905629
1.454886 -0.703048 6.044926
1.558093 -0.779363 6.183047
1.592769 -0.804747 6.885402
1.585670 -0.799510 6.844879
1.558643 -0.779390 7.154521
1.521674 -0.751938 7.399578
1.538705 -0.764342 7.909152
1.626153 -0.828886 8.328360
1.611449 -0.817883 8.642011
1.569256 -0.786590 8.825399
1.497650 -0.733585 8.877826
1.550792 -0.772681 9.457878
1.562209 -0.780979 9.841380
1.466517 -0.710060 10.125186
1.131743 -0.622885 0.970499
1.292590 -0.768470 1.521390
1.299835 -0.774943 1.745017
1.319911 -0.792936 2.233397
1.327615 -0.799854 2.390572
1.273430 -0.750578 2.754072
1.274922 -0.751920 2.778944
1.317117 -0.789909 3.400163
1.314011 -0.787111 3.358786
1.336629 -0.807493 3.648304
1.299728 -0.773856 4.081936
1.320941 -0.792992 4.305428
1.364333 -0.832152 4.726979
1.412065 -0.875245 5.147677
1.334025 -0.804507 5.122135
1.231361 -0.711272 5.510994
1.278140 -0.753528 5.867813
1.372603 -0.839106 6.006753
1.496319 -0.951121 6.341669
1.447227 -0.906541 6.517704
1.492176 -0.947168 6.805370
1.534839 -0.985547 7.508422
1.527583 -0.978986 7.467440
1.495316 -0.949631 7.712450
1.540653 -0.990460 8.352429
1.473734 -0.929773 8.401649
1.433404 -0.893135 8.582811
1.463566 -0.920262 9.094119
1.485164 -0.939652 9.540561
1.419662 -0.880249 9.593281
1.313916 -0.784292 9.808099
1.251584 -0.727482 10.520921
1.073977 -0.724591 1.129005
1.209927 -0.872100 1.148539
1.289511 -0.958231 1.632999
1.224612 -0.887766 1.728454
1.245692 -0.910382 2.283037
1.259433 -0.925159 2.572494
1.193123 -0.853191 2.604807
1.225059 -0.887587 3.160097
1.222438 -0.884763 3.118688
1.246225 -0.910409 3.474628
1.267674 -0.933549 3.764027
1.252774 -0.917087 4.396419
1.249010 -0.913023 4.355064
1.276154 -0.942342 4.644387
1.340613 -1.011999 5.263003
1.276506 -0.942419 5.303961
1.101672 -0.752582 5.577807
1.195246 -0.854022 5.784898
1.408398 -1.085041 6.366294
1.429961 -1.108366 6.522160
1.461543 -1.142534 6.743367
1.438003 -1.116847 7.051472
1.459113 -1.139489 7.623100
1.496188 -1.179617 7.843963
1.434669 -1.112840 7.892927
1.430873 -1.108547 8.270470
1.405802 -1.081227 8.517919
1.432925 -1.110421 9.029014
1.425393 -1.102103 9.344309
1.355380 -1.025972 9.690282
1.268176 -0.931384 9.612575
1.228906 -0.888549 10.094474
1.006007 -0.646553 10.376283
0.996049 -0.823139 0.985881
1.125552 -0.994333 1.471168
1.133140 -1.004227 1.761838
1.142404 -1.016340 2.052375
1.153344 -1.030671 2.342753
1.115484 -0.980290 2.839563
1.116781 -0.981994 2.865206
1.144064 -1.017859 3.354648
1.153896 -1.030792 3.512628
1.177906 -1.062393 3.868858
1.124657 -0.991845 3.972443
1.173809 -1.056592 4.593783
1.164816 -1.044742 4.487115
1.226674 -1.126278 5.172911
1.169662 -1.050778 5.214361
1.041755 -0.881165 5.754755
1.066545 -0.913865 5.980098
1.187927 -1.074566 5.969086
1.296381 -1.217937 6.370654
1.340625 -1.276326 6.723923
1.319685 -1.248443 7.032773
1.319348 -1.247768 7.474101
1.342105 -1.277814 7.630520
1.306875 -1.231079 7.810926
1.282206 -1.198292 8.056329
1.301513 -1.223587 8.565624
1.303108 -1.225501 8.944693
1.260803 -1.169434 9.061999
1.254174 -1.160494 9.377440
1.261918 -1.170546 9.759694
1.234136 -1.133670 9.945428
1.105438 -0.963126 10.260016
0.813376 -0.745212 1.178414
0.975198 -1.006147 1.395232
1.029665 -1.093965 1.483594
1.043769 -1.116387 2.039184
1.044549 -1.117630 2.064790
1.056590 -1.136842 2.421328
1.018327 -1.074898 2.785680
1.031602 -1.096141 3.076498
1.046343 -1.119748 3.367062
1.054963 -1.133561 3.524777
1.076027 -1.167330 3.880733
1.042544 -1.113133 4.182844
1.053399 -1.130551 4.340588
1.100338 -1.205908 4.960639
1.118900 -1.235720 5.183724
1.074753 -1.164435 5.291053
0.957350 -0.974748 5.765158
1.044028 -1.114383 6.104409
1.150066 -1.285458 6.092112
1.179978 -1.333543 6.380144
1.241224 -1.432023 6.929484
1.200429 -1.366141 7.041738
1.167765 -1.313339 7.220245
1.203359 -1.370591 7.507910
1.197971 -1.361675 7.884730
1.213530 -1.386471 8.393899
1.166240 -1.310149 8.445040
1.167044 -1.311220 8.825399
1.170373 -1.316363 9.206845
1.165600 -1.308474 9.523619
1.101381 -1.204704 9.805568
1.049790 -1.121263 10.156040
0.926941 -0.922924 10.407690
0.735374 -0.823446 1.209899
0.873982 -1.106494 1.625088
0.962263 -1.286948 1.641255
0.921620 -1.203750 1.802982
0.932131 -1.224935 2.225123
0.934736 -1.230195 2.316127
0.911918 -1.183102 2.944714
0.920856 -1.201212 3.168379
0.921894 -1.203316 3.193221
0.940901 -1.241869 3.615231
0.955436 -1.271376 3.904481
0.967478 -1.295832 4.127395
0.948676 -1.257087 4.561762
0.967181 -1.294709 4.850806
0.968824 -1.298049 4.875563
0.921184 -1.200245 5.461052
0.910838 -1.178780 5.900967
0.961477 -1.282247 5.973731
1.040545 -1.443592 6.374502
1.048619 -1.460033 6.464755
1.093954 -1.552361 6.947877
1.059914 -1.482697 7.059667
1.066744 -1.496298 7.565774
1.033711 -1.428690 7.679607
1.037597 -1.436316 8.122794
1.028613 -1.417727 8.435798
1.079648 -1.521755 8.853970
1.074009 -1.510003 9.168289
1.061031 -1.483295 9.418093
1.057976 -1.476823 9.734412
0.977550 -1.312355 9.818970
0.728334 -1.070564 1.100591
0.804696 -1.270258 1.519319
0.807136 -1.276512 1.677988
0.818025 -1.304549 2.233914
0.817118 -1.302208 2.193836
0.788562 -1.227131 2.491785
0.806940 -1.274734 3.114806
0.817100 -1.301094 3.405852
0.823054 -1.316555 3.564322
0.843304 -1.369177 4.053112
0.838624 -1.357011 3.946034
0.861017 -1.415249 4.433046
0.840345 -1.360824 4.736011
0.867272 -1.430943 5.222853
0.845385 -1.373390 5.462138
0.758229 -1.144745 5.804164
0.817072 -1.298611 6.142945
0.898008 -1.510556 6.261608
0.918845 -1.564893 6.549061
0.940660 -1.621794 6.835946
0.963450 -1.681252 7.122234
0.912291 -1.546984 7.388512
0.914388 -1.552454 7.413375
0.910338 -1.541514 7.789904
0.914123 -1.551040 8.233312
0.913738 -1.549696 8.612282
0.901612 -1.517708 8.861073
0.904042 -1.523740 9.242255
0.886631 -1.477960 9.427304
0.891609 -1.490664 9.810563
0.841483 -1.359147 10.027952
0.724097 -1.051356 10.309139
0.647485 -1.232416 1.092562
0.729815 -1.532392 1.440149
0.707579 -1.450836 1.800146
0.711802 -1.465897 2.090221
0.692897 -1.396413 2.519269
0.694736 -1.403012 2.611504
0.677793 -1.340679 3.043104
0.688767 -1.380216 3.466613
0.687661 -1.376228 3.426538
0.702126 -1.428424 3.915580
0.718674 -1.488222 4.403684
0.719615 -1.491626 4.429698
0.741046 -1.569163 4.982445
