3.840000,145.390625,0.926113
3.907500,146.843750,0.926113
3.970000,147.968750,0.926113
3.005000,73.343750,1.058306
2.927500,74.812500,1.058306
2.875000,75.812500,1.058306
2.835000,77.234375,1.058306
2.800000,78.187500,1.058306
2.775000,79.640625,1.058306
2.725000,81.250000,1.058306
2.680000,83.593750,1.058306
2.677500,83.578125,1.058306
2.687500,85.421875,1.058306
2.680000,86.765625,1.058306
2.655000,88.000000,1.058306
2.637500,90.390625,1.058306
2.635000,91.125000,1.058306
2.632500,92.781250,1.058306
2.627500,93.593750,1.058306
2.627500,94.281250,1.058306
2.635000,95.968750,1.058306
2.637500,97.531250,1.058306
2.645000,98.375000,1.058306
2.660000,100.390625,1.058306
2.672500,102.015625,1.058306
2.685000,102.171875,1.058306
3.020000,109.859375,1.058306
3.057500,110.515625,1.058306
3.097500,112.031250,1.058306
3.140000,113.375000,1.058306
3.187500,114.781250,1.058306
3.247500,115.812500,1.058306
3.307500,117.140625,1.058306
3.365000,118.546875,1.058306
3.412500,119.562500,1.058306
3.457500,120.687500,1.058306
3.337500,123.250000,1.058306
3.372500,124.687500,1.058306
3.370000,126.218750,1.058306
3.370000,127.453125,1.058306
3.387500,128.671875,1.058306
3.405000,130.359375,1.058306
3.410000,131.359375,1.058306
3.405000,132.859375,1.058306
3.392500,134.265625,1.058306
3.392500,135.093750,1.058306
3.600000,140.328125,1.058306
3.657500,141.812500,1.058306
3.717500,142.765625,1.058306
3.767500,144.359375,1.058306
3.832500,145.390625,1.058306
3.895000,146.843750,1.058306
3.957500,147.781250,1.058306
2.962500,72.890625,1.208123
2.900000,73.859375,1.208123
2.847500,75.375000,1.208123
2.802500,77.062500,1.208123
2.770000,78.218750,1.208123
2.742500,79.937500,1.208123
2.640000,82.437500,1.208123
2.670000,83.984375,1.208123
2.682500,85.296875,1.208123
2.667500,86.859375,1.208123
2.645000,87.531250,1.208123
2.625000,89.671875,1.208123
2.625000,91.343750,1.208123
2.625000,92.000000,1.208123
2.617500,92.812500,1.208123
2.617500,94.343750,1.208123
2.622500,95.734375,1.208123
2.627500,96.703125,1.208123
2.630000,98.187500,1.208123
2.637500,99.781250,1.208123
2.652500,101.703125,1.208123
2.667500,102.093750,1.208123
2.690000,103.781250,1.208123
2.727500,104.734375,1.208123
3.015000,109.578125,1.208123
3.052500,110.531250,1.208123
3.095000,111.921875,1.208123
3.140000,113.031250,1.208123
3.187500,114.281250,1.208123
3.245000,115.687500,1.208123
3.307500,116.937500,1.208123
3.365000,118.421875,1.208123
3.412500,119.781250,1.208123
3.457500,120.937500,1.208123
3.342500,123.765625,1.208123
3.372500,124.593750,1.208123
3.372500,126.453125,1.208123
3.372500,127.390625,1.208123
3.387500,128.765625,1.208123
3.405000,129.828125,1.208123
3.410000,131.390625,1.208123
3.405000,132.781250,1.208123
3.390000,134.421875,1.208123
3.390000,135.187500,1.208123
3.437500,136.484375,1.208123
3.510000,137.875000,1.208123
3.565000,138.906250,1.208123
3.600000,140.046875,1.208123
3.655000,141.796875,1.208123
3.715000,142.578125,1.208123
3.767500,143.984375,1.208123
3.830000,145.187500,1.208123
3.897500,146.375000,1.208123
3.960000,147.921875,1.208123
2.952500,72.875000,1.347950
2.897500,73.968750,1.347950
2.840000,75.671875,1.347950
2.790000,77.046875,1.347950
2.747500,78.921875,1.347950
2.610000,81.218750,1.347950
2.630000,82.703125,1.347950
2.662500,83.625000,1.347950
2.677500,85.687500,1.347950
2.675000,86.468750,1.347950
2.645000,88.046875,1.347950
2.625000,88.671875,1.347950
2.632500,91.312500,1.347950
2.632500,91.421875,1.347950
2.620000,94.296875,1.347950
2.612500,94.640625,1.347950
2.615000,95.625000,1.347950
2.615000,97.625000,1.347950
2.620000,99.281250,1.347950
2.630000,100.203125,1.347950
2.642500,100.812500,1.347950
2.655000,102.890625,1.347950
2.670000,103.437500,1.347950
2.700000,104.781250,1.347950
3.012500,109.515625,1.347950
3.050000,110.593750,1.347950
3.095000,111.750000,1.347950
3.135000,113.031250,1.347950
3.190000,114.656250,1.347950
3.250000,115.984375,1.347950
3.310000,116.703125,1.347950
3.362500,118.078125,1.347950
3.410000,119.671875,1.347950
3.455000,120.531250,1.347950
3.335000,123.593750,1.347950
3.370000,125.062500,1.347950
3.372500,126.218750,1.347950
3.377500,127.671875,1.347950
3.395000,128.640625,1.347950
3.407500,129.875000,1.347950
3.410000,131.500000,1.347950
3.400000,132.765625,1.347950
3.385000,133.843750,1.347950
3.390000,135.250000,1.347950
3.442500,136.406250,1.347950
3.515000,137.734375,1.347950
3.565000,138.640625,1.347950
3.602500,140.062500,1.347950
3.652500,141.656250,1.347950
3.710000,142.687500,1.347950
3.760000,143.750000,1.347950
3.820000,145.250000,1.347950
3.890000,146.390625,1.347950
3.950000,147.812500,1.347950
3.992500,149.203125,1.347950
2.922500,72.796875,1.487226
2.870000,73.796875,1.487226
2.820000,75.687500,1.487226
2.770000,77.453125,1.487226
2.727500,77.796875,1.487226
2.587500,81.140625,1.487226
2.610000,82.031250,1.487226
2.642500,83.671875,1.487226
2.662500,85.281250,1.487226
2.655000,86.328125,1.487226
2.642500,88.546875,1.487226
2.632500,89.734375,1.487226
2.630000,90.156250,1.487226
2.627500,92.515625,1.487226
2.617500,93.515625,1.487226
2.605000,94.046875,1.487226
2.592500,95.421875,1.487226
2.590000,97.015625,1.487226
2.597500,98.062500,1.487226
2.605000,100.062500,1.487226
2.615000,100.843750,1.487226
2.630000,101.718750,1.487226
2.645000,104.078125,1.487226
3.042500,110.812500,1.487226
3.085000,112.062500,1.487226
3.130000,113.171875,1.487226
3.185000,114.468750,1.487226
3.247500,115.390625,1.487226
3.307500,116.875000,1.487226
3.360000,118.156250,1.487226
3.410000,119.156250,1.487226
3.460000,120.453125,1.487226
3.317500,123.656250,1.487226
3.362500,124.796875,1.487226
3.375000,125.906250,1.487226
3.380000,126.953125,1.487226
3.395000,128.234375,1.487226
3.407500,129.921875,1.487226
3.405000,131.093750,1.487226
3.395000,132.843750,1.487226
3.385000,134.062500,1.487226
3.387500,134.828125,1.487226
3.430000,136.656250,1.487226
3.505000,137.765625,1.487226
3.560000,138.968750,1.487226
3.597500,139.921875,1.487226
3.650000,141.500000,1.487226
3.702500,142.859375,1.487226
3.752500,143.859375,1.487226
3.817500,145.234375,1.487226
3.885000,146.453125,1.487226
3.942500,147.843750,1.487226
2.965000,70.843750,1.628304
2.905000,72.421875,1.628304
2.855000,73.593750,1.628304
2.812500,75.859375,1.628304
2.765000,77.437500,1.628304
2.720000,77.687500,1.628304
2.582500,81.781250,1.628304
2.597500,81.984375,1.628304
2.635000,83.875000,1.628304
2.660000,85.359375,1.628304
2.647500,86.343750,1.628304
2.635000,87.640625,1.628304
2.630000,89.875000,1.628304
2.620000,90.000000,1.628304
2.602500,92.375000,1.628304
2.600000,93.062500,1.628304
2.592500,94.140625,1.628304
2.582500,95.156250,1.628304
2.582500,98.156250,1.628304
2.587500,98.328125,1.628304
2.600000,99.187500,1.628304
2.607500,101.140625,1.628304
2.612500,102.953125,1.628304
2.622500,103.218750,1.628304
2.642500,104.890625,1.628304
2.677500,106.312500,1.628304
3.040000,110.562500,1.628304
3.082500,111.531250,1.628304
3.127500,112.656250,1.628304
3.180000,114.250000,1.628304
3.245000,115.234375,1.628304
3.305000,116.562500,1.628304
3.355000,117.875000,1.628304
3.407500,119.281250,1.628304
3.452500,120.531250,1.628304
3.422500,121.687500,1.628304
3.350000,123.468750,1.628304
3.357500,124.484375,1.628304
3.380000,125.843750,1.628304
3.377500,127.031250,1.628304
3.392500,128.171875,1.628304
3.407500,129.640625,1.628304
3.405000,131.296875,1.628304
3.397500,132.421875,1.628304
3.387500,133.750000,1.628304
3.387500,134.765625,1.628304
3.425000,136.046875,1.628304
3.492500,137.187500,1.628304
3.552500,138.687500,1.628304
3.592500,140.000000,1.628304
3.640000,141.015625,1.628304
3.695000,142.453125,1.628304
3.750000,143.781250,1.628304
3.812500,145.203125,1.628304
3.880000,146.062500,1.628304
3.942500,147.593750,1.628304
3.992500,148.796875,1.628304
2.905000,72.750000,1.767356
2.852500,73.578125,1.767356
2.810000,75.656250,1.767356
2.765000,76.218750,1.767356
2.717500,77.843750,1.767356
2.657500,79.656250,1.767356
2.597500,81.593750,1.767356
2.610000,85.203125,1.767356
2.632500,87.062500,1.767356
2.632500,87.046875,1.767356
2.635000,89.015625,1.767356
2.620000,89.937500,1.767356
2.612500,91.265625,1.767356
2.607500,93.359375,1.767356
2.590000,95.500000,1.767356
2.577500,95.750000,1.767356
2.577500,96.500000,1.767356
2.575000,98.703125,1.767356
2.577500,99.640625,1.767356
2.592500,101.843750,1.767356
2.610000,101.984375,1.767356
2.617500,104.328125,1.767356
2.630000,104.921875,1.767356
2.657500,105.406250,1.767356
3.035000,110.906250,1.767356
3.075000,111.625000,1.767356
3.122500,113.140625,1.767356
3.177500,114.484375,1.767356
3.237500,115.234375,1.767356
3.297500,116.890625,1.767356
3.350000,117.859375,1.767356
3.402500,119.062500,1.767356
3.450000,120.625000,1.767356
3.440000,121.718750,1.767356
3.347500,124.546875,1.767356
3.380000,125.703125,1.767356
3.377500,126.937500,1.767356
3.392500,128.359375,1.767356
3.407500,129.453125,1.767356
3.412500,130.828125,1.767356
3.405000,132.421875,1.767356
3.387500,133.906250,1.767356
3.387500,134.890625,1.767356
3.420000,136.328125,1.767356
3.487500,137.265625,1.767356
3.552500,138.390625,1.767356
3.587500,140.171875,1.767356
3.632500,141.031250,1.767356
3.690000,142.328125,1.767356
3.745000,143.375000,1.767356
3.807500,144.953125,1.767356
3.872500,146.156250,1.767356
3.935000,147.265625,1.767356
3.987500,148.812500,1.767356
2.905000,72.093750,1.906421
2.850000,74.187500,1.906421
2.810000,75.437500,1.906421
2.772500,76.890625,1.906421
2.717500,78.218750,1.906421
2.665000,78.921875,1.906421
2.607500,80.906250,1.906421
2.652500,86.640625,1.906421
2.642500,87.109375,1.906421
2.645000,88.765625,1.906421
2.630000,90.109375,1.906421
2.600000,91.609375,1.906421
2.585000,93.359375,1.906421
2.577500,94.796875,1.906421
2.572500,96.484375,1.906421
2.565000,96.406250,1.906421
2.555000,99.140625,1.906421
2.560000,99.546875,1.906421
2.575000,100.093750,1.906421
2.585000,102.000000,1.906421
2.595000,103.843750,1.906421
2.610000,104.406250,1.906421
2.980000,109.406250,1.906421
3.025000,110.453125,1.906421
3.067500,111.640625,1.906421
3.117500,112.828125,1.906421
3.170000,113.625000,1.906421
3.227500,115.375000,1.906421
3.287500,116.453125,1.906421
3.345000,117.296875,1.906421
3.402500,118.984375,1.906421
3.447500,119.843750,1.906421
3.470000,121.296875,1.906421
3.357500,124.078125,1.906421
3.387500,125.140625,1.906421
3.382500,126.859375,1.906421
3.392500,127.937500,1.906421
3.405000,129.375000,1.906421
3.410000,130.375000,1.906421
3.405000,132.218750,1.906421
3.392500,133.203125,1.906421
3.387500,134.781250,1.906421
3.410000,136.031250,1.906421
3.477500,137.156250,1.906421
3.545000,138.500000,1.906421
3.582500,139.468750,1.906421
3.620000,141.171875,1.906421
3.677500,142.046875,1.906421
3.737500,143.234375,1.906421
3.790000,144.609375,1.906421
3.860000,146.031250,1.906421
3.925000,147.296875,1.906421
3.982500,148.265625,1.906421
2.882500,72.609375,2.046758
2.835000,73.546875,2.046758
2.785000,75.062500,2.046758
2.752500,76.109375,2.046758
2.702500,77.828125,2.046758
2.647500,79.156250,2.046758
2.600000,80.296875,2.046758
2.665000,85.734375,2.046758
2.657500,86.984375,2.046758
2.637500,89.375000,2.046758
2.617500,89.937500,2.046758
2.597500,91.250000,2.046758
2.580000,93.593750,2.046758
2.575000,93.437500,2.046758
2.562500,95.046875,2.046758
2.545000,97.453125,2.046758
2.535000,97.765625,2.046758
2.545000,99.203125,2.046758
2.562500,100.265625,2.046758
2.572500,102.296875,2.046758
2.577500,102.625000,2.046758
2.587500,103.937500,2.046758
2.600000,106.281250,2.046758
2.622500,106.468750,2.046758
3.060000,110.859375,2.046758
3.115000,112.562500,2.046758
3.170000,113.515625,2.046758
3.225000,115.140625,2.046758
3.280000,116.046875,2.046758
3.335000,117.250000,2.046758
3.387500,118.953125,2.046758
3.422500,119.812500,2.046758
3.465000,121.078125,2.046758
3.382500,123.656250,2.046758
3.392500,125.046875,2.046758
3.377500,126.312500,2.046758
3.387500,128.000000,2.046758
3.400000,129.343750,2.046758
3.407500,130.687500,2.046758
3.407500,131.562500,2.046758
3.400000,133.171875,2.046758
3.390000,134.703125,2.046758
3.580000,139.406250,2.046758
3.617500,140.890625,2.046758
3.670000,141.937500,2.046758
3.727500,143.078125,2.046758
3.787500,144.468750,2.046758
3.852500,145.609375,2.046758
3.920000,146.968750,2.046758
3.982500,148.296875,2.046758
2.832500,73.859375,2.186080
2.782500,75.453125,2.186080
2.750000,76.296875,2.186080
2.700000,77.187500,2.186080
2.640000,78.625000,2.186080
2.587500,80.609375,2.186080
2.600000,83.859375,2.186080
2.662500,85.687500,2.186080
2.670000,87.062500,2.186080
2.640000,88.265625,2.186080
2.607500,89.765625,2.186080
2.587500,91.078125,2.186080
2.575000,92.984375,2.186080
2.572500,94.375000,2.186080
2.562500,95.062500,2.186080
2.540000,96.171875,2.186080
2.522500,97.937500,2.186080
2.532500,99.171875,2.186080
2.550000,100.218750,2.186080
2.557500,101.890625,2.186080
2.572500,102.562500,2.186080
2.577500,104.046875,2.186080
2.582500,105.265625,2.186080
2.600000,106.218750,2.186080
3.050000,110.781250,2.186080
3.100000,112.187500,2.186080
3.152500,113.281250,2.186080
3.212500,115.062500,2.186080
3.267500,116.046875,2.186080
3.317500,117.265625,2.186080
3.367500,118.625000,2.186080
3.410000,119.843750,2.186080
3.452500,120.921875,2.186080
3.372500,123.843750,2.186080
3.392500,124.953125,2.186080
3.370000,126.421875,2.186080
3.375000,127.671875,2.186080
3.392500,129.250000,2.186080
3.405000,130.437500,2.186080
3.410000,131.687500,2.186080
3.395000,132.937500,2.186080
3.382500,134.609375,2.186080
3.575000,139.359375,2.186080
3.610000,140.578125,2.186080
3.662500,141.640625,2.186080
3.722500,143.203125,2.186080
3.780000,144.187500,2.186080
3.842500,145.812500,2.186080
3.910000,146.843750,2.186080
3.970000,148.250000,2.186080
2.862500,72.890625,2.327317
2.810000,74.875000,2.327317
2.760000,75.750000,2.327317
2.710000,77.906250,2.327317
2.655000,78.765625,2.327317
2.635000,80.578125,2.327317
2.710000,87.578125,2.327317
2.652500,89.062500,2.327317
2.622500,89.812500,2.327317
2.597500,90.500000,2.327317
2.582500,91.671875,2.327317
2.580000,93.281250,2.327317
2.565000,94.593750,2.327317
2.537500,97.750000,2.327317
2.522500,98.000000,2.327317
2.537500,99.312500,2.327317
2.555000,100.906250,2.327317
2.560000,101.593750,2.327317
2.565000,102.281250,2.327317
2.565000,103.843750,2.327317
2.570000,105.953125,2.327317
3.000000,109.703125,2.327317
3.050000,110.953125,2.327317
3.095000,112.187500,2.327317
3.147500,113.359375,2.327317
3.207500,114.781250,2.327317
3.267500,116.140625,2.327317
3.320000,117.421875,2.327317
3.367500,118.625000,2.327317
3.412500,119.734375,2.327317
3.465000,120.531250,2.327317
3.355000,123.765625,2.327317
3.390000,124.828125,2.327317
3.385000,126.125000,2.327317
3.385000,127.578125,2.327317
3.395000,128.812500,2.327317
3.410000,129.937500,2.327317
3.415000,131.531250,2.327317
3.405000,132.781250,2.327317
3.390000,134.484375,2.327317
3.392500,135.515625,2.327317
3.447500,136.875000,2.327317
3.520000,137.906250,2.327317
3.565000,139.296875,2.327317
3.602500,140.296875,2.327317
3.657500,141.578125,2.327317
3.715000,142.593750,2.327317
3.765000,144.078125,2.327317
3.830000,145.453125,2.327317
3.895000,146.593750,2.327317
3.957500,147.765625,2.327317
2.875000,72.375000,2.468888
2.822500,74.593750,2.468888
2.772500,75.609375,2.468888
2.727500,77.343750,2.468888
2.665000,78.734375,2.468888
2.625000,79.718750,2.468888
2.602500,81.484375,2.468888
2.700000,86.906250,2.468888
2.667500,88.296875,2.468888
2.620000,89.437500,2.468888
2.595000,90.500000,2.468888
2.580000,92.015625,2.468888
2.577500,94.250000,2.468888
2.562500,94.359375,2.468888
2.535000,96.531250,2.468888
2.517500,97.281250,2.468888
2.522500,98.093750,2.468888
2.540000,99.718750,2.468888
2.547500,101.593750,2.468888
2.552500,102.437500,2.468888
2.555000,103.359375,2.468888
2.552500,104.796875,2.468888
2.562500,106.609375,2.468888
2.587500,108.265625,2.468888
3.082500,111.953125,2.468888
3.127500,113.500000,2.468888
3.182500,114.109375,2.468888
3.245000,115.234375,2.468888
3.305000,116.734375,2.468888
3.357500,118.109375,2.468888
3.407500,119.078125,2.468888
3.457500,120.359375,2.468888
3.427500,121.984375,2.468888
3.350000,123.515625,2.468888
3.357500,124.843750,2.468888
3.382500,126.125000,2.468888
3.377500,127.140625,2.468888
3.392500,128.359375,2.468888
3.407500,129.781250,2.468888
3.407500,131.250000,2.468888
3.405000,132.140625,2.468888
3.395000,133.515625,2.468888
3.390000,135.140625,2.468888
3.425000,136.515625,2.468888
3.497500,137.296875,2.468888
3.560000,138.578125,2.468888
3.595000,140.093750,2.468888
3.647500,141.031250,2.468888
3.702500,142.718750,2.468888
3.752500,143.671875,2.468888
3.820000,145.093750,2.468888
3.885000,146.359375,2.468888
3.942500,147.609375,2.468888
2.842500,73.656250,2.605973
2.790000,75.171875,2.605973
2.737500,77.343750,2.605973
2.667500,78.093750,2.605973
2.620000,80.000000,2.605973
2.622500,80.468750,2.605973
2.670000,84.343750,2.605973
2.715000,86.109375,2.605973
2.605000,88.484375,2.605973
2.582500,90.218750,2.605973
2.577500,91.359375,2.605973
2.577500,93.625000,2.605973
2.562500,94.968750,2.605973
2.532500,95.484375,2.605973
2.505000,96.750000,2.605973
2.502500,100.109375,2.605973
2.527500,99.531250,2.605973
2.542500,101.796875,2.605973
2.545000,102.703125,2.605973
2.545000,103.843750,2.605973
2.540000,105.031250,2.605973
2.545000,106.625000,2.605973
2.570000,107.531250,2.605973
3.027500,110.703125,2.605973
3.077500,111.453125,2.605973
3.125000,112.671875,2.605973
3.177500,114.359375,2.605973
3.240000,115.203125,2.605973
3.300000,116.437500,2.605973
3.350000,118.078125,2.605973
3.402500,119.390625,2.605973
3.450000,120.437500,2.605973
3.475000,121.828125,2.605973
3.377500,126.765625,2.605973
3.392500,128.312500,2.605973
3.407500,129.671875,2.605973
3.412500,130.796875,2.605973
3.405000,132.312500,2.605973
3.390000,133.734375,2.605973
3.390000,135.062500,2.605973
3.420000,136.046875,2.605973
3.487500,137.203125,2.605973
3.552500,138.406250,2.605973
3.595000,139.687500,2.605973
3.640000,141.218750,2.605973
3.690000,142.265625,2.605973
3.745000,143.406250,2.605973
3.807500,145.000000,2.605973
3.875000,146.234375,2.605973
3.937500,147.375000,2.605973
2.890000,71.109375,2.746801
2.882500,72.812500,2.746801
2.842500,74.062500,2.746801
2.787500,75.406250,2.746801
2.735000,77.578125,2.746801
2.665000,77.875000,2.746801
2.610000,79.171875,2.746801
2.612500,81.734375,2.746801
2.620000,81.953125,2.746801
2.640000,85.984375,2.746801
2.565000,89.828125,2.746801
2.562500,91.015625,2.746801
2.495000,93.625000,2.746801
2.512500,94.453125,2.746801
2.505000,96.031250,2.746801
2.487500,96.718750,2.746801
2.495000,98.734375,2.746801
2.515000,100.718750,2.746801
2.527500,102.593750,2.746801
2.532500,102.328125,2.746801
2.530000,103.312500,2.746801
2.520000,104.437500,2.746801
2.522500,106.703125,2.746801
2.550000,107.937500,2.746801
3.025000,110.468750,2.746801
3.072500,111.296875,2.746801
3.122500,112.656250,2.746801
3.177500,114.281250,2.746801
3.235000,115.703125,2.746801
3.295000,116.781250,2.746801
3.347500,117.750000,2.746801
3.400000,118.843750,2.746801
3.447500,120.406250,2.746801
3.472500,121.921875,2.746801
3.347500,124.250000,2.746801
3.382500,125.781250,2.746801
3.377500,127.281250,2.746801
3.392500,128.531250,2.746801
3.407500,129.890625,2.746801
3.412500,131.125000,2.746801
3.405000,132.609375,2.746801
3.390000,133.500000,2.746801
3.390000,135.218750,2.746801
3.420000,136.125000,2.746801
3.487500,137.453125,2.746801
3.550000,138.437500,2.746801
3.592500,139.593750,2.746801
3.640000,140.875000,2.746801
3.692500,142.500000,2.746801
3.745000,143.562500,2.746801
3.810000,144.953125,2.746801
3.875000,146.203125,2.746801
3.937500,147.328125,2.746801
2.912500,70.687500,2.885923
2.882500,72.515625,2.885923
2.842500,73.453125,2.885923
2.787500,74.906250,2.885923
2.732500,76.640625,2.885923
2.615000,80.562500,2.885923
2.617500,80.593750,2.885923
2.617500,83.015625,2.885923
2.607500,86.000000,2.885923
2.572500,87.156250,2.885923
2.532500,89.546875,2.885923
2.515000,92.875000,2.885923
2.507500,95.000000,2.885923
2.490000,95.312500,2.885923
2.477500,97.578125,2.885923
2.487500,98.250000,2.885923
2.507500,99.343750,2.885923
2.520000,102.281250,2.885923
2.525000,101.781250,2.885923
2.520000,104.531250,2.885923
2.510000,106.906250,2.885923
2.520000,106.625000,2.885923
2.547500,107.140625,2.885923
3.022500,110.250000,2.885923
3.070000,111.984375,2.885923
3.115000,113.015625,2.885923
3.170000,114.343750,2.885923
3.232500,115.625000,2.885923
3.290000,116.328125,2.885923
3.342500,117.453125,2.885923
3.400000,118.890625,2.885923
3.442500,120.109375,2.885923
3.467500,121.406250,2.885923
3.377500,126.781250,2.885923
3.390000,128.265625,2.885923
3.405000,129.468750,2.885923
3.412500,130.718750,2.885923
3.407500,132.093750,2.885923
3.392500,133.343750,2.885923
3.387500,135.046875,2.885923
3.417500,136.015625,2.885923
3.480000,137.093750,2.885923
3.542500,138.812500,2.885923
3.587500,139.859375,2.885923
3.635000,140.921875,2.885923
3.687500,142.421875,2.885923
3.742500,143.515625,2.885923
3.805000,144.734375,2.885923
3.870000,146.187500,2.885923
3.932500,147.375000,2.885923
2.842500,74.250000,3.019954
2.785000,75.359375,3.019954
2.732500,76.593750,3.019954
2.607500,80.656250,3.019954
2.600000,81.734375,3.019954
2.607500,82.531250,3.019954
2.622500,83.578125,3.019954
2.647500,85.250000,3.019954
2.517500,89.593750,3.019954
2.465000,90.875000,3.019954
2.455000,94.953125,3.019954
2.472500,95.734375,3.019954
2.480000,96.609375,3.019954
2.497500,98.359375,3.019954
2.505000,99.921875,3.019954
2.517500,101.421875,3.019954
2.520000,101.906250,3.019954
2.515000,103.250000,3.019954
2.502500,106.046875,3.019954
2.510000,106.000000,3.019954
2.545000,107.453125,3.019954
3.020000,110.218750,3.019954
3.070000,112.062500,3.019954
3.122500,113.218750,3.019954
3.175000,113.984375,3.019954
3.237500,115.125000,3.019954
3.297500,116.765625,3.019954
3.342500,118.218750,3.019954
3.400000,119.156250,3.019954
3.447500,120.156250,3.019954
3.447500,121.687500,3.019954
3.402500,125.859375,3.019954
3.375000,127.218750,3.019954
3.390000,128.468750,3.019954
3.405000,129.812500,3.019954
3.407500,131.015625,3.019954
3.400000,132.359375,3.019954
3.390000,133.953125,3.019954
3.390000,134.921875,3.019954
3.412500,136.140625,3.019954
3.472500,137.609375,3.019954
3.542500,138.531250,3.019954
3.592500,139.968750,3.019954
3.640000,141.000000,3.019954
3.692500,142.687500,3.019954
3.750000,143.500000,3.019954
3.810000,145.140625,3.019954
3.875000,146.218750,3.019954
3.940000,147.671875,3.019954
2.862500,74.156250,3.158094
2.802500,75.859375,3.158094
2.740000,77.468750,3.158094
2.670000,79.062500,3.158094
2.622500,80.453125,3.158094
2.600000,81.734375,3.158094
2.600000,82.875000,3.158094
2.615000,84.171875,3.158094
2.615000,84.328125,3.158094
2.492500,87.296875,3.158094
2.467500,96.046875,3.158094
2.467500,96.593750,3.158094
2.482500,98.234375,3.158094
2.502500,100.515625,3.158094
2.520000,101.343750,3.158094
2.517500,102.875000,3.158094
2.512500,103.421875,3.158094
2.502500,105.296875,3.158094
2.502500,106.546875,3.158094
2.527500,108.343750,3.158094
3.017500,110.375000,3.158094
3.067500,111.171875,3.158094
3.112500,112.796875,3.158094
3.165000,113.718750,3.158094
3.225000,115.109375,3.158094
3.280000,116.156250,3.158094
3.330000,117.515625,3.158094
3.387500,119.015625,3.158094
3.427500,120.046875,3.158094
3.457500,121.421875,3.158094
3.425000,125.671875,3.158094
3.377500,126.609375,3.158094
3.390000,128.140625,3.158094
3.402500,129.281250,3.158094
3.407500,130.531250,3.158094
3.405000,132.078125,3.158094
3.392500,133.687500,3.158094
3.385000,134.578125,3.158094
3.580000,139.609375,3.158094
3.620000,140.890625,3.158094
3.677500,141.984375,3.158094
3.735000,143.453125,3.158094
3.792500,144.703125,3.158094
3.860000,146.062500,3.158094
3.925000,147.250000,3.158094
3.990000,148.546875,3.158094
2.870000,73.859375,3.298170
2.812500,75.593750,3.298170
2.747500,76.843750,3.298170
2.682500,78.234375,3.298170
2.630000,80.171875,3.298170
2.602500,80.718750,3.298170
2.602500,82.218750,3.298170
2.610000,84.406250,3.298170
2.597500,85.375000,3.298170
2.470000,88.781250,3.298170
2.465000,96.531250,3.298170
2.467500,98.281250,3.298170
2.495000,100.500000,3.298170
2.512500,102.593750,3.298170
2.510000,102.937500,3.298170
2.497500,105.125000,3.298170
2.497500,106.296875,3.298170
2.520000,107.750000,3.298170
3.005000,110.515625,3.298170
3.060000,111.265625,3.298170
3.115000,112.437500,3.298170
3.167500,113.718750,3.298170
3.222500,115.109375,3.298170
3.272500,116.187500,3.298170
3.325000,117.531250,3.298170
3.387500,118.593750,3.298170
3.425000,119.843750,3.298170
3.455000,121.234375,3.298170
3.380000,124.343750,3.298170
3.397500,125.437500,3.298170
3.377500,127.046875,3.298170
3.387500,128.031250,3.298170
3.402500,129.312500,3.298170
3.407500,130.484375,3.298170
3.405000,131.906250,3.298170
3.392500,133.625000,3.298170
3.385000,134.390625,3.298170
3.577500,139.640625,3.298170
3.617500,141.093750,3.298170
3.675000,142.031250,3.298170
3.732500,143.562500,3.298170
3.787500,144.718750,3.298170
3.855000,145.968750,3.298170
3.922500,147.140625,3.298170
3.982500,148.375000,3.298170
2.900000,71.593750,3.455128
2.877500,72.984375,3.455128
2.815000,74.609375,3.455128
2.747500,77.062500,3.455128
2.687500,77.406250,3.455128
2.637500,78.890625,3.455128
2.602500,80.125000,3.455128
2.602500,81.515625,3.455128
2.600000,82.734375,3.455128
2.560000,84.828125,3.455128
2.432500,87.437500,3.455128
2.337500,90.000000,3.455128
2.455000,98.046875,3.455128
2.472500,101.984375,3.455128
2.510000,102.250000,3.455128
2.507500,103.781250,3.455128
2.495000,105.187500,3.455128
2.497500,106.156250,3.455128
2.525000,107.906250,3.455128
2.997500,110.031250,3.455128
3.055000,110.890625,3.455128
3.105000,112.187500,3.455128
3.157500,113.421875,3.455128
3.220000,114.828125,3.455128
3.277500,116.328125,3.455128
3.332500,117.218750,3.455128
3.385000,118.718750,3.455128
3.422500,119.953125,3.455128
3.455000,121.218750,3.455128
3.382500,123.640625,3.455128
3.395000,125.531250,3.455128
3.380000,126.406250,3.455128
3.387500,127.609375,3.455128
3.402500,129.312500,3.455128
3.410000,130.656250,3.455128
3.407500,131.515625,3.455128
3.395000,133.125000,3.455128
3.385000,134.812500,3.455128
3.397500,136.015625,3.455128
3.452500,136.906250,3.455128
3.527500,138.031250,3.455128
3.577500,139.281250,3.455128
3.615000,140.515625,3.455128
3.667500,141.953125,3.455128
3.727500,143.343750,3.455128
3.782500,144.500000,3.455128
3.847500,145.593750,3.455128
3.917500,147.078125,3.455128
3.972500,148.328125,3.455128
2.900000,72.109375,3.580136
2.870000,73.125000,3.580136
2.815000,75.046875,3.580136
2.745000,76.859375,3.580136
2.680000,78.546875,3.580136
2.630000,79.109375,3.580136
2.602500,80.656250,3.580136
2.590000,81.328125,3.580136
2.587500,83.046875,3.580136
2.562500,85.140625,3.580136
2.432500,87.078125,3.580136
2.337500,91.593750,3.580136
2.437500,96.437500,3.580136
2.507500,102.703125,3.580136
2.500000,104.765625,3.580136
2.487500,104.312500,3.580136
2.492500,105.609375,3.580136
2.522500,108.031250,3.580136
2.995000,110.375000,3.580136
3.042500,111.234375,3.580136
3.087500,112.625000,3.580136
3.145000,113.781250,3.580136
3.210000,114.609375,3.580136
3.265000,116.125000,3.580136
3.317500,117.343750,3.580136
3.370000,118.765625,3.580136
3.412500,119.796875,3.580136
3.450000,121.171875,3.580136
3.370000,123.718750,3.580136
3.392500,125.500000,3.580136
3.370000,126.250000,3.580136
3.372500,127.843750,3.580136
3.390000,129.343750,3.580136
3.405000,130.187500,3.580136
3.407500,131.656250,3.580136
3.400000,132.828125,3.580136
3.387500,134.468750,3.580136
3.390000,135.859375,3.580136
3.435000,136.796875,3.580136
3.507500,138.218750,3.580136
3.565000,139.265625,3.580136
3.610000,140.843750,3.580136
3.662500,141.734375,3.580136
3.722500,143.125000,3.580136
3.780000,144.375000,3.580136
3.842500,145.609375,3.580136
3.907500,146.968750,3.580136
3.967500,148.281250,3.580136
2.870000,73.578125,3.721642
2.815000,74.484375,3.721642
2.745000,75.859375,3.721642
2.680000,77.546875,3.721642
2.630000,78.859375,3.721642
2.600000,80.343750,3.721642
2.597500,82.796875,3.721642
2.607500,83.890625,3.721642
2.602500,84.093750,3.721642
2.462500,87.140625,3.721642
2.470000,94.890625,3.721642
2.457500,98.046875,3.721642
2.480000,101.562500,3.721642
2.507500,103.578125,3.721642
2.505000,103.562500,3.721642
2.495000,104.437500,3.721642
2.495000,106.140625,3.721642
2.517500,107.062500,3.721642
2.995000,110.421875,3.721642
3.045000,111.156250,3.721642
3.092500,112.171875,3.721642
3.150000,113.578125,3.721642
3.217500,114.890625,3.721642
3.270000,116.187500,3.721642
3.325000,117.328125,3.721642
3.382500,118.375000,3.721642
3.420000,120.031250,3.721642
3.455000,121.000000,3.721642
3.370000,124.171875,3.721642
3.392500,125.062500,3.721642
3.377500,126.765625,3.721642
3.377500,127.875000,3.721642
3.390000,129.187500,3.721642
3.405000,130.343750,3.721642
3.407500,131.906250,3.721642
3.400000,133.343750,3.721642
3.390000,134.203125,3.721642
3.397500,135.906250,3.721642
3.442500,136.765625,3.721642
3.507500,137.875000,3.721642
3.565000,139.265625,3.721642
3.610000,140.812500,3.721642
3.662500,141.781250,3.721642
3.720000,143.203125,3.721642
3.777500,144.156250,3.721642
3.840000,145.437500,3.721642
3.905000,147.046875,3.721642
3.967500,148.234375,3.721642
2.910000,71.953125,3.860772
2.852500,73.343750,3.860772
2.792500,75.328125,3.860772
2.735000,76.312500,3.860772
2.602500,80.578125,3.860772
2.587500,81.265625,3.860772
2.600000,82.687500,3.860772
2.610000,84.015625,3.860772
2.607500,84.718750,3.860772
2.487500,87.546875,3.860772
2.470000,96.031250,3.860772
2.460000,95.593750,3.860772
2.452500,97.078125,3.860772
2.482500,100.656250,3.860772
2.510000,101.828125,3.860772
2.505000,103.328125,3.860772
2.490000,104.812500,3.860772
2.490000,105.625000,3.860772
2.517500,107.062500,3.860772
2.997500,110.203125,3.860772
3.047500,111.437500,3.860772
3.102500,112.343750,3.860772
3.157500,114.187500,3.860772
3.217500,115.140625,3.860772
3.270000,116.375000,3.860772
3.322500,117.765625,3.860772
3.380000,118.421875,3.860772
3.420000,120.265625,3.860772
3.455000,121.125000,3.860772
3.382500,124.171875,3.860772
3.395000,125.609375,3.860772
3.375000,126.750000,3.860772
3.385000,128.265625,3.860772
3.400000,129.031250,3.860772
3.407500,130.578125,3.860772
3.405000,132.062500,3.860772
3.395000,133.250000,3.860772
3.385000,134.390625,3.860772
3.397500,135.625000,3.860772
3.450000,137.281250,3.860772
3.525000,138.078125,3.860772
3.577500,139.828125,3.860772
3.615000,140.968750,3.860772
3.667500,141.796875,3.860772
3.727500,143.203125,3.860772
3.785000,144.531250,3.860772
3.850000,145.796875,3.860772
3.917500,146.968750,3.860772
3.982500,148.093750,3.860772
2.855000,73.125000,4.003535
2.792500,75.406250,4.003535
2.732500,76.015625,4.003535
2.660000,77.421875,4.003535
2.602500,79.203125,4.003535
2.595000,80.796875,4.003535
2.637500,85.218750,4.003535
2.652500,86.203125,4.003535
2.512500,88.843750,4.003535
2.512500,90.093750,4.003535
2.460000,93.515625,4.003535
2.495000,94.343750,4.003535
2.490000,97.281250,4.003535
2.455000,97.078125,4.003535
2.472500,100.937500,4.003535
2.510000,101.390625,4.003535
2.505000,103.546875,4.003535
2.492500,105.328125,4.003535
2.492500,107.593750,4.003535
3.097500,112.343750,4.003535
3.155000,113.578125,4.003535
3.215000,114.625000,4.003535
3.267500,116.265625,4.003535
3.320000,117.796875,4.003535
3.380000,118.468750,4.003535
3.420000,119.921875,4.003535
3.452500,121.546875,4.003535
3.380000,124.156250,4.003535
3.395000,125.593750,4.003535
3.375000,126.953125,4.003535
3.377500,127.812500,4.003535
3.392500,129.437500,4.003535
3.407500,130.312500,4.003535
3.407500,131.703125,4.003535
3.397500,133.000000,4.003535
3.385000,134.828125,4.003535
3.397500,135.484375,4.003535
3.450000,136.781250,4.003535
3.522500,138.171875,4.003535
3.575000,139.593750,4.003535
3.615000,140.875000,4.003535
3.667500,142.109375,4.003535
3.727500,143.250000,4.003535
3.782500,144.468750,4.003535
3.847500,145.734375,4.003535
3.917500,147.234375,4.003535
3.982500,148.234375,4.003535
2.942500,71.031250,4.141343
2.897500,72.750000,4.141343
2.840000,73.500000,4.141343
2.782500,74.812500,4.141343
2.712500,76.453125,4.141343
2.647500,78.765625,4.141343
2.612500,80.515625,4.141343
2.585000,81.531250,4.141343
2.567500,89.890625,4.141343
2.550000,90.218750,4.141343
2.550000,90.953125,4.141343
2.550000,93.750000,4.141343
2.530000,95.156250,4.141343
2.500000,96.093750,4.141343
2.472500,97.500000,4.141343
2.462500,97.937500,4.141343
2.487500,101.390625,4.141343
2.507500,100.468750,4.141343
2.510000,103.531250,4.141343
2.505000,103.718750,4.141343
2.495000,105.000000,4.141343
2.495000,106.656250,4.141343
2.515000,107.468750,4.141343
2.995000,109.859375,4.141343
3.050000,111.453125,4.141343
3.100000,112.656250,4.141343
3.155000,113.578125,4.141343
3.215000,115.218750,4.141343
3.267500,116.578125,4.141343
3.320000,117.500000,4.141343
3.382500,118.812500,4.141343
3.420000,119.875000,4.141343
3.450000,121.562500,4.141343
3.380000,124.140625,4.141343
3.395000,125.734375,4.141343
3.375000,127.000000,4.141343
3.382500,128.156250,4.141343
3.400000,129.625000,4.141343
3.407500,130.656250,4.141343
3.405000,132.093750,4.141343
3.395000,133.078125,4.141343
3.387500,134.531250,4.141343
3.407500,135.921875,4.141343
3.465000,136.890625,4.141343
3.532500,138.265625,4.141343
3.577500,139.859375,4.141343
3.617500,140.734375,4.141343
3.672500,141.984375,4.141343
3.732500,143.546875,4.141343
3.785000,144.625000,4.141343
3.850000,145.984375,4.141343
3.917500,147.093750,4.141343
3.982500,148.437500,4.141343
2.952500,70.625000,4.281621
2.837500,74.109375,4.281621
2.780000,74.703125,4.281621
2.712500,76.046875,4.281621
2.645000,78.609375,4.281621
2.610000,79.015625,4.281621
2.582500,80.265625,4.281621
2.670000,86.718750,4.281621
2.642500,87.593750,4.281621
2.605000,89.546875,4.281621
2.565000,90.140625,4.281621
2.560000,91.484375,4.281621
2.552500,93.640625,4.281621
2.535000,94.250000,4.281621
2.512500,95.000000,4.281621
2.482500,98.718750,4.281621
2.490000,99.781250,4.281621
2.505000,99.109375,4.281621
2.517500,100.609375,4.281621
2.525000,102.687500,4.281621
2.517500,103.125000,4.281621
2.502500,104.859375,4.281621
2.495000,107.218750,4.281621
2.515000,106.906250,4.281621
2.992500,110.343750,4.281621
3.047500,111.796875,4.281621
3.097500,112.500000,4.281621
3.155000,113.640625,4.281621
3.212500,114.890625,4.281621
3.265000,116.015625,4.281621
3.320000,117.468750,4.281621
3.380000,118.640625,4.281621
3.417500,120.046875,4.281621
3.447500,121.390625,4.281621
3.380000,124.015625,4.281621
3.395000,125.093750,4.281621
3.375000,126.406250,4.281621
3.382500,128.078125,4.281621
3.400000,129.437500,4.281621
3.407500,130.500000,4.281621
3.405000,132.078125,4.281621
3.395000,132.984375,4.281621
3.390000,134.734375,4.281621
3.407500,135.625000,4.281621
3.465000,136.906250,4.281621
3.532500,138.437500,4.281621
3.577500,139.812500,4.281621
3.617500,140.718750,4.281621
3.672500,142.250000,4.281621
3.730000,143.406250,4.281621
3.787500,144.468750,4.281621
3.855000,145.875000,4.281621
3.925000,147.140625,4.281621
3.985000,148.406250,4.281621
2.927500,70.625000,4.422504
2.875000,72.250000,4.422504
2.817500,73.406250,4.422504
2.765000,74.968750,4.422504
2.707500,76.875000,4.422504
2.642500,78.609375,4.422504
2.605000,79.093750,4.422504
2.572500,80.343750,4.422504
2.635000,87.781250,4.422504
2.607500,88.375000,4.422504
2.562500,89.500000,4.422504
2.537500,92.000000,4.422504
2.530000,92.453125,4.422504
2.530000,93.531250,4.422504
2.510000,95.156250,4.422504
2.485000,96.218750,4.422504
2.490000,98.171875,4.422504
2.505000,98.875000,4.422504
2.507500,102.328125,4.422504
2.515000,102.968750,4.422504
2.517500,102.890625,4.422504
2.500000,105.156250,4.422504
2.492500,105.500000,4.422504
2.985000,110.218750,4.422504
3.042500,111.515625,4.422504
3.095000,112.484375,4.422504
3.152500,113.593750,4.422504
3.205000,115.437500,4.422504
3.257500,116.062500,4.422504
3.317500,117.359375,4.422504
3.377500,118.796875,4.422504
3.415000,120.156250,4.422504
3.445000,121.484375,4.422504
3.380000,123.953125,4.422504
3.395000,125.578125,4.422504
3.375000,126.562500,4.422504
3.382500,127.750000,4.422504
3.397500,129.609375,4.422504
3.405000,130.500000,4.422504
3.405000,132.187500,4.422504
3.395000,133.671875,4.422504
3.387500,134.921875,4.422504
3.402500,135.796875,4.422504
3.462500,136.859375,4.422504
3.530000,138.093750,4.422504
3.577500,139.593750,4.422504
3.617500,140.937500,4.422504
3.670000,142.187500,4.422504
3.727500,143.109375,4.422504
3.787500,144.671875,4.422504
3.852500,145.640625,4.422504
3.920000,146.875000,4.422504
3.985000,148.562500,4.422504
2.907500,67.015625,4.558085
2.915000,70.281250,4.558085
2.875000,71.921875,4.558085
2.807500,73.812500,4.558085
2.757500,74.734375,4.558085
2.702500,76.265625,4.558085
2.632500,77.484375,4.558085
2.597500,79.218750,4.558085
2.650000,85.937500,4.558085
2.620000,88.000000,4.558085
2.592500,89.906250,4.558085
2.545000,90.656250,4.558085
2.527500,92.015625,4.558085
2.525000,92.109375,4.558085
2.525000,94.234375,4.558085
2.507500,95.437500,4.558085
2.485000,97.515625,4.558085
2.490000,97.515625,4.558085
2.502500,100.859375,4.558085
2.505000,101.812500,4.558085
2.507500,102.796875,4.558085
2.510000,102.718750,4.558085
2.500000,104.250000,4.558085
2.492500,107.265625,4.558085
2.967500,110.062500,4.558085
3.025000,111.109375,4.558085
3.082500,112.671875,4.558085
3.140000,113.734375,4.558085
3.195000,115.203125,4.558085
3.252500,116.234375,4.558085
3.315000,117.156250,4.558085
3.375000,119.046875,4.558085
3.412500,120.265625,4.558085
3.442500,121.328125,4.558085
3.370000,123.859375,4.558085
3.395000,125.343750,4.558085
3.375000,126.718750,4.558085
3.380000,127.750000,4.558085
3.397500,129.328125,4.558085
3.405000,130.640625,4.558085
3.405000,131.875000,4.558085
3.397500,133.562500,4.558085
3.387500,134.843750,4.558085
3.397500,135.703125,4.558085
3.447500,137.343750,4.558085
3.520000,138.343750,4.558085
3.575000,139.515625,4.558085
3.615000,140.718750,4.558085
3.667500,141.812500,4.558085
3.725000,143.500000,4.558085
3.782500,144.750000,4.558085
3.850000,145.890625,4.558085
3.917500,147.078125,4.558085
3.982500,148.421875,4.558085
2.875000,71.906250,4.703803
2.805000,73.156250,4.703803
2.755000,74.796875,4.703803
2.700000,76.375000,4.703803
2.632500,78.171875,4.703803
2.595000,79.734375,4.703803
2.602500,85.531250,4.703803
2.617500,87.593750,4.703803
2.607500,88.046875,4.703803
2.560000,90.343750,4.703803
2.527500,92.015625,4.703803
2.525000,92.156250,4.703803
2.522500,93.859375,4.703803
2.505000,97.046875,4.703803
2.482500,97.859375,4.703803
2.487500,98.250000,4.703803
2.500000,101.000000,4.703803
2.505000,100.796875,4.703803
2.507500,103.093750,4.703803
2.510000,103.906250,4.703803
2.507500,105.281250,4.703803
2.505000,106.234375,4.703803
2.520000,108.140625,4.703803
2.965000,109.890625,4.703803
3.022500,111.343750,4.703803
3.077500,112.453125,4.703803
3.135000,113.453125,4.703803
3.192500,114.828125,4.703803
3.250000,116.078125,4.703803
3.312500,117.390625,4.703803
3.372500,119.000000,4.703803
3.410000,120.359375,4.703803
3.432500,121.421875,4.703803
3.410000,125.531250,4.703803
3.375000,126.703125,4.703803
3.380000,127.734375,4.703803
3.395000,129.171875,4.703803
3.405000,130.375000,4.703803
3.405000,131.609375,4.703803
3.397500,133.515625,4.703803
3.387500,134.859375,4.703803
3.397500,135.562500,4.703803
3.447500,137.328125,4.703803
3.520000,138.078125,4.703803
3.575000,139.640625,4.703803
3.615000,140.609375,4.703803
3.667500,142.046875,4.703803
3.725000,143.125000,4.703803
3.782500,144.437500,4.703803
3.850000,145.734375,4.703803
3.917500,146.906250,4.703803
3.982500,148.140625,4.703803
2.930000,70.437500,4.844889
2.870000,72.328125,4.844889
2.800000,73.406250,4.844889
2.752500,74.640625,4.844889
2.702500,76.890625,4.844889
2.637500,78.796875,4.844889
2.572500,79.718750,4.844889
2.570000,84.453125,4.844889
2.605000,85.578125,4.844889
2.602500,85.671875,4.844889
2.600000,87.656250,4.844889
2.602500,88.546875,4.844889
2.582500,91.046875,4.844889
2.555000,92.140625,4.844889
2.537500,92.296875,4.844889
2.525000,93.890625,4.844889
2.517500,95.484375,4.844889
2.505000,96.984375,4.844889
2.495000,98.250000,4.844889
2.500000,99.765625,4.844889
2.510000,100.562500,4.844889
2.522500,102.750000,4.844889
2.525000,104.265625,4.844889
2.525000,104.625000,4.844889
2.535000,107.343750,4.844889
2.555000,107.453125,4.844889
3.035000,111.234375,4.844889
3.085000,112.593750,4.844889
3.137500,114.031250,4.844889
3.200000,115.109375,4.844889
3.255000,116.531250,4.844889
3.312500,117.531250,4.844889
3.372500,118.828125,4.844889
3.412500,119.890625,4.844889
3.440000,121.640625,4.844889
3.380000,124.203125,4.844889
3.392500,125.578125,4.844889
3.372500,126.812500,4.844889
3.380000,128.000000,4.844889
3.397500,129.328125,4.844889
3.407500,130.406250,4.844889
3.405000,131.765625,4.844889
3.395000,133.312500,4.844889
3.387500,134.515625,4.844889
3.405000,135.734375,4.844889
3.467500,136.906250,4.844889
3.537500,138.343750,4.844889
3.577500,139.515625,4.844889
3.620000,140.906250,4.844889
3.675000,142.343750,4.844889
3.732500,143.562500,4.844889
3.792500,144.625000,4.844889
3.860000,145.890625,4.844889
3.935000,147.140625,4.844889
2.910000,70.921875,4.983006
2.865000,72.406250,4.983006
2.800000,74.234375,4.983006
2.755000,74.671875,4.983006
2.705000,77.281250,4.983006
2.642500,77.921875,4.983006
2.580000,79.546875,4.983006
2.577500,82.843750,4.983006
2.610000,84.218750,4.983006
2.600000,86.640625,4.983006
2.597500,87.421875,4.983006
2.602500,89.625000,4.983006
2.582500,89.765625,4.983006
2.547500,92.937500,4.983006
2.527500,92.781250,4.983006
2.525000,94.906250,4.983006
2.517500,95.046875,4.983006
2.512500,97.500000,4.983006
2.502500,98.046875,4.983006
2.500000,99.562500,4.983006
2.515000,100.406250,4.983006
2.527500,101.687500,4.983006
2.532500,103.937500,4.983006
2.532500,105.250000,4.983006
2.542500,106.359375,4.983006
2.572500,107.609375,4.983006
3.027500,111.109375,4.983006
3.085000,112.609375,4.983006
3.135000,114.046875,4.983006
3.195000,115.203125,4.983006
3.252500,116.468750,4.983006
3.310000,117.218750,4.983006
3.372500,118.734375,4.983006
3.410000,120.312500,4.983006
3.430000,121.593750,4.983006
3.367500,124.078125,4.983006
3.392500,125.593750,4.983006
3.375000,126.546875,4.983006
3.380000,128.250000,4.983006
3.395000,129.296875,4.983006
3.405000,130.687500,4.983006
3.405000,132.000000,4.983006
3.397500,133.140625,4.983006
3.387500,134.468750,4.983006
3.400000,135.578125,4.983006
3.447500,137.281250,4.983006
3.520000,138.296875,4.983006
3.575000,139.609375,4.983006
3.615000,140.796875,4.983006
3.670000,141.875000,4.983006
3.727500,143.500000,4.983006
3.782500,144.515625,4.983006
3.850000,145.828125,4.983006
3.917500,147.015625,4.983006
3.982500,148.484375,4.983006
2.895000,72.578125,5.123595
2.822500,73.687500,5.123595
2.770000,74.796875,5.123595
2.722500,76.984375,5.123595
2.670000,78.734375,5.123595
2.605000,79.421875,5.123595
2.592500,83.812500,5.123595
2.610000,85.125000,5.123595
2.595000,85.531250,5.123595
2.595000,87.203125,5.123595
2.600000,88.031250,5.123595
2.582500,89.625000,5.123595
2.560000,91.046875,5.123595
2.535000,94.093750,5.123595
2.527500,94.562500,5.123595
2.527500,96.062500,5.123595
2.522500,96.750000,5.123595
2.517500,97.390625,5.123595
2.517500,99.218750,5.123595
2.527500,101.578125,5.123595
2.537500,101.937500,5.123595
2.545000,102.546875,5.123595
2.555000,105.531250,5.123595
2.562500,106.906250,5.123595
2.597500,106.437500,5.123595
3.022500,110.906250,5.123595
3.080000,112.656250,5.123595
3.132500,113.921875,5.123595
3.187500,114.921875,5.123595
3.245000,115.765625,5.123595
3.307500,117.234375,5.123595
3.367500,118.781250,5.123595
3.412500,119.906250,5.123595
3.440000,120.828125,5.123595
3.347500,124.015625,5.123595
3.380000,125.000000,5.123595
3.372500,126.406250,5.123595
3.375000,128.093750,5.123595
3.392500,128.765625,5.123595
3.405000,130.359375,5.123595
3.407500,131.828125,5.123595
3.400000,133.156250,5.123595
3.390000,134.187500,5.123595
3.400000,135.515625,5.123595
3.445000,137.109375,5.123595
3.510000,138.203125,5.123595
3.565000,139.500000,5.123595
3.610000,140.875000,5.123595
3.662500,142.015625,5.123595
3.720000,143.296875,5.123595
3.775000,144.312500,5.123595
3.840000,145.390625,5.123595
3.905000,146.906250,5.123595
3.967500,148.156250,5.123595
2.962500,70.718750,5.264959
2.842500,72.875000,5.264959
2.792500,75.281250,5.264959
2.740000,76.546875,5.264959
2.685000,78.562500,5.264959
2.632500,78.656250,5.264959
2.577500,80.156250,5.264959
2.557500,81.843750,5.264959
2.587500,83.437500,5.264959
2.607500,84.828125,5.264959
2.595000,85.406250,5.264959
2.595000,86.671875,5.264959
2.605000,88.265625,5.264959
2.587500,89.531250,5.264959
2.565000,91.890625,5.264959
2.552500,92.078125,5.264959
2.542500,93.968750,5.264959
2.530000,95.625000,5.264959
2.525000,97.515625,5.264959
2.525000,97.296875,5.264959
2.530000,99.468750,5.264959
2.537500,100.125000,5.264959
2.540000,101.281250,5.264959
2.547500,104.046875,5.264959
2.560000,104.234375,5.264959
2.575000,106.515625,5.264959
2.612500,106.140625,5.264959
3.012500,110.781250,5.264959
3.057500,112.312500,5.264959
3.117500,113.203125,5.264959
3.182500,114.453125,5.264959
3.240000,116.015625,5.264959
3.302500,116.843750,5.264959
3.357500,118.281250,5.264959
3.400000,119.609375,5.264959
3.437500,120.968750,5.264959
3.320000,123.421875,5.264959
3.365000,125.375000,5.264959
3.367500,126.093750,5.264959
3.375000,127.921875,5.264959
3.390000,129.125000,5.264959
3.407500,130.015625,5.264959
3.410000,131.578125,5.264959
3.397500,133.000000,5.264959
3.385000,134.218750,5.264959
3.397500,135.281250,5.264959
3.440000,136.828125,5.264959
3.505000,138.156250,5.264959
3.562500,139.078125,5.264959
3.605000,140.796875,5.264959
3.652500,141.843750,5.264959
3.710000,143.156250,5.264959
3.770000,144.062500,5.264959
3.835000,145.531250,5.264959
3.895000,146.609375,5.264959
3.957500,147.984375,5.264959
2.922500,72.234375,5.403938
2.850000,72.968750,5.403938
2.795000,74.718750,5.403938
2.740000,76.359375,5.403938
2.687500,78.531250,5.403938
2.635000,78.656250,5.403938
2.577500,81.046875,5.403938
2.552500,82.828125,5.403938
2.582500,83.953125,5.403938
2.602500,84.703125,5.403938
2.600000,86.140625,5.403938
2.602500,87.453125,5.403938
2.600000,88.609375,5.403938
2.582500,89.843750,5.403938
2.562500,90.953125,5.403938
2.557500,92.937500,5.403938
2.557500,94.437500,5.403938
2.547500,94.640625,5.403938
2.545000,97.390625,5.403938
2.542500,98.234375,5.403938
2.542500,98.718750,5.403938
2.542500,100.250000,5.403938
2.547500,102.625000,5.403938
2.562500,103.562500,5.403938
2.577500,104.156250,5.403938
2.935000,108.500000,5.403938
2.975000,109.656250,5.403938
3.012500,110.968750,5.403938
3.062500,112.578125,5.403938
3.125000,113.640625,5.403938
3.185000,114.562500,5.403938
3.242500,116.453125,5.403938
3.305000,117.500000,5.403938
3.365000,118.578125,5.403938
3.410000,119.625000,5.403938
3.437500,121.156250,5.403938
3.345000,124.031250,5.403938
3.380000,125.343750,5.403938
3.372500,126.812500,5.403938
3.372500,127.562500,5.403938
3.390000,128.906250,5.403938
3.405000,130.703125,5.403938
3.407500,131.437500,5.403938
3.400000,133.203125,5.403938
3.387500,134.093750,5.403938
3.397500,135.984375,5.403938
3.445000,136.578125,5.403938
3.510000,137.859375,5.403938
3.567500,139.421875,5.403938
3.610000,140.718750,5.403938
3.662500,141.750000,5.403938
3.715000,143.140625,5.403938
3.772500,144.453125,5.403938
3.840000,145.718750,5.403938
3.905000,147.125000,5.403938
3.975000,148.312500,5.403938
2.922500,71.843750,5.534373
2.850000,73.656250,5.534373
2.792500,74.343750,5.534373
2.740000,76.171875,5.534373
2.687500,77.640625,5.534373
2.647500,79.390625,5.534373
2.597500,80.343750,5.534373
2.560000,81.500000,5.534373
2.582500,83.359375,5.534373
2.617500,84.781250,5.534373
2.615000,85.687500,5.534373
2.602500,86.703125,5.534373
2.595000,87.953125,5.534373
2.575000,90.640625,5.534373
2.560000,92.421875,5.534373
2.550000,92.125000,5.534373
2.550000,93.484375,5.534373
