0.783631 -1.459593 -6.766150
0.771055 -1.436169 -7.759400
0.813696 -1.515592 -8.830873
0.798676 -1.487615 -9.598097
3.740954 -6.967907 -12.483504
3.948762 -7.354970 -15.183157
3.846188 -7.163916 -15.855644
12.870843 -23.973254 -15.256837
0.449402 -1.034219 -1.512537
0.603432 -1.388692 -2.293708
0.648520 -1.492455 -3.227969
0.690128 -1.588207 -4.352380
0.693213 -1.595309 -5.072484
0.661017 -1.521213 -5.967213
0.655581 -1.508704 -6.848239
0.677389 -1.558891 -7.988524
0.670083 -1.542077 -8.769386
0.659621 -1.518001 -9.782429
3.146997 -7.242259 -12.669522
3.481933 -8.013055 -15.912471
10.876944 -25.031371 -15.374357
0.387227 -1.171765 -1.677700
0.479214 -1.450121 -2.517216
0.505221 -1.528818 -3.622349
0.528503 -1.599271 -4.379950
0.529992 -1.603777 -5.463465
0.486974 -1.473603 -6.268213
0.504497 -1.526626 -7.221892
0.540906 -1.636801 -8.238114
0.530509 -1.605342 -8.930508
0.487941 -1.476527 -9.900895
0.449701 -1.360812 -10.943823
2.477223 -7.496170 -12.296813
2.464646 -7.458112 -12.845731
2.508551 -7.590969 -13.766209
2.585682 -7.824370 -15.432761
2.731070 -8.264322 -16.018215
8.330916 -25.209666 -14.970989
0.341700 -1.415672 -2.151008
0.379579 -1.572608 -3.105346
0.395235 -1.637470 -3.885155
0.405866 -1.681515 -4.994665
0.422474 -1.750322 -5.901134
0.406718 -1.685046 -6.616434
0.380484 -1.576355 -7.714813
0.381241 -1.579493 -8.502043
0.390942 -1.619684 -9.392045
0.345021 -1.429433 -10.289251
1.953168 -8.092036 -13.981600
1.926016 -7.979543 -15.604867
6.313902 -26.158693 -15.022356
0.171813 -1.173954 -1.736065
0.217451 -1.485785 -2.507569
0.232036 -1.585439 -3.533133
0.249796 -1.706784 -4.521866
0.254079 -1.736054 -5.386850
0.232306 -1.587285 -6.111919
0.229442 -1.567710 -7.088035
0.237144 -1.620342 -7.931281
0.236355 -1.614951 -8.896622
0.202923 -1.386517 -9.795832
0.223822 -1.529313 -10.782393
1.137844 -7.774573 -11.886152
1.210219 -8.269090 -14.514749
1.279115 -8.739840 -16.114748
3.880073 -26.511461 -15.333642
0.078526 -1.235840 -1.778976
0.096034 -1.511368 -2.708788
0.101096 -1.591043 -3.724964
0.107810 -1.696697 -4.524622
0.116821 -1.838513 -5.476826
0.107711 -1.695135 -6.234389
0.101088 -1.590906 -7.143818
0.106486 -1.675868 -8.142900
0.107214 -1.687326 -8.930508
0.099470 -1.565444 -9.956716
0.097957 -1.541636 -10.973928
0.494749 -7.786295 -12.032218
0.505863 -7.961217 -13.101028
0.571335 -8.991598 -15.962829
1.694330 -26.665154 -15.148380
-0.033375 -1.249302 -2.026495
-0.038505 -1.441299 -2.747326
-0.039414 -1.475340 -3.521517
-0.043379 -1.623762 -4.521741
-0.046294 -1.732854 -5.604708
-0.043042 -1.611131 -6.327559
-0.041887 -1.567926 -7.286407
-0.042644 -1.596253 -8.112958
-0.045155 -1.690224 -9.047176
-0.037935 -1.419963 -10.087725
-0.035531 -1.330006 -11.139711
-0.210658 -7.885325 -12.352389
-0.214184 -8.017313 -13.963579
-0.213340 -7.985717 -14.860740
-0.241629 -9.044641 -16.157889
-0.712096 -26.655098 -15.019021
-0.147383 -1.240472 -2.015246
-0.170197 -1.432489 -2.758523
-0.177936 -1.497626 -3.879381
-0.192001 -1.616008 -4.769793
-0.198756 -1.672858 -5.430074
-0.188879 -1.589729 -6.420625
-0.182855 -1.539026 -7.324293
-0.193421 -1.627958 -8.324786
-0.314609 -2.647960 -10.813168
-0.925912 -7.793089 -12.239056
-0.926774 -7.800339 -13.060956
-0.941647 -7.925521 -14.067073
-1.108648 -9.331115 -16.246233
-3.197983 -26.916338 -15.293921
-0.256636 -1.319809 -2.393279
-0.262196 -1.348399 -3.191578
-0.279949 -1.439697 -4.222288
-0.311281 -1.600832 -5.210543
-0.322959 -1.660889 -5.848719
-0.293736 -1.510604 -6.820093
-0.293013 -1.506882 -7.927994
-0.319564 -1.643430 -8.735989
-0.295416 -1.519244 -9.654775
-1.512251 -7.777081 -12.595771
-1.654455 -8.508400 -15.765001
-5.212636 -26.807128 -15.390936
-0.309751 -1.033948 -1.559547
-0.365314 -1.219418 -2.453850
-0.388635 -1.297265 -3.565871
-0.413769 -1.381161 -4.462613
-0.461711 -1.541192 -5.236008
-0.493569 -1.647531 -6.208372
-0.391071 -1.305393 -7.126441
-0.382168 -1.275677 -8.060579
-0.469789 -1.568156 -8.918911
-0.415300 -1.386271 -9.986261
-0.398289 -1.329489 -10.967911
-2.233177 -7.454341 -12.049878
-2.282397 -7.618638 -12.895057
-2.330438 -7.779000 -14.339381
-2.526063 -8.431994 -16.050450
-7.634719 -25.484681 -15.027438
-0.414604 -1.085049 -2.256900
-0.470061 -1.230182 -3.105606
-0.489250 -1.280402 -4.016911
-0.515640 -1.349467 -4.927355
-0.602799 -1.577569 -5.826461
-0.618083 -1.617567 -6.605317
-0.515034 -1.347880 -7.435891
-0.538440 -1.409135 -8.677967
-0.583291 -1.526514 -9.364219
-0.578671 -1.514424 -10.476878
-0.702520 -1.838545 -11.383436
-2.831409 -7.409999 -12.549515
-2.799261 -7.325864 -13.238760
-2.808979 -7.351296 -13.991556
-2.930854 -7.670254 -15.909543
-9.691402 -25.363085 -15.340032
-0.530828 -1.072593 -2.435780
-0.597082 -1.206466 -3.159844
-0.650035 -1.313462 -4.211098
-0.724449 -1.463825 -5.029115
-0.808208 -1.633068 -5.875361
-0.818901 -1.654675 -8.583306
-0.637220 -1.287569 -9.728257
-3.505572 -7.083371 -12.688393
-3.712903 -7.502305 -15.173001
-3.680521 -7.436873 -16.153619
-12.090441 -24.429986 -15.375513
-0.433844 -0.711160 -1.659860
-0.610960 -1.001491 -2.459792
-0.689286 -1.129884 -3.500659
-0.743709 -1.219094 -4.566134
-0.837882 -1.373464 -5.236008
-0.959173 -1.572286 -6.178471
-1.003853 -1.645526 -8.959876
-0.711613 -1.166483 -10.077215
-0.669349 -1.097204 -10.971210
-4.094999 -6.712561 -11.979313
-4.101676 -6.723507 -12.902401
-4.652382 -7.626229 -15.976794
-13.958357 -22.880672 -15.342206
-0.508908 -0.696617 -1.772420
-0.640580 -0.876856 -2.669056
-0.663837 -0.908691 -3.813176
-0.774312 -1.059914 -4.658578
-0.992882 -1.359103 -5.418943
-1.111054 -1.520862 -6.285503
-1.031562 -1.412050 -7.300193
-0.878840 -1.202997 -8.215579
-0.836111 -1.144508 -9.084291
-0.587638 -0.804386 -10.036041
-0.565785 -0.774473 -11.106564
-4.649412 -6.364331 -12.184649
-5.580743 -7.639180 -16.092122
-15.947137 -21.829181 -15.398900
-0.594561 -0.681929 -2.134420
-0.703311 -0.806659 -3.158301
-0.464902 -0.533218 -3.909169
-0.624018 -0.715715 -4.998267
-1.117199 -1.281366 -5.904357
-1.145198 -1.313480 -8.454359
-0.906238 -1.039405 -9.481721
-1.243947 -1.426739 -11.392642
-5.166249 -5.925405 -12.425889
-5.396275 -6.189231 -14.809165
-5.335418 -6.119432 -16.066496
-16.658553 -19.106449 -15.249271
-17.714001 -20.316989 -15.176464
-0.697299 -0.682225 -2.505648
-0.613495 -0.600233 -3.334412
-0.410110 -0.401245 -4.337279
-0.780253 -0.763386 -5.130171
-1.305724 -1.277498 -6.078662
-1.228584 -1.202025 -6.984594
-0.900286 -0.880825 -7.818100
-0.843785 -0.825544 -8.818076
-0.889639 -0.870407 -9.999785
-0.859062 -0.840492 -10.752555
-5.577185 -5.456622 -12.703903
-6.247523 -6.112469 -15.978390
-19.025072 -18.613803 -15.221953
-0.652412 -0.531803 -1.864372
-0.733846 -0.598182 -2.837370
-0.447756 -0.364981 -3.863651
-0.522297 -0.425741 -4.569168
-0.998088 -0.813575 -5.665999
-1.210956 -0.987090 -6.335205
-1.361849 -1.110088 -9.114147
-0.796242 -0.649043 -10.268267
-0.743432 -0.605996 -11.106564
-6.093827 -4.967278 -12.127989
-6.163738 -5.024265 -13.175314
-7.273257 -5.928670 -16.219145
-20.642750 -16.826582 -14.984438
-0.707477 -0.484977 -2.193766
-0.617590 -0.423360 -3.217164
-0.383542 -0.262919 -4.001236
-0.688792 -0.472169 -5.092742
-0.675814 -0.463273 -5.927395
-0.842235 -0.577354 -7.057520
-0.889389 -0.609679 -7.665376
-0.768419 -0.526753 -8.729051
-1.020029 -0.699233 -9.751858
-1.108954 -0.760191 -11.473887
-6.490342 -4.449148 -12.593999
-6.547743 -4.488496 -13.418542
-6.843877 -4.691497 -15.858128
-21.688062 -14.867228 -15.136577
-22.428785 -15.374996 -15.416259
-0.461878 -0.258528 -1.568795
-0.760612 -0.425739 -2.443560
-0.484824 -0.271372 -3.312605
-0.206282 -0.115462 -4.232437
-0.549889 -0.307790 -5.268510
-1.207113 -0.675660 -6.156389
-1.367494 -0.765430 -6.987591
-1.117306 -0.625392 -8.058946
-1.032004 -0.577645 -8.947277
-1.008484 -0.564481 -9.735287
-6.929871 -3.878870 -12.792119
-7.685335 -4.301727 -16.002956
-23.300762 -13.042179 -15.347309
-0.585373 -0.267132 -1.907558
-0.700369 -0.319609 -2.815152
-0.405631 -0.185107 -3.794850
-0.504542 -0.230245 -4.628500
-0.957450 -0.436927 -5.606233
-1.278280 -0.583336 -6.462850
-1.393772 -0.636040 -9.023789
-0.830968 -0.379208 -10.224268
-0.869809 -0.396932 -11.095235
-7.201251 -3.286249 -12.130331
-7.292009 -3.327666 -12.989819
-8.313741 -3.793927 -16.058047
-24.470108 -11.166791 -15.332390
-0.554756 -0.194777 -1.784115
-0.642515 -0.225589 -2.603553
-0.425260 -0.149310 -3.563314
-0.555129 -0.194908 -4.705774
-0.975427 -0.342476 -5.654820
-1.312483 -0.460818 -6.534007
-1.750364 -0.614559 -7.326901
-1.456206 -0.511279 -8.100349
-1.019183 -0.357839 -9.064118
-0.743979 -0.261214 -10.134430
-0.854204 -0.299914 -11.291279
-7.534755 -2.645479 -12.328190
-7.436689 -2.611048 -12.846480
-8.509971 -2.987881 -15.924687
-25.374879 -8.909210 -15.328135
-0.646945 -0.168066 -1.906420
-0.633566 -0.164591 -2.960520
-0.443784 -0.115288 -3.932451
-0.591018 -0.153538 -4.680138
-1.036594 -0.269291 -5.741839
-1.397586 -0.363072 -6.548552
-1.595334 -0.414444 -7.306686
-1.276300 -0.331563 -8.378437
-0.966061 -0.250968 -9.272014
-1.278929 -0.332246 -11.106025
-7.602219 -1.974941 -12.406995
-7.585253 -1.970533 -13.154248
-7.887488 -2.049049 -14.791528
-25.851635 -6.715861 -15.066456
-0.595349 -0.098093 -2.115519
-0.531833 -0.087628 -3.095229
-0.241073 -0.039721 -4.057129
-0.324647 -0.053491 -5.072913
-0.741607 -0.122192 -5.983499
-1.107090 -0.182411 -6.750416
-1.108347 -0.182618 -7.633711
-0.877453 -0.144574 -8.524899
-0.996765 -0.164233 -9.662135
-1.263669 -0.208209 -11.431122
-7.790311 -1.283577 -12.520305
-26.801892 -4.416035 -15.387010
-0.404879 -0.031951 -1.619382
-0.614911 -0.048525 -2.366841
-0.469345 -0.037038 -3.503898
-0.250888 -0.019799 -4.382243
-0.536523 -0.042339 -5.338216
-1.073223 -0.084693 -6.133042
-1.346808 -0.106283 -6.909056
-1.039510 -0.082032 -7.882620
-0.855236 -0.067491 -9.100862
-0.804411 -0.063480 -9.997600
-0.785788 -0.062010 -10.750997
-7.811781 -0.616463 -12.938769
-8.075721 -0.637291 -15.180808
-8.335980 -0.657830 -16.055076
-26.410184 -2.084146 -15.091496
-0.522303 0.000648 -1.993386
-0.649808 0.000806 -2.892046
-0.495669 0.000615 -3.790356
-0.394226 0.000489 -4.541623
-0.712100 0.000884 -5.513075
-1.301018 0.001614 -6.444682
-1.497558 0.001858 -7.172204
-1.052855 0.001307 -8.197359
-0.901649 0.001119 -9.412746
-1.055821 0.001310 -10.983886
-7.888739 0.009789 -12.129167
-7.931038 0.009842 -12.978556
-9.214218 0.011434 -16.099932
-26.073844 0.032356 -15.376348
-26.926923 0.033414 -15.362146
-0.597464 0.054791 -2.046963
-0.579791 0.053171 -3.000108
-0.471855 0.043272 -4.092933
-0.574823 0.052715 -5.043054
-0.736576 0.067549 -5.718134
-1.093756 0.100305 -6.603681
-1.224571 0.112301 -7.521012
-0.930905 0.085370 -8.621923
-0.922753 0.084623 -9.633802
-0.714484 0.065523 -10.575027
-0.205819 0.018875 -11.580060
-7.986618 0.732425 -12.570947
-8.234813 0.755187 -14.817350
-7.989454 0.732685 -15.859936
-26.713450 2.449799 -15.078925
-0.691409 0.128501 -2.110476
-0.708226 0.131626 -3.173512
-0.340253 0.063237 -4.070563
-0.413012 0.076759 -4.992123
-0.899735 0.167218 -5.890636
-1.241488 0.230734 -6.681286
-1.252018 0.232691 -7.757237
-0.934767 0.173729 -8.819719
-0.889666 0.165347 -9.650789
-7.725651 1.435836 -12.416443
-7.774726 1.444957 -13.408725
-7.771056 1.444274 -14.076510
-8.146522 1.514056 -16.011072
-26.727420 4.967373 -15.373481
-0.645933 0.175484 -2.409651
-0.710676 0.193072 -3.378558
-0.369948 0.100505 -4.194520
-0.520772 0.141480 -5.349660
-0.825568 0.224286 -6.003384
-1.106115 0.300503 -6.897067
-1.080524 0.293551 -7.751123
-0.837441 0.227511 -8.789884
-0.747330 0.203030 -9.861107
-0.584747 0.158861 -10.944311
-7.616320 2.069160 -12.585454
-8.005851 2.174986 -15.250945
-7.870042 2.138090 -16.026599
-25.752341 6.996256 -15.330067
-0.380905 0.138376 -1.596423
-0.611987 0.222324 -2.525223
-0.661413 0.240280 -3.587799
-0.324465 0.117872 -4.314450
-0.427745 0.155392 -5.278893
-0.709685 0.257816 -6.180642
-0.885376 0.321641 -7.187652
-0.908135 0.329909 -8.014595
-0.709637 0.257798 -8.980314
-0.542397 0.197043 -9.895674
-0.401777 0.145958 -11.052239
-7.393552 2.685944 -11.988758
-7.334419 2.664462 -12.778756
-7.761295 2.819539 -16.126953
-25.154973 9.138349 -15.338237
-0.392739 0.183198 -1.675782
-0.590704 0.275542 -2.536636
-0.662087 0.308839 -3.608443
-0.331148 0.154469 -4.265946
-0.430975 0.201034 -5.439377
-0.712230 0.332229 -6.385482
-0.717198 0.334547 -7.342626
-0.727882 0.339530 -8.093241
-0.677588 0.316070 -8.946158
-0.489393 0.228284 -10.170570
-0.198406 0.092549 -11.045413
-7.051332 3.289187 -12.198915
-8.235118 3.841380 -15.892472
-24.297230 11.333765 -15.350766
-0.466265 0.268406 -1.786242
-0.675377 0.388781 -2.951698
-0.650758 0.374610 -3.836205
-0.362131 0.208461 -4.527466
-0.418271 0.240778 -5.683306
-0.557169 0.320735 -6.442425
-0.518651 0.298562 -7.400157
-0.593647 0.341734 -8.270117
-0.683566 0.393495 -9.366578
-0.443716 0.255426 -10.371543
-6.989851 4.023715 -13.121383
-8.179203 4.708366 -16.159113
-23.289106 13.406396 -15.199052
-0.474315 0.328020 -2.082482
-0.591764 0.409244 -3.162118
-0.503490 0.348197 -3.964177
-0.375292 0.259539 -4.871594
-0.498754 0.344922 -6.027630
-0.645387 0.446328 -6.700381
-0.595176 0.411604 -7.672108
-0.621457 0.429779 -8.742249
-0.670662 0.463807 -9.707497
-6.490938 4.488915 -12.510868
-6.419167 4.439281 -13.209843
-6.491504 4.489307 -14.048201
-6.722403 4.648989 -15.768081
-22.334268 15.445632 -15.378643
-0.332977 0.278801 -1.698726
-0.509119 0.426284 -2.730617
-0.557152 0.466502 -3.562878
-0.321321 0.269041 -4.538942
-0.294313 0.246428 -5.509646
-0.586723 0.491261 -6.248939
-0.618012 0.517460 -7.281447
-0.538853 0.451180 -8.100897
-0.580766 0.486273 -8.991698
-0.436929 0.365839 -10.187552
-0.283921 0.237726 -10.932261
-6.065022 5.078224 -11.962970
-6.145606 5.145696 -12.775488
-6.128939 5.131741 -13.559807
-6.788786 5.684229 -15.868357
-20.570067 17.223253 -15.333282
-0.409205 0.403952 -2.048182
-0.561324 0.554118 -2.722476
-0.571295 0.563962 -3.854373
-0.322150 0.318015 -4.616536
-0.373354 0.368561 -5.805898
-0.542984 0.536014 -6.563832
-0.529511 0.522714 -7.644819
-0.518368 0.511714 -8.486667
-0.585128 0.577617 -9.514394
-0.376474 0.371642 -10.440232
-5.767835 5.693800 -13.224621
-5.831212 5.756364 -14.894506
-19.012347 18.768306 -15.036289
-0.388327 0.453731 -1.989828
-0.539142 0.629946 -2.948170
-0.467339 0.546050 -3.758741
-0.294112 0.343648 -4.837196
-0.319329 0.373111 -5.927332
-0.462074 0.539898 -6.712275
-0.437016 0.510619 -7.528383
-0.441007 0.515283 -8.615683
-0.504612 0.589601 -9.536900
-0.377376 0.440935 -10.439594
-0.602354 0.703805 -11.273393
-5.196950 6.072240 -12.421331
-16.882695 19.726143 -15.036419
-17.584139 20.545727 -15.372833
-0.308890 0.435350 -2.222308
-0.443705 0.625359 -3.124203
-0.365788 0.515541 -4.169744
-0.237501 0.334735 -5.121351
-0.327050 0.460944 -6.091936
-0.430575 0.606854 -6.917326
-0.412395 0.581230 -7.886356
-0.427222 0.602128 -8.781542
-0.453171 0.638700 -9.679041
-4.638964 6.538163 -12.561544
-4.621300 6.513268 -13.194647
-4.605356 6.490796 -14.340624
-4.707665 6.634990 -15.865016
-15.600950 21.988004 -15.146291
-0.219815 0.370360 -1.606949
-0.336288 0.566601 -2.650749
-0.393367 0.662772 -3.490354
-0.228168 0.384434 -4.327206
-0.268029 0.451593 -5.432959
-0.450685 0.759345 -6.359001
-0.363614 0.612643 -7.180419
-0.366740 0.617909 -8.310848
-0.377893 0.636700 -9.031130
-0.304671 0.513330 -10.193077
-0.312444 0.526427 -11.260549
-4.019909 6.773022 -12.017089
-4.092117 6.894682 -12.924602
-4.700619 7.919928 -16.090854
-13.717658 23.112460 -15.311102
-0.246000 0.516073 -1.979580
-0.345018 0.723797 -2.915821
-0.332466 0.697464 -3.799781
-0.194782 0.408624 -4.616536
-0.215674 0.452451 -5.634145
-0.333577 0.699794 -6.480309
-0.389779 0.817699 -7.556595
-0.383653 0.804847 -8.536246
-0.354287 0.743241 -9.406568
-0.268164 0.562568 -10.404673
-3.427952 7.191337 -13.072780
-3.483425 7.307712 -14.981826
-3.442783 7.222449 -15.631279
-11.645863 24.431300 -15.359413
-0.206585 0.551233 -2.311106
-0.272443 0.726962 -3.249379
-0.173925 0.464086 -4.310633
-0.161943 0.432113 -5.126776
-0.274170 0.731572 -6.014085
-0.279150 0.744859 -7.072516
-0.330459 0.881767 -8.019332
-0.343865 0.917540 -8.955641
-0.295502 0.788491 -9.821138
-0.286141 0.763514 -10.756125
-2.783979 7.428521 -12.624055
-3.047189 8.130848 -15.679356
-9.364938 24.988569 -15.330067
-0.121092 0.437045 -1.548664
-0.182398 0.658310 -2.637765
-0.199648 0.720568 -3.515211
-0.112411 0.405713 -4.318290
-0.126990 0.458332 -5.241399
-0.258047 0.931339 -6.241977
-0.283257 1.022328 -6.992636
-0.312752 1.128780 -8.021788
-0.287760 1.038579 -9.052823
-0.197441 0.712601 -10.037867
-0.211086 0.761848 -10.859640
-2.095712 7.563817 -11.783585
-2.093135 7.554518 -12.658360
-2.375110 8.572218 -15.837865
-7.145023 25.787728 -15.333945
-0.085741 0.450255 -1.674787
-0.133688 0.702042 -2.738756
-0.142065 0.746036 -3.651826
-0.081440 0.427670 -4.455970
-0.093876 0.492976 -5.447622
-0.188297 0.988816 -6.340121
-0.232241 1.219583 -7.159029
-0.267015 1.402193 -8.158207
-0.227683 1.195644 -9.104957
-0.139812 0.734203 -9.963720
-0.160219 0.841365 -11.012411
-1.464652 7.691411 -11.959124
-1.483825 7.792099 -12.838512
-1.484775 7.797085 -13.484161
-1.493607 7.843466 -15.288448
-1.561408 8.199511 -16.198847
-5.004950 26.282789 -15.329652
-0.051808 0.514937 -1.890351
-0.076093 0.756312 -2.667193
-0.079427 0.789445 -3.752021
-0.047955 0.476641 -4.393409
-0.049644 0.493426 -5.401806
-0.093507 0.929385 -6.525309
-0.129800 1.290113 -7.184193
-0.153397 1.524650 -8.044496
-0.137813 1.369760 -9.246332
-0.086018 0.854957 -10.213496
-0.086341 0.858164 -11.035123
-0.787313 7.825301 -12.211842
-0.783965 7.792023 -12.854422
-0.914758 9.092013 -16.114395
-2.662776 26.466007 -15.023103
-0.008298 0.647653 -1.998870
-0.011079 0.864734 -3.094029
-0.008264 0.645009 -3.776876
-0.007988 0.623504 -4.794356
-0.009020 0.703994 -5.641749
-0.012898 1.006756 -6.664698
-0.019509 1.522727 -7.594666
-0.018651 1.455729 -8.548874
-0.014857 1.159597 -9.306964
-0.010804 0.843298 -10.253535
-0.101876 7.951674 -13.035102
-0.106927 8.345867 -15.665971
-0.346458 27.041858 -15.338353
0.029440 0.423045 -1.423372
0.055222 0.793537 -2.425209
0.052413 0.753163 -3.296859
0.037859 0.544030 -4.305529
0.050043 0.719103 -5.187672
0.077154 1.108693 -6.197111
0.099186 1.425281 -6.919039
0.109459 1.572906 -7.746407
0.085179 1.224003 -8.796386
0.067088 0.964050 -9.803781
0.071065 1.021195 -10.762720
0.551211 7.920796 -12.642907
0.611689 8.789861 -15.776544
1.853462 26.633910 -15.343000
0.104279 0.659188 -1.883604
0.123711 0.782023 -2.767974
0.107302 0.678294 -3.681168
0.108781 0.687649 -4.543653
0.104837 0.662715 -5.390891
0.159201 1.006369 -6.581560
0.243838 1.541394 -7.241753
0.240804 1.522217 -8.089180
0.214066 1.353193 -9.330349
0.129736 0.820110 -10.304971
0.140976 0.891165 -11.279936
1.210980 7.655071 -12.262884
1.215854 7.685880 -13.077945
1.237118 7.820299 -13.775141
1.422431 8.991731 -15.985226
4.217642 26.661327 -15.322168
0.189625 0.766522 -2.322844
0.168905 0.682763 -3.277999
0.138766 0.560934 -4.128972
0.161151 0.651419 -4.985486
0.256929 1.038586 -6.087853
0.364046 1.471584 -6.984829
0.406818 1.644482 -7.827985
0.342196 1.383260 -8.765898
0.272462 1.101374 -9.645064
1.877447 7.589208 -12.526908
2.064157 8.343945 -15.787433
6.408446 25.904874 -15.330067
0.220785 0.651984 -1.791265
0.291822 0.861755 -2.657627
0.243587 0.719318 -3.651826
0.250019 0.738311 -4.615200
0.263864 0.779197 -5.394450
0.386270 1.140662 -6.309912
0.556849 1.644388 -7.371311
0.532888 1.573631 -8.181204
0.472663 1.395783 -9.107063
0.342898 1.012586 -10.018413
0.318288 0.939911 -11.037062
2.503325 7.392371 -12.116131
2.949424 8.709712 -15.829700
8.651121 25.546943 -15.301009
0.335090 0.761088 -2.172355
0.302426 0.686899 -3.239935
0.238838 0.542471 -4.023678
0.316503 0.718870 -5.098808
0.485888 1.103593 -5.803518
0.669040 1.519585 -6.788426
0.701243 1.592729 -7.669402
0.580544 1.318586 -8.598765
0.526910 1.196766 -9.616560
0.512579 1.164218 -10.422702
0.408018 0.926728 -11.493299
3.195254 7.257357 -12.614628
3.219571 7.312587 -13.550396
3.214834 7.301829 -14.387709
3.238266 7.355049 -15.220488
3.246849 7.374544 -15.935115
10.966458 24.908033 -15.368279
0.277537 0.506541 -1.521198
0.394854 0.720659 -2.446490
0.325699 0.594441 -3.578532
0.303023 0.553054 -4.400648
0.466776 0.851926 -5.375196
0.596496 1.088680 -6.051160
0.765051 1.396315 -7.132662
0.778616 1.421072 -7.842115
0.692708 1.264281 -8.961560
0.600672 1.096303 -10.022285
0.513411 0.937040 -10.835551
3.789690 6.916664 -12.715882
3.858454 7.042166 -13.719485
3.845608 7.018722 -14.576455
4.140984 7.557820 -16.070285
12.819992 23.398109 -15.252180
0.510047 0.771172 -2.031104
0.522708 0.790315 -2.848701
0.403985 0.610810 -3.906840
0.403290 0.609759 -4.632088
0.691592 1.045662 -5.601922
1.011557 1.529436 -6.452279
1.033652 1.562843 -7.289231
0.817362 1.235820 -8.426850
0.743729 1.124490 -9.347102
0.523435 0.791414 -10.263631
4.359143 6.590860 -12.166914
4.361100 6.593819 -13.052752
4.307177 6.512289 -14.038576
4.428063 6.695065 -15.506373
14.897554 22.524541 -15.334850
0.611976 0.767961 -2.175867
0.555546 0.697147 -3.114871
0.291159 0.365372 -4.024162
0.512724 0.643411 -4.990465
1.010194 1.267679 -5.881657
1.239137 1.554977 -6.779330
1.222335 1.533892 -9.557252
0.853323 1.070824 -10.601244
0.760356 0.954160 -11.399461
4.909695 6.161112 -12.398566
5.026938 6.308238 -14.010555
5.079547 6.374257 -15.778516
16.968145 21.293101 -15.415188
0.552847 0.584509 -1.569894
0.724153 0.765627 -2.557646
0.521280 0.551135 -3.342394
0.458773 0.485048 -4.512132
0.815993 0.862726 -5.484747
1.153301 1.219353 -6.100833
1.269971 1.342705 -7.145157
0.985533 1.041976 -8.063764
0.859971 0.909223 -9.144574
0.844039 0.892378 -9.932267
0.746772 0.789541 -10.806639
5.403136 5.712584 -11.979313
5.473657 5.787144 -13.625196
6.118403 6.468815 -16.204808
17.646297 18.656933 -15.094851
0.696471 0.614091 -2.110466
0.707266 0.623610 -2.780708
0.575688 0.507595 -3.742881
0.857123 0.755741 -4.929270
1.250590 1.102668 -5.489053
1.533141 1.351798 -6.656650
1.452840 1.280996 -7.357847
1.095937 0.966308 -8.326150
1.042094 0.918833 -9.302397
0.792295 0.698581 -10.177155
5.992442 5.283645 -12.411920
5.993221 5.284331 -13.344354
6.278876 5.536199 -15.778844
20.314051 17.911265 -15.341779
0.873576 0.648399 -2.283576
0.816576 0.606092 -3.116852
0.789975 0.586347 -4.169025
1.131073 0.839522 -5.045391
1.477428 1.096600 -5.997360
1.607527 1.193163 -6.708948
1.530933 1.136312 -7.741319
1.295085 0.961258 -8.807442
1.191042 0.884033 -9.599148
6.312730 4.685531 -12.500477
6.224006 4.619678 -13.349724
6.644552 4.931821 -15.868644
0.622571 0.381242 -1.584107
0.896949 0.549261 -2.523737
0.905860 0.554718 -3.374953
0.927647 0.568060 -4.443968
1.251842 0.766586 -5.117635
1.782877 1.091774 -6.151932
1.840850 1.127274 -6.886627
1.403956 0.859735 -7.975850
1.139841 0.698000 -8.949210
1.132808 0.693693 -9.813221
1.177580 0.721110 -10.646105
6.734807 4.124167 -12.744195
6.778301 4.150801 -13.512434
6.890856 4.219726 -14.566038
7.342572 4.496342 -15.994906
22.498373 13.777240 -14.973222
0.718775 0.362416 -1.581265
1.053018 0.530946 -2.561216
1.087762 0.548464 -3.441588
1.142431 0.576029 -4.355188
1.486083 0.749303 -5.466782
1.847670 0.931620 -6.177747
1.850642 0.933119 -7.264936
1.543496 0.778252 -8.005959
1.418182 0.715067 -9.046507
1.326054 0.668615 -10.036287
1.172159 0.591019 -10.879743
7.040505 3.549919 -12.268497
7.010865 3.534974 -13.051507
7.037841 3.548576 -13.887902
7.876604 3.971492 -15.973863
23.963092 12.082519 -15.341827
0.876134 0.351925 -1.916566
1.092640 0.438891 -2.912200
1.209820 0.485959 -3.842056
1.353997 0.543872 -4.619336
1.688918 0.678403 -5.683256
1.889978 0.759165 -6.612515
1.606984 0.645492 -7.486966
1.347411 0.541227 -8.281379
1.450936 0.582811 -9.392135
1.121236 0.450377 -10.271257
7.419024 2.980067 -13.148089
7.645133 3.070890 -15.489760
25.131103 10.094640 -15.341779
1.065034 0.329217 -2.316059
1.131919 0.349892 -3.013612
1.271559 0.393057 -4.122827
1.543643 0.477162 -4.884203
1.866709 0.577026 -5.912784
1.834977 0.567217 -6.676945
1.613423 0.498732 -7.529388
1.503392 0.464720 -8.501065
1.529414 0.472764 -9.442321
7.620806 2.355699 -12.597489
7.539157 2.330460 -13.295930
7.934934 2.452800 -15.696143
26.014257 8.041375 -15.346389
0.814320 0.173497 -1.648497
1.195548 0.254721 -2.445565
1.259125 0.268266 -3.367928
1.344002 0.286350 -4.299822
1.668991 0.355592 -5.404529
1.809186 0.385461 -6.063881
1.687176 0.359466 -7.166796
1.495077 0.318538 -7.894477
1.534342 0.326903 -8.840296
1.449627 0.308854 -9.918523
1.423507 0.303289 -10.734343
7.728958 1.646715 -12.092598
7.713690 1.643462 -12.715882
7.822896 1.666729 -13.775618
7.751399 1.651496 -14.520521
8.603546 1.833053 -16.154720
26.193440 5.580717 -15.320788
0.957157 0.119357 -1.813476
1.197793 0.149364 -2.604714
1.349665 0.168302 -3.633191
1.484902 0.185166 -4.501941
1.757281 0.219131 -5.509054
1.786965 0.222833 -6.241483
1.610171 0.200787 -7.161813
1.547090 0.192921 -8.050844
1.568722 0.195618 -8.896099
1.505921 0.187787 -10.063877
1.377087 0.171722 -11.064074
7.864670 0.980717 -12.158621
9.230672 1.151057 -15.879031
26.660776 3.324576 -15.337129
1.154213 0.042048 -2.132884
1.360040 0.049546 -3.023319
1.451118 0.052864 -3.816933
1.554979 0.056647 -4.585821
1.715253 0.062486 -5.663728
1.677391 0.061107 -6.431259
1.618624 0.058966 -7.288792
1.665071 0.060658 -8.330931
1.681779 0.061267 -9.353051
1.264398 0.046062 -10.292926
7.957724 0.289898 -13.063362
8.271470 0.301327 -15.573802
27.035534 0.984897 -15.312320
1.283903 -0.069171 -2.238847
1.443743 -0.077782 -3.152189
1.486446 -0.080083 -3.937661
1.583283 -0.085300 -4.842541
1.712364 -0.092254 -5.652606
1.688407 -0.090964 -6.509174
1.594290 -0.085893 -7.442626
1.615567 -0.087039 -8.468599
1.627968 -0.087707 -9.458989
1.441337 -0.077653 -10.284136
1.816821 -0.097882 -11.222000
7.859929 -0.423457 -12.305183
8.047246 -0.433548 -13.926028
8.194911 -0.441504 -15.900192
27.099753 -1.460009 -15.327470
0.939711 -0.125150 -1.382959
1.383538 -0.184259 -2.412796
1.528591 -0.203577 -3.414587
1.589405 -0.211677 -4.084272
1.735254 -0.231101 -5.161398
1.699618 -0.226355 -6.004477
1.596924 -0.212678 -6.796624
1.663384 -0.221529 -7.877229
1.660341 -0.221124 -8.619457
1.640636 -0.218500 -9.782429
7.829060 -1.042673 -12.818912
7.770706 -1.034901 -13.370101
7.831563 -1.043006 -14.331495
7.840553 -1.044203 -15.118836
8.252558 -1.099074 -16.094997
26.449329 -3.522516 -15.291113
1.105823 -0.247865 -1.659200
1.415228 -0.317216 -2.488232
1.523666 -0.341522 -3.345529
1.652973 -0.370506 -4.468985
1.710635 -0.383430 -5.375739
1.649171 -0.369653 -6.178749
1.613110 -0.361571 -7.190919
1.517678 -0.340180 -7.900913
1.568801 -0.351639 -8.901940
1.478164 -0.331323 -10.052700
1.489876 -0.333948 -10.906900
7.679047 -1.721220 -11.998203
7.634914 -1.711328 -12.835511
8.761071 -1.963751 -15.955305
26.178926 -5.867876 -15.333282
1.414590 -0.455376 -2.239183
1.585000 -0.510233 -3.068152
1.577756 -0.507901 -3.865249
1.659936 -0.534356 -4.902721
1.722263 -0.554420 -5.605589
1.715386 -0.552206 -6.571125
1.625217 -0.523179 -7.629531
1.499271 -0.482636 -8.384406
1.512983 -0.487050 -9.280572
1.376667 -0.443168 -11.373160
7.544091 -2.428546 -12.456162
7.553113 -2.431450 -13.409116
7.509540 -2.417423 -13.972753
7.734015 -2.489685 -15.722291
25.821570 -8.312315 -15.314898
0.921822 -0.383358 -1.392614
1.303006 -0.541880 -2.243272
1.431053 -0.595131 -3.200373
1.533713 -0.637824 -4.157271
1.600979 -0.665798 -5.028018
1.574157 -0.654643 -5.937735
1.543294 -0.641808 -7.004169
1.523878 -0.633734 -7.732458
1.590560 -0.661465 -8.841993
1.459466 -0.606947 -9.576360
7.253484 -3.016501 -12.630890
7.567057 -3.146906 -14.960613
7.627532 -3.172056 -15.897837
24.613001 -10.235789 -15.299851
1.192891 -0.617482 -1.886913
1.444346 -0.747643 -2.880565
1.459136 -0.755299 -3.709288
1.427093 -0.738713 -4.591407
1.490834 -0.771707 -5.385548
1.556432 -0.805663 -6.419587
1.434111 -0.742346 -7.117219
1.384573 -0.716703 -8.050844
1.438751 -0.744747 -9.074557
1.129310 -0.584570 -10.005139
0.934887 -0.483930 -11.069432
6.948832 -3.596956 -12.172885
6.957071 -3.601221 -13.004251
6.973449 -3.609699 -13.746413
8.160182 -4.223993 -15.989192
23.972668 -12.409084 -15.287691
1.154715 -0.738762 -1.941851
1.290668 -0.825742 -2.965806
1.337782 -0.855884 -3.928104
1.338006 -0.856028 -4.649986
1.474518 -0.943365 -5.726973
1.464741 -0.937110 -6.649784
1.374343 -0.879275 -7.632175
1.347375 -0.862021 -8.379388
1.366810 -0.874456 -9.425549
0.990319 -0.633585 -10.243487
0.481409 -0.307995 -11.492464
6.644621 -4.251086 -12.352389
6.600427 -4.222811 -13.360648
6.609302 -4.228490 -14.133131
6.877639 -4.400166 -15.749356
22.871315 -14.632576 -15.340032
0.798074 -0.607753 -1.528420
1.148584 -0.874674 -2.376278
1.247396 -0.949922 -3.109133
1.309106 -0.996916 -4.001322
1.376193 -1.048004 -4.994665
1.336041 -1.017427 -5.759676
1.310200 -0.997749 -6.859380
1.324825 -1.008886 -7.810424
1.341974 -1.021945 -8.675115
1.268602 -0.966071 -9.526048
0.940705 -0.716370 -10.577331
6.227673 -4.742524 -12.480601
6.547989 -4.986452 -14.978661
6.561787 -4.996960 -15.869820
21.200711 -16.144855 -15.291207
0.855071 -0.772299 -1.500347
1.071878 -0.968118 -2.387474
1.156098 -1.044186 -3.300870
1.216767 -1.098982 -4.193233
1.272884 -1.149666 -5.278924
1.247247 -1.126511 -6.282696
1.177052 -1.063111 -6.949914
1.170337 -1.057046 -8.012543
1.200340 -1.084144 -8.946541
1.059943 -0.957339 -9.801237
0.887552 -0.801635 -10.730029
5.914323 -5.341805 -12.867483
6.712141 -6.062393 -16.035856
19.897366 -17.971262 -15.316178
0.914868 -0.992225 -2.021588
1.076307 -1.167314 -2.681528
1.089458 -1.181577 -3.588895
1.083408 -1.175016 -4.513336
1.135299 -1.231295 -5.544725
1.104610 -1.198011 -6.279157
1.073204 -1.163949 -7.226240
1.105068 -1.198508 -8.152681
1.115076 -1.209362 -9.186006
0.880601 -0.955061 -10.117535
5.498841 -5.963799 -13.103579
5.348753 -5.801020 -13.774954
6.222752 -6.748921 -15.971021
18.256446 -19.800131 -15.331858
0.871783 -1.116859 -2.344112
0.897758 -1.150136 -2.993606
0.961888 -1.232293 -3.930493
1.019026 -1.305494 -4.800312
1.055025 -1.351613 -6.004477
1.022768 -1.310288 -6.799563
1.010333 -1.294357 -7.687893
1.033094 -1.323517 -8.758254
0.985957 -1.263129 -9.559511
16.754120 -21.464033 -15.346389
0.658514 -1.008776 -1.566106
0.799743 -1.225125 -2.689704
0.863849 -1.323329 -3.568763
0.907115 -1.389607 -4.382617
0.929583 -1.424026 -5.360027
0.890411 -1.364019 -6.108224
0.878492 -1.345760 -7.072616
0.866840 -1.327910 -8.057178
0.876176 -1.342212 -8.879636
0.807304 -1.236708 -10.002728
0.696631 -1.067168 -10.733658
4.281665 -6.559074 -11.968578
4.319888 -6.617628 -12.903107
4.270381 -6.541789 -13.576526
4.861324 -7.447054 -15.950888
14.697802 -22.515536 -15.358430
0.642458 -1.213367 -1.986715
0.715851 -1.351978 -2.932288
0.731999 -1.382477 -3.671418
0.746862 -1.410548 -4.716921
0.817073 -1.543151 -5.512405
0.815981 -1.541089 -6.523528
0.738620 -1.394981 -7.342212
0.745279 -1.407558 -8.345924
0.756354 -1.428474 -9.286191
0.640971 -1.210558 -10.195367
3.677124 -6.944733 -12.192949
3.669016 -6.929421 -13.304410
3.816582 -7.208118 -15.730627
12.606113 -23.808307 -15.125088
0.545462 -1.271764 -2.199785
0.574795 -1.340155 -2.982414
0.615776 -1.435705 -3.919329
0.691092 -1.611306 -4.980513
0.726099 -1.692927 -5.838526
0.656763 -1.531266 -6.513112
0.618022 -1.440940 -7.563230
0.648751 -1.512586 -8.602340
0.648182 -1.511259 -9.408791
0.569409 -1.327598 -10.391007
0.521710 -1.216386 -11.491831
3.130577 -7.299054 -12.428842
3.200710 -7.462572 -14.076172
3.254126 -7.587114 -15.945730
10.712767 -24.977205 -15.330719
0.356422 -1.099244 -1.590551
0.426389 -1.315032 -2.604911
0.446055 -1.375683 -3.467680
0.480435 -1.481715 -4.370957
0.509339 -1.570857 -5.173964
0.484730 -1.494962 -6.230948
0.452981 -1.397045 -6.854791
0.471483 -1.454106 -7.894477
0.497378 -1.533968 -8.924242
0.437996 -1.350828 -9.874270
0.425629 -1.312687 -10.742106
2.420974 -7.466554 -12.015837
2.434471 -7.508178 -12.660085
2.476706 -7.638436 -13.719485
2.458336 -7.581780 -14.368879
2.681886 -8.271235 -15.999780
8.270045 -25.505738 -15.281611
0.283411 -1.202531 -1.711460
0.314800 -1.335715 -2.830849
0.338333 -1.435569 -3.792243
0.365835 -1.552261 -4.705766
0.389434 -1.652393 -5.337773
0.384637 -1.632039 -6.420127
0.360927 -1.531435 -7.170442
0.369359 -1.567215 -8.179875
0.378499 -1.605994 -9.208288
0.281815 -1.195758 -10.039442
0.262268 -1.112820 -11.117764
1.848480 -7.843221 -13.102600
1.787008 -7.582389 -13.793005
1.850443 -7.851548 -15.533687
6.195125 -26.286313 -15.300372
0.200880 -1.352709 -2.358177
0.218792 -1.473320 -3.385190
0.242030 -1.629804 -4.271226
0.251253 -1.691911 -5.042203
0.239274 -1.611250 -6.108224
0.218500 -1.471359 -6.966661
0.228931 -1.541595 -7.784555
0.241288 -1.624809 -8.707796
0.216345 -1.456849 -9.554400
1.171533 -7.888985 -12.811690
1.294754 -8.718743 -15.842285
3.920098 -26.397548 -15.295426
0.067388 -1.181301 -1.657196
0.081946 -1.436505 -2.702537
0.088365 -1.549033 -3.526270
0.094785 -1.661581 -4.427165
0.101005 -1.770606 -5.339151
0.091458 -1.603256 -6.123072
0.084625 -1.483467 -7.105104
0.088950 -1.559278 -7.934408
0.092676 -1.624604 -8.991132
0.083029 -1.455498 -9.924399
0.075298 -1.319967 -10.817221
0.446476 -7.826695 -11.987484
0.527709 -9.250695 -15.918735
1.433706 -25.132746 -15.540968
1.522979 -26.697687 -15.135366
-0.030847 -1.174433 -2.030175
-0.034191 -1.301733 -2.903413
-0.037921 -1.443746 -3.998425
-0.041806 -1.591678 -4.683455
-0.041654 -1.585859 -5.636296
-0.038723 -1.474268 -6.738818
-0.039338 -1.497701 -7.460528
-0.041938 -1.596697 -8.368234
-0.042907 -1.633595 -9.364219
-0.056709 -2.159050 -11.045291
-0.208621 -7.942736 -12.438265
-0.205066 -7.807377 -13.153658
-0.214300 -8.158967 -15.682768
-0.711921 -27.104647 -15.302315
-0.155323 -1.323598 -2.180003
-0.161447 -1.375787 -3.337358
-0.167772 -1.429685 -4.202453
-0.185217 -1.578343 -5.079852
-0.189484 -1.614703 -5.915099
-0.176904 -1.507507 -6.996005
-0.167974 -1.431411 -7.702484
-0.178390 -1.520165 -8.661617
-0.163560 -1.393793 -9.476104
-0.913920 -7.788057 -12.518415
-1.022285 -8.711501 -15.750363
-3.106311 -26.470731 -15.295529
-0.198609 -0.986334 -1.607633
-0.247295 -1.228119 -2.534079
-0.248848 -1.235832 -3.347472
-0.272190 -1.351751 -4.344681
-0.315543 -1.567055 -5.350745
-0.321546 -1.596868 -6.108224
-0.230097 -1.142713 -7.160579
-0.221958 -1.102289 -8.042599
-0.311583 -1.547389 -8.884940
-0.265407 -1.318067 -9.987452
-0.234101 -1.162595 -10.889135
-1.836626 -9.121073 -15.766987
-5.295315 -26.297658 -15.294440
-0.283459 -0.950168 -1.857665
-0.364234 -1.220927 -2.860201
-0.384945 -1.290350 -3.476097
-0.422448 -1.416061 -4.560609
-0.484149 -1.622886 -5.496851
-0.490914 -1.645564 -8.077518
-0.409350 -1.372157 -9.034100
-0.294862 -0.988391 -10.075406
-2.248505 -7.537078 -12.874070
-2.218979 -7.438105 -13.924971
-2.308484 -7.738132 -15.552466
-7.718110 -25.871414 -15.291919
-0.390991 -1.000145 -2.012488
-0.421401 -1.077934 -2.981608
-0.438069 -1.120570 -3.840080
-0.557315 -1.425597 -4.803730
-0.659324 -1.686535 -5.616686
-0.621503 -1.589788 -6.609315
-0.516408 -1.320958 -7.579282
-0.521164 -1.333124 -8.553972
-0.531527 -1.359632 -9.498449
-9.895390 -25.312160 -15.330719
-0.395319 -0.791106 -1.691917
-0.519515 -1.039647 -2.686779
-0.527408 -1.055443 -3.580981
-0.627786 -1.256317 -4.580103
-0.760816 -1.522535 -5.371153
-0.821364 -1.643702 -6.315328
-0.667220 -1.335231 -7.288368
-0.565324 -1.131320 -8.237286
-0.654500 -1.309777 -9.179638
-0.456356 -0.913254 -10.137876
-0.446309 -0.893148 -11.156706
-3.511551 -7.027272 -12.034734
-4.192617 -8.390213 -15.808790
-12.033632 -24.081552 -15.284604
-0.559428 -0.920547 -2.080268
-0.601065 -0.989061 -2.981608
-0.416903 -0.686020 -3.854373
-0.586912 -0.965771 -5.033780
-0.960506 -1.580526 -5.713056
-0.896496 -1.475197 -6.571961
-0.593158 -0.976050 -7.735242
-0.527842 -0.868571 -8.522438
-0.695475 -1.144413 -9.420001
-4.151452 -6.831273 -12.644551
-4.463921 -7.345445 -15.787433
-14.129960 -23.251046 -15.325552
-0.563378 -0.774216 -1.643556
-0.619655 -0.851553 -2.546344
-0.362740 -0.498491 -3.445750
-0.536214 -0.736885 -4.439958
-1.010165 -1.388207 -5.482392
-1.044700 -1.435666 -6.404591
-0.968657 -1.331165 -7.295546
-0.868782 -1.193913 -8.276435
-0.850111 -1.168254 -9.207489
-0.873683 -1.200648 -10.846235
-4.560284 -6.266913 -12.188252
-5.513063 -7.576259 -15.846669
-15.854524 -21.787882 -15.310075
-0.592758 -0.675248 -2.009634
-0.673443 -0.767161 -2.820949
-0.426918 -0.486329 -3.799703
-1.139505 -1.298081 -5.741572
-1.118849 -1.274551 -8.475643
-0.877598 -0.999726 -9.492955
-1.150364 -1.310451 -11.039821
-5.226101 -5.953377 -12.372280
-5.364543 -6.111085 -14.038587
-5.380727 -6.129522 -15.730627
-17.890869 -20.380603 -15.272108
-0.472223 -0.455280 -1.609772
-0.632418 -0.609726 -2.557075
-0.385322 -0.371497 -3.371797
-0.306488 -0.295491 -4.364188
-0.824271 -0.794695 -5.352732
-1.243865 -1.199235 -6.093443
-1.158358 -1.116795 -7.083767
-0.852143 -0.821567 -7.820802
-0.881341 -0.849718 -9.020796
-0.724977 -0.698964 -9.758352
-0.747533 -0.720711 -10.819264
-5.645985 -5.443403 -11.996936
-5.744915 -5.538784 -12.895729
-5.804148 -5.595892 -14.264525
-6.241531 -6.017581 -15.887674
-19.059613 -18.375742 -14.927026
-0.568795 -0.464722 -1.698011
-0.655679 -0.535709 -2.445025
-0.368318 -0.300926 -3.561203
-0.254512 -0.207944 -4.397507
-0.763580 -0.623867 -5.292748
-1.233540 -1.007837 -6.204875
-1.286829 -1.051376 -8.796913
-0.717101 -0.585892 -10.065007
-0.708162 -0.578588 -10.839485
-6.149921 -5.024660 -12.792119
-7.002666 -5.721377 -15.857605
-20.790609 -16.986518 -15.281250
-0.594433 -0.401519 -1.881355
-0.655473 -0.442750 -2.756600
-0.391730 -0.264600 -3.526821
-0.376162 -0.254085 -4.628002
-0.908926 -0.613949 -5.370442
-1.361781 -0.919837 -6.368307
-1.476115 -0.997065 -7.340207
-1.214255 -0.820188 -8.220490
-0.947665 -0.640115 -9.002978
-1.140557 -0.770407 -10.826948
-6.536865 -4.415429 -12.203529
-6.564414 -4.434038 -12.810227
-7.803396 -5.270928 -16.001961
-22.325730 -15.080270 -15.305833
-0.589796 -0.330332 -2.066115
-0.542450 -0.303815 -2.848090
-0.167269 -0.093684 -3.759633
-0.351303 -0.196757 -4.842910
-0.698141 -0.391014 -5.790964
-0.957406 -0.536223 -6.754442
-0.997810 -0.558852 -7.466800
-0.815880 -0.456957 -8.373870
-0.920040 -0.515295 -9.295023
-1.658520 -0.928902 -11.235275
-6.823630 -3.821772 -12.237926
-7.084913 -3.968111 -13.944795
-7.068942 -3.959166 -15.551554
-23.664521 -13.254001 -15.276302
-0.441634 -0.197500 -1.685250
-0.702166 -0.314010 -2.403900
-0.486103 -0.217386 -3.337464
-0.233280 -0.104324 -4.172348
-0.567446 -0.253764 -5.199994
-1.274735 -0.570065 -6.074234
-1.378908 -0.616652 -7.100837
-1.030459 -0.460824 -8.065165
-1.003856 -0.448927 -9.036195
-0.756316 -0.338227 -9.980407
-0.832101 -0.372118 -10.828144
-7.423344 -3.319740 -12.657794
-7.337155 -3.281196 -13.738283
-7.231263 -3.233841 -14.511091
-7.815258 -3.495005 -15.950066
-24.408780 -10.915675 -15.312468
-0.655869 -0.223408 -1.893881
-0.655010 -0.223115 -2.774596
-0.350422 -0.119364 -3.500717
-0.521404 -0.177605 -4.594182
-0.954195 -0.325026 -5.462521
-1.270022 -0.432606 -6.380840
-1.492261 -0.508307 -7.331052
-1.159129 -0.394833 -8.163406
-0.947214 -0.322649 -9.283332
-1.236652 -0.421239 -10.953545
-7.295385 -2.485019 -12.139612
-8.942809 -3.046179 -16.065086
-24.774126 -8.438783 -15.334746
-25.486937 -8.681587 -15.288852
-0.536668 -0.132839 -2.106601
-0.481470 -0.119176 -3.190553
-0.222805 -0.055150 -4.163278
-0.381041 -0.094317 -4.972103
-0.860827 -0.213076 -6.045213
-1.041245 -0.257734 -6.758467
-0.960341 -0.237708 -7.869321
-0.755717 -0.187059 -8.606884
-0.805686 -0.199427 -9.548488
-7.666877 -1.897744 -12.380702
-8.381382 -2.074602 -15.870600
-26.436044 -6.543584 -15.316184
-0.560657 -0.092278 -2.392532
-0.506415 -0.083351 -3.085618
-0.213262 -0.035101 -4.024926
-0.324656 -0.053435 -5.072913
-0.967826 -0.159294 -5.996871
-1.333060 -0.219408 -6.909056
-0.977331 -0.160858 -7.740180
-0.795637 -0.130954 -8.981169
-0.759157 -0.124949 -9.730218
-0.753260 -0.123979 -10.854557
-7.829273 -1.288616 -12.773268
-8.657973 -1.425012 -15.816146
-25.948911 -4.270919 -14.919685
-0.406623 -0.032622 -1.665299
-0.560942 -0.045003 -2.714258
-0.470250 -0.037727 -3.515360
-0.311271 -0.024972 -4.480642
-0.609182 -0.048873 -5.317328
-1.158790 -0.092966 -6.200980
-1.478008 -0.118576 -7.232447
-1.122822 -0.090080 -8.182808
-0.772223 -0.061953 -9.071366
-0.853741 -0.068493 -11.012411
-7.798051 -0.625612 -11.940212
-7.915256 -0.635015 -12.717491
-9.188609 -0.737172 -15.818968
-26.788946 -2.149189 -15.237801
-0.662854 0.006686 -1.780926
-0.657409 0.006631 -2.627928
-0.456573 0.004605 -3.632112
-0.444442 0.004483 -4.768389
-0.485992 0.004902 -5.519590
-0.981822 0.009903 -6.343897
-1.319231 0.013306 -7.168669
-0.919012 0.009269 -8.164922
-0.773424 0.007801 -9.298316
-0.859663 0.008671 -11.218360
-8.193781 0.082643 -13.860444
-8.050290 0.081195 -14.878552
-8.133037 0.082030 -15.741037
-26.701349 0.269311 -14.950186
-0.676490 0.063233 -2.134546
-0.646204 0.060402 -2.880633
-0.427493 0.039959 -3.888890
-0.430913 0.040278 -4.885944
-0.771947 0.072156 -5.608960
-1.202278 0.112380 -6.493921
-1.100068 0.102826 -7.392234
-0.776322 0.072565 -8.488090
-0.697220 0.065171 -9.314628
-7.773774 0.726634 -12.200089
-8.081432 0.755391 -13.935419
-8.079671 0.755227 -15.579690
-27.030575 2.526614 -15.301441
-0.443257 0.078944 -1.456929
-0.728873 0.129812 -2.337012
-0.685196 0.122033 -3.496605
-0.245422 0.043709 -4.359200
-0.472467 0.084146 -5.275778
-1.118498 0.199203 -6.193409
-1.195652 0.212945 -7.001456
-0.897224 0.159795 -7.860608
-0.695435 0.123856 -9.110095
-0.333930 0.059473 -9.866898
-0.111380 0.019837 -11.134814
-7.723339 1.375519 -12.155154
-8.067717 1.436852 -14.451467
-8.546134 1.522058 -16.085759
-26.423428 4.705987 -15.272710
-0.622709 0.170204 -1.953215
-0.663423 0.181332 -3.072792
-0.465270 0.127171 -3.918665
-0.316531 0.086517 -4.851482
-0.446149 0.121945 -5.721051
-0.970785 0.265343 -6.502363
-0.982558 0.268561 -7.477697
-0.650891 0.177907 -8.473811
-0.727599 0.198873 -9.553856
-7.398123 2.022116 -12.259351
-7.454101 2.037416 -13.076607
-7.971813 2.178922 -15.726338
-26.167686 7.152368 -15.280494
-0.354959 0.129141 -1.528451
-0.511738 0.186180 -2.416840
-0.605425 0.220265 -3.477945
-0.270091 0.098264 -4.483283
-0.365925 0.133130 -5.357146
-0.783359 0.285001 -6.366554
-0.719481 0.261761 -7.194715
-0.667005 0.242669 -8.004988
-0.693468 0.252297 -9.019741
-0.354293 0.128899 -9.918647
-0.137606 0.050064 -11.163116
-7.302912 2.656939 -12.095965
-8.564678 3.115993 -15.890839
-24.009486 8.735109 -14.947497
-25.151763 9.150691 -15.303632
-0.440807 0.208337 -1.776911
-0.560717 0.265010 -2.825248
-0.523626 0.247480 -3.598490
-0.287886 0.136063 -4.538163
-0.388745 0.183731 -5.667063
-0.568624 0.268747 -6.351092
-0.527965 0.249530 -7.461666
-0.573344 0.270978 -8.398871
-0.574641 0.271591 -9.137486
-1.511174 0.714221 -11.155066
-8.660136 4.093012 -15.934740
-24.362958 11.514586 -15.275581
-0.477148 0.275865 -2.072282
-0.596136 0.344658 -3.084194
-0.430908 0.249131 -3.813266
-0.298020 0.172301 -4.989463
-0.423762 0.245000 -5.915876
-0.527597 0.305032 -6.552866
-0.526885 0.304620 -7.598796
-0.626767 0.362368 -8.713198
-0.615049 0.355593 -9.360219
-6.948343 4.017207 -13.018027
-7.133531 4.124275 -15.613201
-23.484980 13.577919 -15.280494
-0.460924 0.320170 -2.266735
-0.514783 0.357582 -3.261026
-0.217489 0.151074 -4.008670
-0.133310 0.092601 -4.940763
-0.437408 0.303835 -5.863128
-0.525844 0.365265 -6.747001
-0.511712 0.355449 -7.950587
-0.524018 0.363997 -8.790704
-0.354450 0.246211 -9.712262
-0.225490 0.156631 -10.760679
-7.200109 5.001388 -15.562409
-21.828079 15.162366 -15.217554
-0.375967 0.315060 -1.845652
-0.540515 0.452952 -2.590602
-0.550879 0.461637 -3.758741
-0.265008 0.222077 -4.558481
-0.312061 0.261508 -5.494924
-0.492749 0.412924 -6.442425
-0.438779 0.367697 -7.251562
-0.480798 0.402909 -8.364617
-0.529749 0.443930 -9.388488
-0.357599 0.299668 -10.079213
-20.706603 17.352152 -15.274363
-0.318399 0.315066 -2.008411
-0.446428 0.441755 -2.939447
-0.272841 0.269985 -3.939436
-0.124087 0.122789 -5.044661
-0.302500 0.299334 -5.819599
-0.412202 0.407887 -6.686375
-0.442972 0.438336 -7.678751
-0.452317 0.447583 -8.660024
-0.430368 0.425863 -9.575895
-0.331515 0.394108 -1.833105
-0.476580 0.566562 -2.748509
-0.473479 0.562876 -3.665394
-0.239371 0.284566 -4.567282
-0.272298 0.323710 -5.422847
-0.418545 0.497569 -6.324518
-0.387835 0.461061 -7.423010
-0.382004 0.454130 -8.193262
-0.462266 0.549546 -9.394405
-0.355374 0.422472 -10.325238
-5.367969 6.381489 -14.599549
-17.385349 20.667857 -15.265915
-0.316664 0.446356 -1.992200
-0.412863 0.581953 -3.082355
-0.242804 0.342246 -4.051879
-0.143308 0.202000 -5.024262
-0.251484 0.354480 -5.701480
-0.351939 0.496077 -6.705286
-0.365187 0.514752 -7.582916
-0.379634 0.535115 -8.632138
-0.361414 0.509433 -9.547486
-4.601538 6.486122 -12.531562
-4.663052 6.572829 -13.926028
-4.721813 6.655656 -15.739992
-15.745983 22.194834 -15.295354
-0.296659 0.514401 -2.402536
-0.331555 0.574911 -3.086033
-0.160463 0.278241 -4.072966
-0.210676 0.365309 -5.213164
-0.401086 0.695476 -6.161948
-0.335713 0.582120 -6.940991
-0.313435 0.543491 -7.973426
-0.328583 0.569757 -8.762747
-0.300553 0.521154 -9.781383
-0.293043 0.508131 -10.668992
-4.450855 7.717706 -15.808888
-13.317129 23.091671 -15.299851
-0.195177 0.411261 -1.594529
-0.308666 0.650394 -2.418170
-0.297585 0.627046 -3.473804
-0.112021 0.236040 -4.229946
-0.169467 0.357086 -5.403079
-0.351489 0.740629 -6.275636
-0.353272 0.744384 -7.091068
-0.311113 0.655551 -7.954720
-0.310144 0.653510 -9.070595
-0.218447 0.460293 -9.935807
-0.250872 0.528617 -10.864317
-3.381104 7.124379 -12.045411
-3.878495 8.172439 -15.688767
-11.374140 23.966631 -15.057198
-0.134551 0.357092 -1.631829
-0.201511 0.534797 -2.449706
-0.231693 0.614901 -3.327554
-0.146463 0.388705 -4.504513
-0.179996 0.477698 -5.318470
-0.334454 0.887622 -6.291022
-0.377427 1.001669 -7.049133
-0.358762 0.952134 -8.016434
-0.298130 0.791220 -9.044073
-0.193014 0.512248 -9.987264
-0.198827 0.527676 -10.882026
-2.778063 7.372814 -12.100846
-3.253702 8.635132 -15.781020
-9.400694 24.948888 -15.088019
-0.133651 0.491372 -1.695700
-0.192011 0.705934 -2.611837
-0.195174 0.717562 -3.756501
-0.147226 0.541280 -4.685690
-0.083057 0.305361 -5.378115
-0.163636 0.601612 -6.480491
-0.292494 1.075360 -7.157828
-0.251174 0.923448 -8.228091
-0.196268 0.721585 -9.065291
-0.114631 0.421443 -10.062102
-2.195982 8.073586 -14.664734
-7.076892 26.018375 -15.292538
-0.108131 0.573627 -2.219664
-0.135116 0.716785 -2.955227
-0.073177 0.388202 -3.787861
-0.090113 0.478045 -4.914549
-0.166283 0.882123 -5.765864
-0.206823 1.097185 -6.716562
-0.241461 1.280935 -7.507566
-0.199939 1.060663 -8.580162
-0.165679 0.878919 -9.605410
-0.149530 0.793247 -10.419335
-0.155439 0.824597 -11.333652
-5.027451 26.670350 -15.293066
-0.043999 0.457619 -1.709182
-0.067562 0.702678 -2.601999
-0.064872 0.674709 -3.578532
-0.047546 0.494503 -4.322088
-0.047484 0.493858 -5.203942
-0.081484 0.847482 -6.317350
-0.119693 1.244879 -7.064780
-0.153491 1.596391 -8.018892
-0.129559 1.347490 -8.910240
-0.077488 0.805923 -10.008970
-0.079967 0.831702 -10.932896
-0.747285 7.772191 -12.125592
-0.882826 9.181895 -16.005602
-2.571615 26.746262 -15.268048
-0.005879 0.612905 -1.783052
-0.007385 0.769813 -2.815152
-0.005422 0.565219 -3.726440
-0.005931 0.618322 -4.748673
-0.006255 0.652040 -5.439739
-0.008554 0.891687 -6.415742
-0.014175 1.477631 -7.487378
-0.013545 1.412039 -8.336092
-0.010810 1.126905 -9.160346
-0.009041 0.942496 -10.133018
-0.078434 8.176378 -13.682738
-0.079517 8.289328 -15.601796
-0.256847 26.775052 -15.027550
0.049997 0.722539 -2.029471
0.052073 0.752547 -2.953462
0.035839 0.517927 -4.042295
0.041183 0.595160 -4.994362
0.074258 1.073147 -5.775732
0.101679 1.469427 -6.727630
0.112915 1.631813 -7.654464
0.087174 1.259807 -8.354672
0.071053 1.026837 -9.633847
0.067639 0.977490 -10.388229
0.074404 1.075256 -11.353682
0.546160 7.892908 -12.418439
1.866459 26.973393 -15.261023
0.115899 0.714375 -2.018078
0.121852 0.751069 -3.044530
0.086950 0.535943 -4.028457
0.095757 0.590229 -5.005789
0.169771 1.046434 -5.662743
