-1.701644 0.257329 -3.131038
-1.514767 0.229068 -4.234878
-1.959464 0.466106 4.267376
-2.100511 0.499657 3.259194
-2.108470 0.501550 2.418925
-2.161258 0.514107 1.608780
-2.188358 0.520554 1.006702
-2.029945 0.482872 0.320823
-1.909793 0.454290 -0.458525
-1.834004 0.436262 -1.340012
-1.755719 0.417640 -2.236943
-1.730905 0.411738 -2.928477
-1.645505 0.391423 -3.619483
-1.298501 0.308880 -4.479485
-1.949467 0.659526 4.212802
-2.131524 0.721118 3.426578
-2.080722 0.703931 2.816450
-2.069717 0.700207 1.882550
-2.109274 0.713590 1.084881
-2.000137 0.676668 0.310883
-1.861925 0.629909 -0.624360
-1.855051 0.627584 -1.288429
-1.802353 0.609755 -2.201414
-1.736382 0.587437 -2.973375
-1.635246 0.553221 -3.715198
-1.251764 0.423485 -4.370272
-1.005368 0.340127 -5.266400
-1.876803 0.814662 4.322812
-2.026256 0.879535 3.254632
-1.989912 0.863759 2.448023
-1.994087 0.865571 1.659534
-2.042046 0.886388 1.065514
-1.936821 0.840714 0.301168
-1.803867 0.783002 -0.673132
-1.724538 0.748568 -1.193353
-1.678364 0.728526 -2.235389
-1.638747 0.711329 -2.701022
-1.564569 0.679131 -3.508920
-1.240450 0.538441 -4.416906
-0.960531 0.416937 -5.166369
-1.720151 0.924095 4.383632
-1.957884 1.051809 3.399929
-1.930342 1.037013 2.748604
-1.917849 1.030301 1.727416
-1.966642 1.056514 1.259169
-1.882681 1.011409 0.378620
-1.753416 0.941965 -0.614176
-1.727377 0.927976 -1.356723
-1.675091 0.899888 -2.181871
-1.580360 0.848996 -2.799047
-1.507617 0.809918 -3.567869
-1.199818 0.644563 -4.496271
-1.015691 0.545646 -5.375483
-1.847388 1.218486 3.802096
-1.858327 1.225701 2.872581
-1.807500 1.192177 1.980881
-1.863034 1.228805 1.239805
-1.846243 1.217731 0.329385
-1.762026 1.162184 -0.213733
-1.646723 1.086133 -0.946233
-1.550884 1.022920 -1.850818
-1.480593 0.976558 -2.524528
-1.450584 0.956765 -3.317600
-1.267896 0.836269 -4.336563
-1.189820 0.784772 -4.981897
-1.698778 1.346183 3.846218
-1.728309 1.369585 2.923046
-1.706369 1.352198 2.184551
-1.737815 1.377118 1.511926
-1.734585 1.374558 0.465008
-1.614674 1.279536 -0.058373
-1.530706 1.212996 -1.132312
-1.456090 1.153867 -1.850818
-1.410181 1.117487 -2.532577
-1.375024 1.089627 -3.494262
-1.224557 0.970391 -4.061415
-1.592506 1.495490 4.001374
-1.618881 1.520258 3.107102
-1.581603 1.485251 2.058478
-1.612866 1.514610 1.395686
-1.636451 1.536758 0.832500
-1.556949 1.462099 -0.223292
-1.440391 1.352642 -1.063260
-1.345713 1.263731 -1.606176
-1.312107 1.232173 -2.542377
-1.282895 1.204741 -3.285875
-1.136550 1.067311 -4.251705
-1.010168 0.948628 -4.876278
-0.829657 0.779114 -5.775937
-1.356917 1.531830 3.888856
-1.420229 1.603302 3.065109
-1.463402 1.652040 2.260534
-1.488764 1.680672 1.578614
-1.503702 1.697535 0.735195
-1.432343 1.616978 0.009702
-1.322975 1.493512 -0.848110
-1.293619 1.460372 -1.709058
-1.242209 1.402335 -2.517525
-1.199369 1.353972 -3.271530
-1.124789 1.269779 -3.907114
-1.031444 1.164401 -4.632708
-1.198246 1.607447 4.189435
-1.298001 1.741268 3.394995
-1.276525 1.712458 2.323549
-1.291235 1.732191 1.893574
-1.330982 1.785513 1.094564
-1.276655 1.712632 0.262124
-1.161767 1.558510 -0.790733
-1.097711 1.472579 -1.381040
-1.077147 1.444992 -2.197747
-1.074941 1.442033 -2.857852
-1.042393 1.398369 -3.643934
-0.980771 1.315705 -4.511753
-1.104869 1.808484 3.370610
-1.140458 1.866737 2.700136
-1.131724 1.852441 2.077875
-1.158989 1.897069 0.958990
-1.126537 1.843951 0.223135
-1.049079 1.717165 -0.389692
-0.952912 1.559756 -1.126473
-0.926913 1.517200 -2.209080
-0.942660 1.542976 -2.975438
-0.879551 1.439676 -5.226719
-0.930557 1.868582 3.560074
-0.951866 1.911371 2.987449
-0.957083 1.921845 2.098744
-0.953949 1.915553 1.456875
-0.953004 1.913654 0.436867
-0.963322 1.934373 -0.242538
-0.956695 1.921067 -0.883373
-0.882958 1.773001 -1.805377
-0.804269 1.614991 -2.601173
-0.792756 1.591874 -3.482040
-0.700997 1.407619 -4.150184
-0.695657 1.396897 -4.862875
-0.737203 1.845155 4.033493
-0.796552 1.993701 3.123344
-0.791986 1.982271 2.304132
-0.797270 1.995497 1.660699
-0.823379 2.060846 0.804030
-0.848045 2.122582 0.203016
-0.813130 2.035194 -0.678592
-0.628365 1.572744 -1.553912
-0.578389 1.447659 -2.311673
-0.675166 1.689881 -3.112582
-0.638191 1.597336 -3.894598
-0.519516 1.760671 4.248977
-0.603481 2.045233 3.506563
-0.610588 2.069320 2.634118
-0.612777 2.076739 1.980881
-0.629680 2.134024 1.026779
-0.660939 2.239963 0.144807
-0.669362 2.268506 -0.598088
-0.514971 1.745269 -2.806900
-0.497902 1.687421 -3.791128
-0.387898 1.314608 -4.565697
-0.345381 1.170517 -5.141966
-0.419113 2.051968 3.628118
-0.423545 2.073670 2.754386
-0.417367 2.043421 1.897560
-0.411896 2.016636 1.284830
-0.448150 2.194132 0.551802
-0.487847 2.388489 -0.433185
-0.348607 1.706776 -2.024144
-0.311869 1.526907 -2.668555
-0.356643 1.746119 -3.521260
-0.305618 1.496302 -4.405690
-0.282469 1.382963 -5.064554
-0.228151 1.910690 3.921929
-0.252522 2.114789 3.212928
-0.246233 2.062128 2.180959
-0.231040 1.934890 1.660263
-0.253719 2.124814 0.582478
-0.294682 2.467868 -0.134581
-0.263841 2.209585 -2.531752
-0.212801 1.782140 -3.391429
-0.187256 1.568209 -4.209349
-0.170640 1.429055 -4.707980
-0.175934 1.473388 -5.721374
-0.047646 1.755968 4.218548
-0.056586 2.085453 3.285480
-0.057366 2.114207 2.734959
-0.051166 1.885719 1.917967
-0.056109 2.067871 0.778246
-0.067428 2.485047 0.240322
-0.069590 2.564725 -0.623479
-0.060190 2.218296 -3.087732
-0.047901 1.765395 -3.611990
-0.044302 1.632737 -5.204359
0.123173 2.042752 3.397142
0.125056 2.073986 2.571592
0.111821 1.854482 1.850818
0.117532 1.949206 1.122554
0.142167 2.357760 0.366581
0.152879 2.535408 -0.585531
0.143118 2.373530 -1.118869
0.103757 1.720749 -2.143406
0.094291 1.563759 -2.777065
0.102351 1.697440 -5.144528
0.282692 1.984871 3.735698
0.283323 1.989305 2.664679
0.249941 1.754915 2.120821
0.257347 1.806917 1.038340
0.318909 2.239163 0.338596
0.347239 2.438079 -0.423259
0.307828 2.161363 -2.641968
0.249849 1.754272 -5.114314
0.452655 1.888199 3.850887
0.446916 1.864256 2.769806
0.380289 1.586332 2.267509
0.357772 1.492404 1.333342
0.480951 2.006229 0.457243
0.544819 2.272651 -0.366840
0.519308 2.166234 -1.113931
0.369459 1.541157 -2.686433
0.412608 1.721145 -3.393778
0.332646 1.387595 -4.196992
0.596346 1.791134 3.817134
0.611275 1.835974 3.279720
0.530302 1.592771 2.225045
0.391674 1.176399 1.473776
0.706330 2.121473 -0.242026
0.708942 2.129318 -0.803465
0.666607 2.002166 -3.273470
0.529020 1.588921 -3.939312
0.793531 1.855311 3.360551
0.721845 1.687707 2.687486
0.553669 1.294504 1.864095
0.619924 1.449409 1.085009
0.958145 2.240185 0.308047
0.859959 2.010623 -2.690442
0.739614 1.729250 -5.168689
0.917384 1.690327 3.675140
0.928651 1.711089 3.131070
0.746370 1.375225 2.400456
0.623774 1.149336 1.282021
0.804999 1.483254 0.422728
0.872152 1.606985 -2.589576
0.837773 1.543641 -3.246630
0.715091 1.317593 -4.168617
1.057787 1.602345 3.882863
1.072575 1.624746 3.131070
0.912464 1.382210 2.265942
0.685855 1.038939 1.593198
0.810724 1.228093 0.910012
0.969902 1.469217 -0.156970
1.083805 1.641757 -0.712150
1.164064 1.763335 -3.302615
0.923812 1.399400 -3.958979
1.181300 1.505583 3.824256
1.198628 1.527669 3.072507
1.029090 1.311590 2.433180
0.816630 1.040806 1.659439
0.950919 1.211960 0.621907
1.179117 1.502801 0.039079
1.311405 1.671403 -1.010247
1.303161 1.660897 -3.283185
1.053772 1.343047 -4.005380
1.238202 1.308808 4.173531
1.331085 1.406988 3.299246
1.224732 1.294570 2.642198
1.001216 1.058308 1.841746
1.084848 1.146709 1.154033
1.348703 1.425610 0.409748
1.557962 1.646802 -0.696505
1.406598 1.248459 3.501735
1.331260 1.181590 2.938283
1.208684 1.072795 2.011463
1.052766 0.934407 1.278504
1.187471 1.053967 0.433758
1.298110 1.152167 -0.196349
1.421957 1.262091 -1.075262
1.409038 1.250625 -2.664200
1.324406 1.175507 -3.403586
1.058724 0.939695 -4.097961
1.562464 1.156561 4.097667
1.554743 1.150845 2.984648
1.393877 1.031770 2.310331
1.138089 0.842431 1.496429
1.180716 0.873985 0.801225
1.314299 0.972865 0.059068
1.543030 1.142175 -0.830355
1.684127 1.246617 -3.382685
1.293099 0.957173 -4.026282
1.558790 0.963315 4.001360
1.662570 1.027450 3.484688
1.582068 0.977701 2.675837
1.259275 0.778218 1.810818
1.297748 0.801994 1.056885
1.582382 0.977895 -0.039134
1.841220 1.137854 -0.552968
2.033208 1.256500 -1.456291
1.731508 1.070053 -2.320326
1.475240 0.911682 -2.991446
1.464911 0.905299 -5.462539
1.758261 0.892843 3.660283
1.820176 0.924283 3.063955
1.627631 0.826509 2.166843
1.300266 0.660273 1.296531
1.439961 0.731210 0.591068
1.749011 0.888145 -0.321948
1.983365 1.007150 -1.007411
2.099978 1.066366 -1.786466
1.729344 0.878159 -2.385386
1.519915 0.771811 -3.499095
1.340972 0.680944 -3.987959
1.138950 0.578357 -4.819986
1.929206 0.761719 3.423949
1.919444 0.757865 2.719331
1.741948 0.687783 1.644179
1.560069 0.615971 1.111510
1.545581 0.610250 0.334485
1.920630 0.758333 -0.583705
2.148141 0.848162 -1.314477
1.911249 0.754629 -2.231139
1.677314 0.662263 -2.916649
1.642224 0.648408 -3.849988
1.302588 0.514308 -4.602220
0.889776 0.351315 -5.240499
1.902469 0.570619 3.796797
1.957081 0.586999 2.779636
1.897095 0.569007 2.245570
1.476285 0.442791 1.501153
1.522953 0.456788 0.591477
1.831180 0.549237 -0.341936
2.011776 0.603404 -1.040110
2.001733 0.600392 -1.975331
1.706972 0.511982 -2.642198
1.681370 0.504303 -3.504074
1.414120 0.424145 -4.401842
1.075460 0.322569 -5.165895
1.914453 0.404219 3.987514
2.026690 0.427917 3.120176
2.049289 0.432688 2.453174
1.627863 0.343708 1.436953
1.410656 0.297847 0.692908
1.673411 0.353325 -0.108067
1.929359 0.407366 -0.916975
1.949125 0.411540 -1.511748
1.731391 0.365567 -2.465683
1.625279 0.343163 -3.017333
1.659725 0.350435 -3.907114
1.210407 0.255566 -4.896221
1.412539 0.298245 -5.626323
1.928128 0.221735 4.286034
2.143163 0.246465 3.504113
2.055314 0.236362 2.445164
1.893802 0.217788 1.818930
1.661299 0.191050 0.934499
1.725230 0.198402 0.323972
1.928587 0.221788 -0.663842
1.846937 0.212398 -1.311596
1.745764 0.200764 -2.279297
1.734466 0.199464 -3.128873
1.394344 0.160350 -5.186928
2.032869 0.063185 3.526101
2.184292 0.067892 2.671053
2.171455 0.067493 2.106971
1.714875 0.053301 1.484078
1.511677 0.046986 0.405024
1.786313 0.055522 -0.382343
1.851293 0.057541 -1.106118
1.816570 0.056462 -2.029728
1.748553 0.054348 -2.536092
1.739584 0.054069 -3.347050
1.455638 0.045244 -4.233698
1.961615 -0.105703 3.828703
2.200443 -0.118572 3.196498
2.270765 -0.122361 2.130069
1.812587 -0.097672 1.470166
1.493179 -0.080461 0.859971
1.708313 -0.092053 -0.216133
1.839204 -0.099106 -0.695061
1.795287 -0.096740 -1.647614
1.711246 -0.092211 -2.380700
1.618165 -0.087196 -3.129851
1.548836 -0.083460 -4.182639
1.148474 -0.061886 -4.999325
1.895612 -0.277152 4.071208
2.109145 -0.308372 3.232347
2.141271 -0.313069 2.370425
1.999631 -0.292360 1.598352
1.679135 -0.245501 0.924023
1.741627 -0.254638 -0.009811
1.944582 -0.284311 -0.604850
1.837816 -0.268702 -1.262676
1.685761 -0.246470 -2.223505
1.607840 -0.235077 -2.881573
1.699916 -0.248540 -3.874955
1.371200 -0.200479 -4.684675
1.169683 -0.171016 -5.401755
2.012451 -0.469545 3.601469
2.191424 -0.511303 2.860888
2.141107 -0.499563 2.124875
1.637130 -0.381975 1.229503
1.451674 -0.338705 0.632650
1.788828 -0.417370 -0.352442
1.846350 -0.430791 -0.879803
1.767248 -0.412334 -1.980751
1.700305 -0.396715 -2.487022
1.673340 -0.390424 -3.378832
1.417126 -0.330644 -4.223804
1.861910 -0.623140 3.818948
2.092199 -0.700212 3.225566
2.144954 -0.717868 2.334755
1.760375 -0.589158 1.821465
1.445357 -0.483729 1.007511
1.621760 -0.542767 0.049121
1.845780 -0.617741 -0.898096
1.754029 -0.587034 -1.684470
1.628869 -0.545146 -2.439637
1.643013 -0.549880 -2.971811
1.599627 -0.535359 -3.818650
1.316645 -0.440651 -4.896102
1.817538 -0.782795 4.182595
2.076935 -0.894515 3.279094
2.073146 -0.892883 2.626735
1.834749 -0.790208 1.638454
1.585548 -0.682879 1.080510
1.571371 -0.676773 0.235781
1.808688 -0.778984 -0.809689
1.715299 -0.738762 -1.526812
1.658640 -0.714360 -2.256539
1.713232 -0.737872 -3.059358
1.604597 -0.691084 -3.911540
1.351121 -0.581914 -4.563129
1.338827 -0.576619 -5.553251
1.950477 -1.043038 3.547653
2.044204 -1.093160 2.767943
1.845770 -0.987045 2.033652
1.507550 -0.806179 1.326900
1.532598 -0.819573 0.451592
1.840256 -0.984096 -0.349987
1.896701 -1.014281 -1.058059
1.946980 -1.041168 -1.842475
1.801101 -0.963158 -2.769903
1.605588 -0.858605 -3.655968
1.352053 -0.723025 -4.455057
1.337534 -0.715261 -5.271585
1.754049 -1.159736 3.460431
1.866345 -1.233984 2.696349
1.719771 -1.137072 1.918346
1.387507 -0.917387 1.427116
1.469765 -0.971774 0.362988
1.804659 -1.193198 -0.485064
1.922535 -1.271135 -1.179216
1.984242 -1.311934 -1.756280
1.841309 -1.217430 -2.630426
1.585634 -1.048384 -3.450447
1.366576 -0.903548 -4.282328
1.582618 -1.249262 3.842864
1.734691 -1.369303 2.981178
1.716174 -1.354686 2.329986
1.383741 -1.092276 1.413353
1.407917 -1.111360 0.784245
1.538714 -1.214606 -0.117073
1.622454 -1.280707 -0.700432
1.899230 -1.499184 -1.561207
1.873319 -1.478731 -2.326546
1.600392 -1.263292 -3.034752
1.479039 -1.167501 -4.015376
1.221974 -0.964583 -4.642575
1.655165 -1.550126 3.346805
1.626749 -1.523512 2.580169
1.371010 -1.284003 1.761530
1.331146 -1.246669 0.989374
1.377499 -1.290080 0.391055
1.415934 -1.326076 -0.585750
1.720877 -1.611667 -1.264386
1.904465 -1.783604 -2.283032
1.652411 -1.547547 -3.025366
1.423356 -1.333028 -3.692106
1.186002 -1.110736 -4.583795
1.178255 -1.103481 -5.247331
1.442723 -1.600043 3.475005
1.461487 -1.620853 2.632272
1.316612 -1.460180 2.001756
1.144819 -1.269654 1.326900
1.246401 -1.382313 0.283715
1.516691 -1.682077 -0.580432
1.727657 -1.916047 -1.179655
1.785357 -1.980039 -1.981771
1.599920 -1.774381 -2.713906
1.379925 -1.530397 -3.543102
1.112917 -1.234273 -4.269546
1.334690 -1.786097 3.721984
1.287204 -1.722550 3.162163
1.120844 -1.499926 2.114934
0.954251 -1.276989 1.568075
1.041076 -1.393180 0.539941
1.293234 -1.730620 -0.145523
1.407001 -1.882864 -1.042465
1.549177 -2.073125 -1.928495
1.571290 -2.102718 -2.512880
1.348087 -1.804025 -3.445932
1.160383 -1.552838 -4.266511
1.044196 -1.397354 -4.728286
1.166284 -1.871456 3.959823
1.229971 -1.973651 3.156330
1.084623 -1.740421 2.544197
0.868447 -1.393538 1.516695
0.964027 -1.546909 0.950200
1.102838 -1.769649 0.038888
1.267253 -2.033474 -0.877170
1.416581 -2.273092 -1.741396
1.446332 -2.320830 -2.284470
1.288311 -2.067265 -2.981615
1.075447 -1.725697 -3.998680
1.062239 -1.704502 -5.349358
1.015660 -1.980917 4.143866
1.073564 -2.093853 3.183058
0.929257 -1.812399 2.339797
0.817911 -1.595233 1.530001
0.887500 -1.730958 0.849296
0.894785 -1.745167 0.273169
1.033423 -2.015563 -0.590105
1.179920 -2.301288 -1.352208
1.170016 -2.281970 -2.363011
1.052671 -2.053104 -2.943832
0.893101 -1.741882 -5.347005
0.885533 -2.211447 3.491700
0.772115 -1.928209 2.561868
0.714593 -1.784558 1.632123
0.751699 -1.877222 0.925432
0.775182 -1.935867 0.106942
0.823728 -2.057102 -0.639370
0.914656 -2.284178 -1.337774
0.999961 -2.497211 -1.961246
0.875612 -2.186673 -2.920395
0.729389 -1.821509 -3.562741
0.610489 -1.524578 -4.521596
0.568269 -1.419142 -5.179136
0.675021 -2.204258 3.723827
0.651386 -2.127080 2.853213
0.552673 -1.804737 1.937519
0.544163 -1.776946 1.292028
0.632759 -2.066254 0.242538
0.611241 -1.995986 -0.408316
0.786431 -2.568065 -1.884785
0.644289 -2.103903 -2.533530
0.598972 -1.955923 -3.642914
0.519849 -1.697550 -4.375494
0.454688 -2.193000 3.574209
0.471778 -2.275428 3.137016
0.396659 -1.913124 2.217864
0.362739 -1.749526 1.382962
0.434866 -2.097398 0.698959
0.529958 -2.556037 -0.134104
0.589781 -2.844568 -1.178254
0.569491 -2.746710 -1.773298
0.448726 -2.164248 -2.669180
0.383659 -1.850425 -3.333161
0.392611 -1.893598 -4.227460
0.362088 -1.746384 -4.832898
0.359224 -1.732571 -5.605958
0.252876 -2.108292 4.126324
0.280430 -2.338015 3.202355
0.251087 -2.093375 2.647526
0.217807 -1.815913 1.773775
0.258162 -2.152356 0.737267
0.310861 -2.591724 -0.105367
0.344392 -2.871280 -0.684234
0.350870 -2.925284 -1.585458
0.293363 -2.445842 -2.350478
0.247605 -2.064342 -3.207698
0.234518 -1.955230 -5.425047
0.067040 -1.894205 4.113129
0.079859 -2.256407 3.240396
0.078611 -2.221150 2.493015
0.071230 -2.012614 1.959998
0.078568 -2.219933 0.891197
0.095859 -2.708479 0.047758
0.105855 -2.990931 -0.729644
0.105558 -2.982543 -1.298925
0.091827 -2.594569 -2.072252
0.076570 -2.163484 -2.731131
0.071131 -2.009803 -3.794156
0.058321 -1.647858 -4.370911
0.051695 -1.460642 -5.239221
-0.133659 -2.308457 3.547375
-0.136246 -2.353126 2.939691
-0.126297 -2.181299 1.882550
-0.117316 -2.026197 1.178626
-0.139350 -2.406748 0.211934
-0.169957 -2.935362 -0.597855
-0.172698 -2.982707 -1.384212
-0.157216 -2.715308 -2.045796
-0.129894 -2.243425 -2.822178
-0.116853 -2.018194 -3.399511
-0.108636 -1.876271 -4.402530
-0.102556 -1.771258 -5.304234
-0.325320 -2.274109 3.646522
-0.332453 -2.323978 2.823901
-0.314479 -2.198327 2.074959
-0.308252 -2.154799 1.086408
-0.359508 -2.513098 0.499147
-0.416226 -2.909580 -0.531432
-0.411392 -2.875790 -1.178254
-0.350143 -2.447632 -2.098844
-0.294939 -2.061738 -2.639656
-0.292226 -2.042771 -3.572287
-0.265532 -1.856169 -4.155099
-0.245277 -1.714579 -5.009855
-0.480813 -2.087446 3.603641
-0.512106 -2.223307 2.936234
-0.509659 -2.212684 2.072043
-0.511714 -2.221603 1.180048
-0.558281 -2.423775 0.384510
-0.631274 -2.740671 -0.400013
-0.644446 -2.797858 -0.874891
-0.566922 -2.461290 -1.691229
-0.483159 -2.097634 -2.566197
-0.458930 -1.992444 -3.377676
-0.411549 -1.786738 -4.011151
-0.685106 -2.074901 3.775674
-0.717604 -2.173323 2.711895
-0.724238 -2.193415 2.302490
-0.722233 -2.187343 1.140567
-0.787618 -2.385366 0.365026
-0.865501 -2.621242 -0.143069
-0.846314 -2.563131 -0.993941
-0.720874 -2.183227 -1.663370
-0.638291 -1.933116 -2.682291
-0.649737 -1.967783 -3.404499
-0.580830 -1.759093 -4.177548
-0.868031 -2.041838 3.615458
-0.901118 -2.119666 2.895522
-0.882019 -2.074742 2.218657
-0.913911 -2.149760 1.352165
-0.973363 -2.289605 0.442184
-1.031110 -2.425443 -0.162724
-0.996858 -2.344873 -0.950216
-0.882564 -2.076022 -1.801184
-0.803137 -1.889189 -2.573391
-0.806465 -1.897019 -3.287774
-0.757504 -1.781849 -4.246986
-0.985962 -1.866811 4.019478
-1.101363 -2.085310 3.240948
-1.075481 -2.036307 2.565070
-1.092718 -2.068943 1.448696
-1.164926 -2.205660 0.807417
-1.172304 -2.219630 0.057637
-1.140704 -2.159798 -0.721943
-1.033659 -1.957121 -1.415061
-0.962251 -1.821918 -2.318705
-0.955737 -1.809584 -3.122354
-0.947596 -1.794170 -3.959733
-1.139620 -1.744781 4.219593
-1.300089 -1.990461 3.443492
-1.277244 -1.955484 2.669468
-1.281732 -1.962356 1.545217
-1.353079 -2.071589 1.000321
-1.359595 -2.081566 0.278773
-1.267238 -1.940166 -0.714841
-1.182605 -1.810590 -1.397649
-1.149000 -1.759141 -2.169715
-1.130874 -1.731389 -3.081271
-1.026702 -1.571900 -5.318980
-1.283612 -1.647613 4.258479
-1.451536 -1.863156 3.279536
-1.440496 -1.848984 2.436006
-1.459334 -1.873165 1.669497
-1.520836 -1.952106 1.009937
-1.542938 -1.980477 0.172910
-1.437069 -1.844585 -0.473025
-1.327702 -1.704206 -1.339442
-1.279696 -1.642586 -2.268471
-1.258763 -1.615717 -3.141819
-1.160146 -1.489135 -5.387421
-1.434959 -1.550043 4.029193
-1.596165 -1.724177 3.144460
-1.623507 -1.753712 2.374743
-1.647354 -1.779472 1.676768
-1.695310 -1.831275 0.855468
-1.705498 -1.842279 0.163304
-1.591386 -1.719016 -0.723988
-1.473506 -1.591682 -1.552850
-1.429009 -1.543616 -2.208585
-1.388520 -1.499880 -3.093156
-1.347598 -1.455675 -4.004245
-1.486916 -1.606167 -5.371918
-1.535301 -1.375732 4.025084
-1.769889 -1.585938 3.433849
-1.766170 -1.582606 2.472867
-1.777132 -1.592429 1.900894
-1.821665 -1.632333 0.875929
-1.869742 -1.675414 0.172910
-1.744907 -1.563553 -0.743292
-1.611158 -1.443705 -1.417051
-1.550744 -1.389570 -2.268471
-1.507124 -1.350483 -2.849754
-1.298706 -1.163727 -5.439160
-1.834182 -1.384586 3.402445
-1.910449 -1.442159 2.771737
-1.882939 -1.421392 1.863649
-1.897819 -1.432624 1.118869
-1.903797 -1.437137 0.115682
-1.825353 -1.377921 -0.367358
-1.718825 -1.297505 -1.145393
-1.627677 -1.228700 -1.968363
-1.544499 -1.165910 -2.994411
-1.486598 -1.122202 -3.572651
-1.216028 -0.917954 -4.376066
-0.905196 -0.683314 -5.245759
-1.856267 -1.169234 3.617990
-1.963386 -1.236707 2.796917
-1.961596 -1.235579 2.030494
-1.971011 -1.241510 1.168729
-1.977372 -1.245516 0.357186
-1.892173 -1.191851 -0.280750
-1.774650 -1.117825 -0.933208
-1.693406 -1.066651 -1.716418
-1.689898 -1.064441 -2.832251
-1.574887 -0.991997 -3.296346
-1.198736 -0.755065 -4.107866
-1.014063 -0.638743 -5.165381
-2.078178 -1.056207 3.730868
-2.117134 -1.076006 2.850843
-2.064741 -1.049378 1.991859
-2.095909 -1.065219 1.061765
-2.083881 -1.059106 0.415106
-1.972161 -1.002326 -0.387510
-1.873666 -0.952267 -1.088698
-1.787989 -0.908722 -1.804116
-1.684787 -0.856271 -2.742409
-2.045666 -0.836067 3.528277
-2.159556 -0.882613 2.951416
-2.144462 -0.876444 2.001518
-2.177413 -0.889912 1.100362
-2.072575 -0.847064 0.522762
-1.977699 -0.808288 -0.310665
-1.918572 -0.784123 -0.943588
-1.842077 -0.752860 -1.980864
-1.752215 -0.716133 -2.781508
-1.663978 -0.680070 -3.420832
-1.321913 -0.540268 -4.206894
-0.994817 -0.406583 -5.182879
-2.159532 -0.672171 3.787101
-2.236478 -0.696121 2.756343
-2.205415 -0.686453 1.875940
-2.245119 -0.698811 1.071414
-2.162260 -0.673020 0.561086
-2.041830 -0.635536 -0.485405
-1.988794 -0.619028 -1.274208
-1.895042 -0.589847 -1.883377
-1.792064 -0.557794 -2.566422
-1.731878 -0.539061 -3.587402
-1.367934 -0.425780 -4.246496
-1.180152 -0.367331 -5.251479
-2.085954 -0.444336 3.987549
-2.255827 -0.480521 2.934170
-2.254372 -0.480212 2.225199
-2.220816 -0.473063 1.587175
-2.146100 -0.457148 0.804596
-2.137350 -0.455284 0.106642
-2.046297 -0.435889 -0.709661
-1.833492 -0.390558 -1.683298
-1.743112 -0.371306 -2.277716
-1.704024 -0.362980 -3.366681
-1.567116 -0.333817 -3.967165
-1.154973 -0.246025 -4.853031
-2.097822 -0.265807 4.265228
-2.327424 -0.294899 3.378365
-2.281165 -0.289038 2.516755
-2.225323 -0.281962 1.530221
-2.182268 -0.276507 1.017811
-2.093426 -0.265250 -0.038861
-1.977014 -0.250500 -0.740894
-1.847287 -0.234063 -1.389862
-1.796578 -0.227638 -2.334919
-1.710938 -0.216786 -2.873618
-1.630615 -0.206609 -3.644164
-1.286646 -0.163026 -4.776964
-2.207788 -0.072004 3.518589
-2.279511 -0.074344 2.926565
-2.311666 -0.075392 1.933902
-2.331852 -0.076051 1.274933
-2.235665 -0.072914 0.348515
-2.062103 -0.067253 -0.466971
-1.924945 -0.062780 -1.064746
-1.840328 -0.060020 -2.008741
-1.779004 -0.058020 -2.612783
-1.776456 -0.057937 -3.472234
-1.336129 -0.043576 -4.287894
-1.117984 -0.036462 -5.135940
-2.132438 0.111703 3.780955
-2.205365 0.115523 2.961801
-2.241465 0.117414 2.054144
-2.232969 0.116969 1.355982
-2.184479 0.114429 0.407171
-2.182198 0.114309 -0.058169
-2.019362 0.105779 -0.925432
-1.799577 0.094267 -1.735812
-1.738907 0.091088 -2.418316
-1.674062 0.087692 -3.194374
-1.440706 0.075468 -4.114954
-2.028777 0.298763 3.927784
-2.235482 0.329203 3.259745
-2.176867 0.320571 2.533530
-2.196144 0.323410 1.570040
-2.176245 0.320480 1.017811
-2.088382 0.307541 0.233163
-1.968855 0.289939 -0.594680
-1.851077 0.272595 -1.605059
-1.778401 0.261892 -2.119349
-1.710125 0.251838 -2.922717
-1.639120 0.241381 -3.772093
-1.292356 0.190316 -4.654527
-2.119882 0.497280 3.453181
-2.127593 0.499089 2.671053
-2.135536 0.500952 2.037648
-2.098212 0.492196 1.193909
-2.031900 0.476641 0.369431
-1.912697 0.448678 -0.565831
-1.830951 0.429503 -1.212909
-1.779538 0.417442 -2.206013
-1.738485 0.407812 -3.006914
-1.656459 0.388571 -3.717764
-1.310702 0.307463 -4.367293
-1.174956 0.275620 -5.398100
-2.043173 0.662989 3.661876
-2.075900 0.673608 2.632272
-2.046587 0.664096 2.176380
-2.050570 0.665389 1.213314
-2.035281 0.660428 0.572771
-1.961105 0.636359 -0.340504
-1.854889 0.601892 -1.034727
-1.746324 0.566664 -1.910848
-1.694408 0.549818 -2.632393
-1.693335 0.549470 -3.501651
-1.405421 0.456045 -4.411730
-1.244453 0.403812 -5.048563
-1.923172 0.804265 3.530909
-1.934532 0.809016 2.824351
-1.946338 0.813953 2.305746
-1.973893 0.825477 1.447168
-1.997434 0.835322 0.591769
-1.993718 0.833768 -0.252239
-1.864880 0.779888 -0.896214
-1.697737 0.709989 -1.989163
-1.625154 0.679635 -2.702896
-1.594746 0.666918 -3.486859
-1.344688 0.562345 -4.023111
-1.837384 0.981416 3.993114
-1.942302 1.037457 2.884287
-1.907106 1.018657 2.341323
-1.881319 1.004883 1.272422
-1.909857 1.020126 0.601469
-1.949642 1.041377 -0.116255
-1.805905 0.964602 -0.934517
-1.602560 0.855988 -1.509348
-1.593908 0.851366 -2.640366
-1.543776 0.824589 -3.177942
-1.393078 0.744096 -4.209349
-1.139393 0.608593 -4.737214
-1.711851 1.107484 4.047357
-1.801167 1.165267 3.103933
-1.780044 1.151602 2.461169
-1.825565 1.181052 1.669232
-1.841251 1.191200 0.746442
-1.855679 1.200534 -0.038752
-1.758012 1.137348 -0.787420
-1.567384 1.014021 -1.507249
-1.522102 0.984726 -2.364309
-1.462321 0.946051 -3.079797
-1.386112 0.896747 -3.951868
-1.192460 0.771464 -4.559468
-1.602524 1.246310 3.969470
-1.718468 1.336481 3.179345
-1.699178 1.321479 2.566197
-1.720417 1.337997 1.775899
-1.732261 1.347208 0.814288
-1.764827 1.372535 0.203302
-1.649360 1.282735 -0.554133
-1.470465 1.143605 -1.409427
-1.432053 1.113732 -2.383901
-1.389904 1.080952 -3.008998
-1.359492 1.057300 -3.914241
-1.203368 0.935879 -4.586513
-1.511413 1.409646 3.346141
-1.597608 1.490038 2.661358
-1.581113 1.474653 1.922677
-1.593406 1.486119 1.154285
-1.581937 1.475422 0.465662
-1.488952 1.388698 -0.253125
-1.393110 1.299309 -1.192522
-1.352344 1.261288 -2.145765
-1.297087 1.209751 -2.859834
-1.252967 1.168603 -3.587516
-1.000082 0.932745 -4.334562
-0.897634 0.837195 -5.191751
-1.366476 1.509212 3.791516
-1.449879 1.601327 2.985359
-1.444942 1.595875 2.195788
-1.438766 1.589053 1.544235
-1.471359 1.625050 0.707671
-1.416399 1.564350 -0.106867
-1.304990 1.441303 -0.810254
-1.228859 1.357220 -1.812941
-1.211408 1.337946 -2.610971
-1.196721 1.321725 -3.263993
-1.063871 1.174998 -4.038909
-0.973800 1.075519 -4.797049
-1.080960 1.193872 -5.560110
-1.266699 1.665614 3.353526
-1.277596 1.679941 2.676672
-1.243442 1.635032 1.772404
-1.299260 1.708428 0.893079
-1.353168 1.779313 0.135535
-1.248427 1.641588 -0.398874
-1.109408 1.458788 -1.273346
-1.078841 1.418595 -2.277716
-1.077984 1.417468 -2.948088
-1.008908 1.326637 -5.430696
-1.102606 1.768934 3.266036
-1.113006 1.785619 2.589228
-1.092258 1.752332 1.976714
-1.151430 1.847264 1.086408
-1.130337 1.813423 0.349497
-1.052786 1.689007 -0.604428
-0.969639 1.555612 -1.283137
-0.938902 1.506301 -2.160048
-0.959935 1.540044 -3.053812
-0.886183 1.421722 -5.318826
-0.899536 1.752608 3.640777
-0.957486 1.865513 2.824351
-0.935567 1.822808 2.133828
-0.975565 1.900737 1.369507
-1.000497 1.949314 0.649513
-0.998485 1.945394 -0.329617
-0.969231 1.888398 -0.942266
-0.865765 1.686810 -1.603941
-0.795719 1.550335 -2.437947
-0.790207 1.539598 -3.239058
-0.670617 1.306594 -4.122027
-0.676985 1.658669 3.857130
-0.782743 1.917785 3.120176
-0.777890 1.905895 2.289518
-0.754064 1.847521 1.589724
-0.809654 1.983720 0.728079
-0.863541 2.115748 -0.058005
-0.819567 2.008008 -0.785764
-0.678072 1.661333 -1.569207
-0.618339 1.514982 -2.346270
-0.661375 1.620424 -3.177942
-0.656556 1.608616 -4.051706
-0.564698 1.840557 3.694672
-0.586717 1.912325 2.871233
-0.596195 1.943216 1.841802
-0.632628 2.061964 1.242422
-0.656490 2.139740 0.464681
-0.670852 2.186550 -0.377025
-0.667612 2.175991 -1.064014
-0.570013 1.857881 -2.042197
-0.499518 1.628112 -2.588741
-0.525590 1.713090 -3.619294
-0.449015 1.463504 -4.225005
-0.422753 1.952509 3.904018
-0.445388 2.057053 2.921528
-0.436418 2.015620 2.347890
-0.447062 2.064783 1.399612
-0.463518 2.140784 0.610740
-0.483569 2.233392 0.000000
-0.449068 2.074047 -2.490306
-0.374189 1.728212 -3.097283
-0.334958 1.547024 -4.019192
-0.258804 2.045920 3.297503
-0.265898 2.101996 2.783526
-0.248449 1.964063 1.785876
-0.260980 2.063122 1.176977
-0.289965 2.292256 0.164231
-0.299904 2.370825 -0.568748
-0.271821 2.148824 -3.053264
-0.227555 1.798886 -3.825075
-0.173114 1.368518 -4.635107
-0.147067 1.162609 -5.331967
-0.072480 1.952808 3.731139
-0.077947 2.100106 2.882660
-0.074776 2.014646 1.998963
-0.069977 1.885362 1.379118
-0.079247 2.135114 0.320373
-0.092292 2.486578 -0.471020
-0.082339 2.218435 -2.795105
-0.066673 1.796350 -3.420832
-0.057255 1.542611 -4.333591
0.090484 1.881483 3.778028
0.096163 1.999567 2.890723
0.098677 2.051854 2.221408
0.084701 1.761249 1.423163
0.094489 1.964768 0.702395
0.120590 2.507501 -0.134485
0.115131 2.393990 -0.906081
0.077782 1.617371 -2.466093
0.083171 1.729432 -3.248877
0.072790 1.513565 -4.306932
0.065058 1.352800 -4.829999
0.256851 1.877907 4.113129
0.272348 1.991208 3.272878
0.268731 1.964768 2.284571
0.212528 1.553850 1.549433
0.326642 2.388165 -0.134867
0.324417 2.371898 -0.790432
0.288933 2.112468 -2.265296
0.239395 1.750278 -3.077666
0.216692 1.584291 -3.937602
0.209168 1.529281 -4.734598
0.411029 1.811025 4.216687
0.444621 1.959034 3.263135
0.433252 1.908942 2.276408
0.334292 1.472916 1.908366
0.527907 2.326000 0.028921
0.541324 2.385116 -0.866305
0.470479 2.072967 -2.870933
0.377027 1.661210 -3.737416
0.614312 1.934572 3.733098
0.606592 1.910257 2.919957
0.503087 1.584304 1.939825
0.507629 1.598608 1.111510
0.653948 2.059390 0.203732
0.699715 2.203518 -0.357439
0.643580 2.026742 -2.880644
0.552571 1.740138 -3.704935
0.434302 1.367689 -4.266295
0.412210 1.298118 -5.071458
0.725195 1.715995 3.819781
0.778248 1.841532 3.155950
0.670751 1.587167 2.518209
0.470322 1.112900 1.874344
0.889621 2.105070 0.116010
0.893890 2.115171 -0.889316
0.822502 1.946249 -3.302615
0.678506 1.605517 -4.100786
0.933738 1.777707 3.518815
0.852547 1.623131 2.658115
0.669740 1.275092 2.001398
0.674009 1.283219 1.019493
1.035904 1.598039 3.736325
1.019858 1.573286 2.871465
0.860860 1.328008 2.290361
0.822620 1.269017 1.403412
0.999892 1.542486 0.469916
1.175934 1.814058 -0.349251
1.254377 1.935068 -1.217864
0.948708 1.463528 -2.802929
0.980861 1.513128 -3.479630
0.787811 1.215319 -4.164436
1.161782 1.491933 4.074031
1.192784 1.531745 3.348055
1.012690 1.300473 2.523440
0.799165 1.026269 1.720195
0.934384 1.199914 0.879130
1.127627 1.448072 0.117482
1.256421 1.613465 -0.837190
1.295969 1.664253 -3.263755
1.045508 1.342617 -3.956251
1.310680 1.403351 4.110278
1.308384 1.400893 3.074646
1.144438 1.225356 2.570866
0.902682 0.966506 1.649509
1.038383 1.111802 0.898882
1.286863 1.377850 0.117319
1.447796 1.550162 -0.883994
1.442198 1.544169 -3.302615
1.174085 1.257098 -3.894598
1.337380 1.210689 4.193129
1.424202 1.289286 3.399220
1.300551 1.177349 2.604783
1.069386 0.968082 2.040989
1.151503 1.042420 1.144963
1.471802 1.332377 0.107242
1.672309 1.513890 -1.209906
1.208174 1.093723 -2.940654
1.314415 1.189899 -3.680646
1.361708 1.232713 -5.385062
1.489247 1.126832 3.621561
1.435538 1.086193 2.877452
1.229048 0.929953 2.015633
1.234507 0.934084 0.967343
1.465223 1.108654 0.401390
1.645296 1.244906 -0.466971
1.801596 1.363169 -1.306656
1.290249 0.976261 -2.792936
1.393249 1.054195 -3.673378
1.052847 0.796632 -4.360341
1.091178 0.825635 -5.293190
1.533592 0.957654 3.776091
1.558281 0.973071 3.022326
1.514355 0.945641 2.326737
1.203144 0.751305 1.555854
1.182410 0.738358 0.802882
1.408747 0.879694 -0.226271
1.718160 1.072907 -1.052036
1.975711 1.233736 -1.768416
1.652491 1.031901 -2.512273
1.456681 0.909626 -3.369009
1.436127 0.896792 -3.877629
1.750709 0.898899 3.621269
1.725584 0.885999 2.738595
1.487078 0.763538 2.107039
1.228172 0.630603 1.219900
1.413745 0.725885 0.542191
1.792746 0.920483 -0.604005
1.986286 1.019856 -1.268850
1.835936 0.942659 -1.957258
1.601408 0.822241 -2.877452
1.527678 0.784384 -3.626808
1.157882 0.594513 -4.201410
1.135695 0.583121 -5.357310
1.786122 0.729308 4.188404
1.870711 0.763847 3.389771
1.768950 0.722296 2.328434
1.393152 0.568851 1.799691
1.406471 0.574289 0.809997
1.583306 0.646494 -0.068770
1.799635 0.734825 -0.790733
2.118107 0.864863 -1.402409
1.812814 0.740207 -2.286165
1.629303 0.665275 -3.285875
1.831753 0.561950 4.289006
1.999661 0.613461 3.343806
1.970075 0.604384 2.680418
1.694522 0.519850 1.638952
1.572725 0.482484 0.846571
1.634968 0.501579 0.049121
1.999654 0.613459 -0.680501
2.183730 0.669930 -1.305736
1.880697 0.576965 -2.021265
1.700959 0.521824 -2.928477
1.617981 0.496368 -3.629313
1.306806 0.400905 -4.535945
1.049387 0.321934 -5.342790
1.943380 0.423274 3.579760
2.012070 0.438235 2.660960
1.823517 0.397167 2.007344
1.475480 0.321364 1.344141
1.622691 0.353427 0.206595
1.823039 0.397063 -0.635887
1.961281 0.427173 -1.257400
2.013441 0.438533 -1.898889
1.746380 0.380367 -3.026521
1.336221 0.291033 -5.111132
2.001599 0.254704 3.616233
2.108683 0.268330 2.870933
2.058406 0.261932 2.151785
1.570560 0.199854 1.292066
1.600333 0.203643 0.472862
1.821104 0.231736 -0.215383
1.809721 0.230287 -1.008961
1.794971 0.228410 -1.882786
1.697990 0.216069 -2.706642
1.688187 0.214822 -3.469616
1.288637 0.163979 -4.393124
1.005842 0.127993 -5.109777
2.015952 0.074188 3.852605
2.192722 0.080693 3.089897
2.135718 0.078595 2.342965
1.612701 0.059348 1.438944
1.464850 0.053907 0.642977
1.835443 0.067545 -0.332862
1.869443 0.068796 -0.870636
1.758323 0.064707 -1.885403
1.716510 0.063168 -2.439637
1.756099 0.064625 -3.523697
1.529800 0.056297 -4.225005
2.024473 -0.098764 3.940258
2.134368 -0.104125 3.290599
2.123703 -0.103605 2.548574
1.841296 -0.089828 1.547451
1.572542 -0.076716 1.015982
1.733382 -0.084563 0.147262
1.891639 -0.092284 -0.791838
1.823439 -0.088956 -1.705228
1.763480 -0.086031 -2.406831
1.742972 -0.085031 -3.119058
1.629534 -0.079497 -4.003822
1.239636 -0.060476 -4.926080
1.525520 -0.074422 -5.512282
1.906688 -0.259481 3.921929
2.108628 -0.286963 3.193508
2.195636 -0.298804 2.396160
2.138244 -0.290994 1.845064
1.779095 -0.242117 0.862655
1.694656 -0.230626 0.098243
1.900320 -0.258615 -0.742448
1.846960 -0.251353 -1.438775
1.764108 -0.240078 -2.248301
1.747955 -0.237879 -3.048238
1.716134 -0.233549 -4.002618
1.251550 -0.170324 -4.710599
2.030555 -0.467194 3.521187
2.128288 -0.489681 2.651663
2.113330 -0.486239 2.039079
1.661360 -0.382249 1.189349
1.644999 -0.378485 0.452219
1.888268 -0.434457 -0.419797
1.760699 -0.405105 -1.244839
1.659714 -0.381871 -2.213679
1.667373 -0.383633 -3.013165
1.708550 -0.393107 -3.732258
1.327313 -0.305391 -4.496271
1.116510 -0.256889 -5.325597
2.034678 -0.650900 3.545398
2.135978 -0.683306 2.764107
2.063335 -0.660068 2.000281
1.606602 -0.513957 1.386806
1.583249 -0.506486 0.393509
1.870366 -0.598336 -0.507301
1.740031 -0.556642 -1.097096
1.642464 -0.525429 -2.153226
1.600321 -0.511948 -2.620031
1.628172 -0.520858 -3.548220
1.356599 -0.433980 -4.388064
1.238115 -0.396077 -5.343740
1.919024 -0.806304 3.747345
2.050564 -0.861572 3.145841
1.976234 -0.830341 2.040510
1.655890 -0.695745 1.608412
1.534139 -0.644589 0.531229
1.714929 -0.720551 0.029350
1.747483 -0.734229 -0.860256
1.761672 -0.740191 -1.906862
1.658166 -0.696701 -2.522777
1.575763 -0.662078 -3.280599
1.424760 -0.598633 -4.133296
1.269051 -0.533209 -4.806879
1.840784 -0.954932 4.132079
1.912662 -0.992220 3.210681
1.921516 -0.996813 2.380125
1.547340 -0.802704 1.541943
1.393922 -0.723117 0.858192
1.562722 -0.810684 0.156970
1.728877 -0.896879 -0.946894
1.840575 -0.954824 -1.654470
1.673946 -0.868383 -2.330055
1.569621 -0.814263 -3.097283
1.540312 -0.799059 -4.032072
1.265889 -0.656697 -4.800326
1.567122 -1.007174 4.265604
1.868902 -1.201125 3.390244
1.948222 -1.252103 2.738966
1.825686 -1.173351 2.068177
1.540892 -0.990316 1.243973
1.544343 -0.992534 0.215383
1.797385 -1.155162 -0.320373
1.820562 -1.170057 -1.436452
1.817073 -1.167815 -1.883872
1.669403 -1.072909 -2.666539
1.472300 -0.946232 -3.702819
1.241976 -0.798205 -4.401842
1.763785 -1.364039 3.721984
1.811877 -1.401231 3.042573
1.633830 -1.263537 1.986441
1.349324 -1.043512 1.218826
1.416731 -1.095642 0.647019
1.689075 -1.306261 -0.087375
1.780500 -1.376965 -1.055087
1.825137 -1.411486 -1.827634
1.617888 -1.251208 -2.466340
1.428696 -1.104895 -3.509026
1.256666 -0.971854 -4.288219
1.534709 -1.424735 4.090325
1.616919 -1.501054 3.225566
1.598264 -1.483736 2.242730
1.284076 -1.192062 1.738225
1.299003 -1.205919 0.941716
1.491558 -1.384676 0.068150
1.551936 -1.440728 -0.728590
1.797523 -1.668716 -1.733316
1.813614 -1.683654 -2.513973
1.567409 -1.455092 -3.310015
1.326584 -1.231524 -3.795685
1.143739 -1.061781 -4.672171
1.365779 -1.497629 3.940258
1.502248 -1.647272 3.203941
1.459514 -1.600413 2.399526
1.184247 -1.298572 1.846158
1.160326 -1.272342 0.923383
1.220252 -1.338053 0.235127
1.259618 -1.381219 -0.811952
1.626325 -1.783328 -1.416732
1.721279 -1.887448 -2.209528
1.478529 -1.621263 -3.089897
1.304865 -1.430834 -3.802077
1.102481 -1.208912 -4.472378
1.378278 -1.826801 3.559533
1.375579 -1.823225 2.965238
1.191779 -1.579612 2.216318
0.984289 -1.304600 1.319816
1.093313 -1.449103 0.607387
1.393115 -1.846467 -0.454039
1.568326 -2.078695 -1.150076
1.614588 -2.140013 -1.789196
1.463763 -1.940105 -2.594558
1.284316 -1.702263 -3.506563
1.027379 -1.361712 -4.214546
1.179724 -1.868715 3.773034
1.185974 -1.878616 3.116787
1.072260 -1.698490 2.292720
0.860657 -1.363305 1.399541
0.942534 -1.493000 0.627850
1.233393 -1.953729 -0.154570
1.386445 -2.196168 -0.920120
1.413745 -2.239412 -1.637391
1.381252 -2.187941 -2.332581
1.212024 -1.919880 -3.375821
1.027221 -1.627146 -3.921929
0.923531 -1.462900 -4.810105
1.026203 -1.625534 -5.772346
1.056545 -2.029861 4.028858
1.042441 -2.002764 3.240396
0.916162 -1.760154 2.304070
0.739122 -1.420019 1.715901
0.817445 -1.570496 0.863255
0.939876 -1.805713 0.194712
1.057871 -2.032408 -0.657351
1.208821 -2.322417 -1.523645
1.223461 -2.350544 -2.511095
1.061417 -2.039222 -3.139222
0.896003 -1.721423 -3.841125
0.870526 -1.672476 -4.650095
0.860311 -2.113441 3.228454
0.745762 -1.832040 2.578786
0.602356 -1.479749 1.646919
0.676517 -1.661933 0.813649
0.795579 -1.954421 -0.009715
0.930101 -2.284889 -0.692579
1.015529 -2.494751 -1.529950
0.965895 -2.372819 -2.324645
0.840804 -2.065520 -2.920996
0.737536 -1.811831 -3.750654
0.639482 -1.570953 -4.744627
0.608072 -1.493791 -5.408590
0.700776 -2.241832 3.407317
0.612466 -1.959323 2.573391
0.576345 -1.843768 1.827426
0.612161 -1.958345 1.090225
0.629589 -2.014099 0.068006
0.683104 -2.185299 -0.560691
0.763698 -2.443126 -1.314800
0.814601 -2.605968 -2.217651
0.716688 -2.292735 -2.877741
0.617137 -1.974264 -3.620923
0.496540 -1.588467 -4.289220
0.448286 -1.434098 -5.172795
0.500242 -2.251412 3.733488
0.496630 -2.235153 3.032907
0.429725 -1.934038 2.255321
0.408432 -1.838205 1.281351
0.474648 -2.136221 0.475029
0.495684 -2.230897 -0.106342
0.568863 -2.560249 -0.938616
0.592829 -2.668110 -1.834375
0.468755 -2.109698 -2.682627
0.420693 -1.893391 -3.328532
0.403796 -1.817340 -4.037725
0.368540 -1.658668 -4.954344
0.280367 -2.230018 4.111936
0.288974 -2.298474 3.332449
0.250205 -1.990113 2.615964
0.223943 -1.781222 1.588810
0.270598 -2.152312 0.805162
0.328745 -2.614814 -0.134008
0.370236 -2.944827 -0.739650
0.367964 -2.926753 -1.661352
0.311048 -2.474049 -2.425706
0.259340 -2.062767 -2.913848
0.247763 -1.970687 -3.796797
0.208417 -1.657730 -4.547995
0.205123 -1.631534 -5.615368
0.089195 -2.074078 4.151529
0.101324 -2.356110 3.240948
0.091565 -2.129191 2.616546
0.078016 -1.814122 2.000342
0.091402 -2.125393 1.107356
0.111108 -2.583638 0.249225
0.124122 -2.886254 -0.513190
0.125457 -2.917295 -1.558114
0.107404 -2.497506 -2.135796
0.092234 -2.144744 -2.820401
0.085228 -1.981846 -5.353060
-0.090287 -2.165855 4.288383
-0.099218 -2.380089 3.491700
-0.092336 -2.215011 2.756363
-0.083456 -2.001976 1.765140
-0.092756 -2.225076 1.094564
-0.111844 -2.682970 0.105142
-0.124489 -2.986317 -0.511717
-0.122266 -2.932973 -1.329263
-0.100786 -2.417705 -2.053663
-0.086234 -2.068628 -2.806874
-0.081722 -1.960377 -5.206770
-0.307509 -2.235542 3.738728
-0.310045 -2.253977 2.858879
-0.296207 -2.153381 2.126367
-0.290556 -2.112295 1.253004
-0.338969 -2.464251 0.403735
-0.400204 -2.909424 -0.341643
-0.405713 -2.949469 -1.090413
-0.356509 -2.591768 -1.984592
-0.296540 -2.155801 -2.545005
-0.277948 -2.020641 -3.584512
-0.251592 -1.829032 -4.337074
-0.218969 -1.591868 -5.017231
-0.495847 -2.134021 3.588912
-0.524976 -2.259389 3.088729
-0.504315 -2.170466 2.200852
-0.507025 -2.182128 1.462466
-0.575134 -2.475256 0.652716
-0.658711 -2.834953 -0.151952
-0.679410 -2.924040 -1.080158
-0.618584 -2.662257 -1.834375
-0.512859 -2.207237 -2.742821
-0.461506 -1.986224 -3.319273
-0.404756 -1.741985 -4.274460
-0.626519 -2.000277 3.883440
-0.668013 -2.132753 2.979087
-0.685274 -2.187863 2.420109
-0.685023 -2.187059 1.499071
-0.751593 -2.399597 0.557132
-0.839964 -2.681738 -0.066670
-0.860016 -2.745757 -1.093549
-0.801570 -2.559159 -1.808315
-0.669971 -2.139004 -2.404157
-0.604751 -1.930779 -3.144012
-0.579381 -1.849779 -4.048861
-0.827196 -1.968012 4.223424
-0.900843 -2.143228 3.419369
-0.892596 -2.123607 2.574733
-0.897884 -2.136188 1.507673
-0.939083 -2.234206 0.972850
-1.030770 -2.452342 -0.038261
-1.024668 -2.437824 -1.551270
-0.878199 -2.089355 -2.402468
-0.777859 -1.850631 -2.958931
-0.775687 -1.845464 -3.706465
-1.033885 -1.981268 3.770393
-1.081171 -2.071884 2.999686
-1.036856 -1.986962 1.996070
-1.045007 -2.002581 1.296982
-1.129294 -2.164104 0.644945
-1.219674 -2.337303 -0.296730
-1.217120 -2.332408 -1.206699
-1.063659 -2.038325 -1.663370
-0.954359 -1.828871 -2.709603
-0.952391 -1.825099 -3.258587
-0.873301 -1.673536 -4.262652
-0.871283 -1.669669 -5.008737
-1.158864 -1.790439 3.987549
-1.269332 -1.961111 3.272190
-1.262594 -1.950701 2.505327
-1.264612 -1.953819 1.729793
-1.314990 -2.031652 0.838027
-1.364301 -2.107837 -0.220940
-1.316868 -2.034554 -0.972850
-1.206646 -1.864262 -1.589410
-1.116856 -1.725537 -2.240869
-1.096606 -1.694251 -3.085574
-1.067420 -1.649158 -3.828703
-1.251843 -1.934092 -5.463286
-1.267460 -1.631423 4.063995
-1.459155 -1.878164 3.453134
-1.446911 -1.862404 2.638646
-1.446160 -1.861437 1.825058
-1.502039 -1.933363 0.962539
-1.524675 -1.962499 -0.038452
-1.436822 -1.849418 -0.695033
-1.327243 -1.708373 -1.417051
-1.271259 -1.636312 -2.103159
-1.239729 -1.595728 -3.114794
-1.176010 -1.513711 -5.413011
-1.448970 -1.553742 4.136035
-1.612046 -1.728610 3.298828
-1.600858 -1.716613 2.484262
-1.628514 -1.746268 1.929813
-1.667589 -1.788169 0.837434
-1.694916 -1.817471 0.009613
-1.595737 -1.711121 -0.569553
-1.476519 -1.583283 -1.455853
-1.430627 -1.534072 -2.111406
-1.395071 -1.495946 -2.808836
-1.243791 -1.333727 -5.296938
-1.684766 -1.530859 3.687762
-1.693351 -1.538659 2.702229
-1.716605 -1.559790 2.049810
-1.763454 -1.602359 1.263493
-1.821576 -1.655171 0.278970
-1.747809 -1.588143 -0.318348
-1.592958 -1.447438 -1.106579
-1.525089 -1.385769 -1.898889
-1.463933 -1.330200 -2.578786
-1.456519 -1.323463 -3.621269
-1.270207 -1.154171 -4.302962
-1.114919 -1.013069 -5.021106
-1.816116 -1.390733 3.549867
-1.901653 -1.456235 2.791013
-1.893853 -1.450262 2.307266
-1.850214 -1.416845 1.197695
-1.877847 -1.438005 0.598088
-1.855338 -1.420768 -0.347533
-1.747132 -1.337907 -1.046883
-1.670528 -1.279245 -1.769923
-1.619110 -1.239871 -2.378736
-1.564772 -1.198260 -3.394496
-1.319488 -1.010429 -4.269546
-1.798689 -1.152100 4.016675
-1.927364 -1.234520 3.023241
-1.935935 -1.240009 2.128570
-1.977357 -1.266541 1.641726
-1.971789 -1.262974 0.675729
-1.987437 -1.272998 0.048235
-1.889808 -1.210464 -0.803465
-1.759253 -1.126840 -1.439478
-1.725693 -1.105345 -2.524734
-1.696901 -1.086903 -3.331329
-1.515734 -0.970861 -3.935538
-2.076470 -1.072199 3.281844
-2.055244 -1.061239 2.350791
-2.088080 -1.078194 1.680326
-2.149351 -1.109832 0.789873
-2.185949 -1.128730 0.038479
-2.013643 -1.039758 -0.657815
-1.812643 -0.935971 -1.460965
-1.738206 -0.897534 -2.256894
-1.663462 -0.858940 -3.137607
-1.593695 -0.822915 -3.876734
-2.097693 -0.868691 3.375821
-2.146696 -0.888984 2.835547
-2.152942 -0.891571 1.787727
-2.193205 -0.908244 0.983871
-2.114689 -0.875730 0.512359
-1.999750 -0.828131 -0.552968
-1.970585 -0.816054 -1.272422
-1.877958 -0.777695 -1.841802
-1.757096 -0.727644 -2.564637
-1.643914 -0.680774 -3.491845
-1.230819 -0.509704 -4.248187
-0.764219 -0.316476 -5.217874
-2.217454 -0.685982 3.634305
-2.293345 -0.709459 2.858470
-2.262963 -0.700060 2.037277
-2.238761 -0.692573 1.535565
-2.188554 -0.677041 0.638020
-2.087717 -0.645847 -0.116337
-1.931565 -0.597540 -0.915693
-1.792218 -0.554432 -1.712636
-1.737534 -0.537516 -2.452468
-1.648227 -0.509888 -3.180142
-1.341640 -0.415044 -4.219679
-1.072639 -0.331827 -5.165895
-2.297540 -0.503183 3.689654
-2.368157 -0.518649 3.137822
-2.337230 -0.511876 2.016563
-2.315656 -0.507151 1.582704
-2.238365 -0.490223 0.667017
-2.134969 -0.467578 -0.174505
-1.995711 -0.437080 -0.749591
-1.864603 -0.408366 -1.867782
-1.771523 -0.387980 -2.374105
-1.734404 -0.379851 -3.452621
-1.317137 -0.288466 -3.944838
-1.105127 -0.242033 -4.859611
-2.219159 -0.295042 4.034505
-2.341242 -0.311273 3.279536
-2.302039 -0.306061 2.486012
-2.294607 -0.305073 1.449719
-2.321727 -0.308679 0.704685
-2.339978 -0.311105 -0.173646
-2.125128 -0.282540 -0.786316
-1.879478 -0.249881 -1.603941
-1.785386 -0.237371 -2.178149
-1.745431 -0.232059 -3.295686
-1.496514 -0.198965 -3.807449
-2.159208 -0.084742 4.013872
-2.343308 -0.091967 3.368714
-2.337494 -0.091739 2.368442
-2.349595 -0.092214 1.709275
-2.320749 -0.091082 0.936976
-2.258831 -0.088652 0.174137
-2.087995 -0.081947 -0.563854
-1.889911 -0.074173 -1.496424
-1.791108 -0.070295 -2.031139
-1.733696 -0.068042 -3.001264
-1.672313 -0.065633 -3.929478
-1.281780 -0.050306 -4.667636
-2.254272 0.102311 3.738728
-2.259955 0.102569 3.006019
-2.297231 0.104261 2.138233
-2.334673 0.105960 1.381126
-2.214902 0.100524 0.707173
-2.108196 0.095681 -0.126297
-2.023841 0.091853 -1.061774
-1.871337 0.084931 -1.653959
-1.811646 0.082222 -2.374105
-1.732317 0.078622 -3.278331
-1.391567 0.063157 -4.120587
-1.254760 0.056948 -5.035532
-2.054597 0.267872 4.329532
-2.264432 0.295230 3.511197
-2.304835 0.300498 2.514983
-2.288883 0.298418 1.846957
-2.233997 0.291262 1.122823
-2.119651 0.276354 0.417451
-1.973715 0.257327 -0.614176
-1.868996 0.243674 -1.330236
-1.780788 0.232174 -2.089947
-1.747620 0.227850 -3.028618
-1.641946 0.214072 -3.513767
-1.257604 0.163963 -4.346397
-2.164785 0.490581 3.625144
-2.264526 0.513184 2.816233
-2.252658 0.510494 1.875940
-2.244187 0.508574 1.063264
-2.087146 0.472986 0.592185
-1.938338 0.439263 -0.409462
-1.885541 0.427299 -1.289329
-1.793656 0.406476 -1.969586
-1.735933 0.393395 -2.612783
-1.718549 0.389455 -3.572751
-1.316485 0.298340 -4.397062
-1.100207 0.249327 -5.022677
-2.112326 0.669027 3.586400
-2.149003 0.680643 2.909270
-2.152725 0.681822 2.276709
-2.090401 0.662082 1.522682
-2.039445 0.645943 0.543649
-2.012791 0.637501 -0.291453
-1.930018 0.611285 -1.013082
-1.790258 0.567020 -1.751751
-1.707577 0.540833 -2.414964
-1.668918 0.528588 -3.455011
-1.336635 0.423346 -4.199863
-1.114898 0.353116 -4.956057
-2.021926 0.833034 4.020763
-2.110602 0.869569 3.238122
-2.123019 0.874684 2.080249
-2.160172 0.889991 1.361819
-2.047063 0.843390 0.523130
-1.975258 0.813806 -0.291249
-1.890356 0.778827 -0.817724
-1.732440 0.713765 -1.663739
-1.674400 0.689853 -2.334919
-1.639905 0.675641 -3.433008
-1.369494 0.564232 -4.230800
-1.919470 1.009080 3.855918
-1.933161 1.016277 3.256913
-1.879568 0.988103 2.509730
-1.967570 1.034366 1.637834
-1.967745 1.034458 0.958990
-1.978531 1.040128 0.096811
-1.875276 0.985846 -0.777155
-1.682229 0.884360 -1.701671
-1.604070 0.843271 -2.354513
-1.541617 0.810439 -3.079797
-1.339976 0.704435 -3.846963
-1.106758 0.581831 -4.611120
-1.072900 0.564031 -5.601040
-1.764849 1.123482 4.287641
-1.802642 1.147540 3.290599
-1.838066 1.170090 2.583792
-1.838137 1.170136 1.766202
-1.898261 1.208410 1.035733
-1.927731 1.227170 -0.058005
-1.745048 1.110877 -0.778246
-1.545166 0.983634 -1.243973
-1.558015 0.991814 -2.106618
-1.539596 0.980088 -2.875456
-1.428286 0.909229 -3.877629
-1.215881 0.774015 -4.526663
-1.645741 1.254952 4.310080
-1.738829 1.325935 3.285997
-1.741271 1.327798 2.729217
-1.759362 1.341593 1.929666
-1.791236 1.365898 1.113147
-1.738479 1.325669 0.281145
-1.600128 1.220170 -0.389692
-1.494434 1.139573 -1.173797
-1.436544 1.095430 -2.266338
-1.393086 1.062291 -2.901069
-1.315942 1.003465 -3.503928
-1.194498 0.910859 -4.609417
