-0.756388 2.042465 1.270683
-2.231962 -0.623883 1.747842
1.898180 -1.384358 -1.317858
0.840821 -2.069853 -2.688203
-1.878622 -1.394265 1.227070
1.648939 0.405968 -3.211060
-2.136992 0.607491 0.489301
1.931877 -0.214384 3.869566
-0.572003 1.882600 -2.084251
-0.893837 0.845437 -5.315619
1.575136 -1.150981 0.423647
-1.860262 -0.988277 -1.050286
1.672108 -1.304676 2.162459
1.286265 -0.929279 -4.245138
1.221085 0.039494 -4.865632
-0.002173 -2.341697 0.906051
-1.517350 -1.409360 -2.323366
2.207583 0.116477 2.885194
0.927166 -1.797165 -3.707730
0.000439 1.931589 1.654918
1.418764 1.219463 4.143497
-0.892959 -2.168053 1.981112
-0.362951 -2.346058 1.101837
-0.045806 -2.921082 -1.723616
-1.809467 -0.733077 -2.137116
-1.441532 1.551044 3.953978
-2.055498 -1.049897 1.438804
-1.244182 -1.592950 -3.736432
1.558982 -1.031218 1.399082
-1.966583 0.215771 -0.540119
-1.310455 0.355385 -4.444171
-1.955195 0.931771 -0.211243
1.022049 -2.056525 4.051473
1.719904 -0.083577 -2.810755
-1.777326 1.290991 1.912089
-0.425090 -2.248392 1.196863
0.500265 1.734041 -3.701900
1.764072 -0.205536 0.201155
0.725235 2.060173 -2.724345
1.177620 1.607724 0.067044
1.772524 -0.444250 -1.691892
-1.694697 1.155326 4.060723
-0.984820 1.550102 -1.257703
1.663420 -0.662263 -2.107993
0.088440 -2.503832 -2.108661
0.504663 -2.969254 -0.907925
-1.172733 -2.008631 2.432370
-0.333270 -1.699347 -4.989506
-1.719594 1.359655 3.065480
-1.748701 0.255995 -3.013050
-0.805795 1.889638 2.328960
-1.080307 0.894960 -4.317272
-0.499195 1.690356 -2.989578
1.541479 0.350027 1.505651
-2.084162 0.687328 1.493682
1.669872 1.013991 2.914271
-0.472566 1.708694 -3.642852
1.555166 -1.457673 -3.263707
-1.980259 -1.104363 0.406668
0.988587 1.160543 -4.233973
-0.836756 -2.152818 3.553901
-2.182198 0.114309 -0.058169
-0.846641 2.133721 -0.887695
0.580710 -1.997486 0.981233
0.061575 1.582481 -2.674813
1.888891 -0.942647 4.402092
1.139973 1.609216 3.220780
-0.428045 2.047325 3.135029
-0.569464 2.221096 -0.601055
0.027641 2.454886 -1.123132
-0.560595 -1.697973 -4.969331
1.455840 0.137556 0.708098
1.866032 -0.541303 1.765588
1.797522 -1.736062 -1.724054
-1.064731 -2.424410 -0.132046
-0.694448 2.307311 -0.114075
-1.390705 -2.029330 -0.000481
1.411183 1.051411 2.358035
1.483956 0.485368 1.139811
1.069497 -1.371322 -4.609292
1.310686 1.720694 -0.935408
-0.068263 2.005666 1.939184
0.538424 1.447952 2.253720
2.123365 -0.942221 -1.314172
-1.687698 0.777221 -1.803837
-1.749355 -0.311542 -2.537571
-1.453555 -1.548490 4.170836
1.894238 -1.117575 2.218582
-0.381366 1.628746 -5.447071
0.371573 1.683268 4.152723
1.750197 0.835299 3.789441
1.286368 0.801303 0.701297
-0.723844 -2.142545 -1.843359
1.437328 0.517256 0.773536
-0.963558 -2.143241 3.044297
-2.285521 -0.283708 1.936044
-1.971636 -0.161557 -1.103848
0.212713 2.004189 2.271059
-1.102606 1.768934 3.266036
1.995977 0.655775 -1.137955
-1.826560 0.346122 -1.394690
2.238003 -0.030222 2.949946
1.641594 0.030504 -3.183291
2.002400 -1.153164 2.740243
-0.796152 1.589850 -3.628514
-1.763446 0.051586 -2.931370
-0.674678 1.912164 2.661663
0.118479 -2.400114 -2.422288
-1.658916 0.747749 -2.251087
1.799001 -1.070280 -0.463510
0.852397 1.568935 -3.281111
-2.230258 0.485721 1.979997
-0.821740 2.108867 -0.376684
-1.996454 -1.198249 0.552277
2.080624 -0.987684 2.770355
-1.532914 1.666942 0.579726
0.248823 2.475631 -0.429989
1.748261 0.046770 -3.606747
-0.293761 2.082822 2.693231
-1.656896 0.228383 -3.479510
-2.015471 0.385474 -0.910603
0.118547 2.452200 -0.447250
0.971561 0.310972 -5.554239
-1.827405 -0.024262 -1.877725
-0.982800 -2.272542 0.517245
-0.909092 1.377884 -5.318756
-0.076889 2.524851 -0.558982
-0.750007 1.989224 1.979204
-1.719314 -0.157779 -2.882278
1.745055 -1.308791 2.269248
-2.176485 0.652194 1.791949
0.211355 1.379368 -5.314785
-1.776773 1.356196 0.995199
1.864485 -1.819895 -2.214895
1.270838 -1.410677 0.881067
-1.798279 -0.137007 -2.305031
-0.545140 2.039789 1.938216
-0.528200 1.521787 -2.390048
-0.939218 -2.533422 -0.028286
1.370652 -0.084667 -4.198800
-1.603827 1.534944 3.041842
1.812883 -0.794746 -0.004925
1.070115 0.924480 1.210625
1.521078 0.774644 -3.474246
0.616118 1.837588 2.742769
1.884927 0.854485 3.020272
-0.935961 1.566335 -1.761196
0.284192 -1.959480 2.568413
0.993623 -1.724872 -3.816596
-0.609257 1.586986 -3.940976
-1.861614 0.336319 -1.231600
-1.708024 1.432842 0.298699
-1.155243 1.755873 2.391960
1.970070 -0.909231 -1.011049
-1.864011 -1.543407 0.910787
2.096979 -0.793618 2.750782
-1.420591 1.365490 -1.094959
-0.242763 -2.026302 -3.395536
-0.986659 2.073204 0.536172
0.008194 -2.008186 -3.781075
0.497798 2.306466 -0.400865
-2.148490 0.327491 3.896844
0.032502 1.756951 1.809583
1.961711 -1.260049 2.733205
-2.081478 0.415819 0.099660
1.240569 1.212173 -0.419842
1.463226 -1.597984 3.584516
1.693970 1.148037 -1.130695
0.544842 -2.132387 0.558148
1.446937 -1.204222 1.039650
-0.997911 1.354211 -3.982874
-1.068013 -0.277287 -5.163893
1.863549 0.832827 -1.965551
-0.445603 -2.247280 -2.039955
-1.728691 -1.285907 -1.394245
1.299438 0.640465 -4.267011
1.414099 -1.306490 -3.753983
1.162539 1.675705 -1.049752
1.740774 0.079280 -0.219208
0.399191 2.018720 3.228416
-1.552581 -1.485948 3.988356
1.855839 -1.483106 -2.860486
1.020893 -2.501147 -1.888290
-2.279689 -0.450738 3.137016
-1.952095 0.424681 -1.014868
-2.068297 0.725265 1.758963
-2.093455 0.294287 0.046761
1.843572 0.444635 -2.060602
-2.070121 -1.128114 2.701469
-1.063643 -2.413544 -1.498625
-0.655587 -1.928259 -4.027887
-0.273698 -2.286843 1.795776
1.788613 0.855703 -2.450817
-1.331862 0.315058 -4.342218
-2.139042 -0.530444 0.345981
1.203694 1.146138 -2.930869
-0.934483 -2.302072 -1.237084
-2.142700 -1.107228 -0.051101
-1.661702 0.416002 -3.698137
0.808605 -1.829363 0.996619
-0.012529 -1.556829 -5.053927
-0.610066 -1.817073 -4.251862
1.796402 -0.152219 -0.081274
-1.522097 -1.779322 2.612545
-0.198711 -1.847091 -4.197099
1.927827 -0.937091 4.068790
-0.293468 2.497667 -0.454326
-1.287643 1.736631 0.971692
-1.630015 -0.963683 -2.247990
1.695786 -0.346938 -3.750317
-1.090922 -1.319625 -4.240596
1.172628 1.523080 3.421915
2.058316 -0.852335 3.971957
-2.226655 -0.308654 3.920696
1.138447 1.135809 -4.052157
0.122941 1.604437 -3.816656
-1.762755 1.417933 1.340443
-1.541270 -1.774203 3.046457
0.200200 1.692765 -3.594216
0.134828 2.326979 -0.851309
-1.199367 1.330332 -1.799044
0.044203 2.070460 2.340241
-2.041650 -0.861971 3.512882
1.044307 -1.622108 -5.677507
0.698725 2.334644 -0.598650
-1.107554 1.422327 -1.968054
-1.472040 1.758899 0.252578
-1.672235 -0.616386 -3.269998
-2.233570 0.267623 3.615503
1.056659 -1.648711 2.256300
-2.202235 -0.294522 4.074780
-0.109488 1.838122 4.076538
-1.991280 0.626533 -0.300626
1.807540 -1.568994 -2.562188
-1.530019 0.224416 -4.096633
-0.214256 -1.627837 -4.987302
1.366249 -2.332883 -2.440893
-1.155526 -1.734535 4.149000
1.018248 1.615591 3.663501
1.582943 -1.000535 -0.628192
1.352313 1.293380 3.910213
0.343690 1.526269 1.295366
0.092275 -2.431725 -2.243317
1.908421 0.223662 -0.444045
-1.215021 1.287525 -3.186666
-1.916363 0.565181 -0.931426
0.674635 1.674706 -3.459365
0.012541 1.721490 -3.455807
2.096036 -0.677832 2.103249
-0.277591 -2.185066 -2.494563
-2.322906 -0.442474 1.931620
0.477671 -2.494329 -0.090771
2.016319 -0.983913 2.593807
-1.057689 0.250061 -5.079741
-1.555187 -2.048148 0.334964
0.079759 1.838792 -2.391997
0.381422 1.582190 -4.041092
-1.893358 -1.084466 3.858509
-1.894702 0.980578 0.296051
1.954484 -0.436561 -0.709280
1.485381 -1.647316 3.297347
-2.271105 0.430225 2.588416
-2.035218 -0.622645 -0.249737
2.096394 -0.717058 3.583724
0.722504 1.654962 2.825360
-2.121531 0.044617 3.837207
0.784215 -1.744190 1.718085
0.123096 2.059818 3.258677
0.153739 1.997400 2.949234
-0.078152 2.069952 2.165106
-0.226076 -2.430440 -2.809777
-1.379579 -0.361858 -3.967148
-1.140365 1.864876 2.694459
1.448540 0.750832 2.019255
-1.863596 0.142203 -2.010294
0.211142 1.564247 -3.998888
-0.144286 -1.524140 -5.198543
-0.136915 2.145556 0.384069
-1.869922 0.612411 -0.758823
-1.714077 -0.778424 -1.614263
-0.508690 1.795741 4.037640
-2.154201 0.655227 3.408240
0.217824 1.450117 -4.720487
-0.213305 2.137642 0.480555
1.985596 -0.838896 3.346421
0.121512 2.451250 -0.275491
1.102653 2.064642 -1.024276
-1.051084 1.913463 0.187955
-2.119740 0.261343 3.805910
1.790406 0.898069 -0.558666
0.894042 1.689365 3.634035
1.112856 -0.272733 -5.379929
-0.089215 2.541580 -0.267247
-0.448958 -2.856565 -0.565038
1.597284 -0.760291 -3.717370
1.285285 -2.259692 -2.346384
-2.278587 -0.491247 1.780028
1.870902 0.354964 4.281881
1.802795 0.894643 2.693514
0.576345 -1.843768 1.827426
2.148050 -0.332801 2.683474
1.328144 0.200865 -5.174006
-0.580033 -2.049165 -2.720005
1.661924 -0.643551 -2.285480
2.168594 0.038809 2.153466
0.470585 -2.917778 -1.291906
-1.117958 -1.331029 -4.414319
-1.026815 -1.456375 -4.367615
-1.879299 -0.888711 -1.430400
0.579018 1.775087 -5.169195
1.377445 -0.843758 -4.001380
-1.619095 -1.615899 -0.548987
1.674580 -0.933291 -3.190052
-1.812689 1.061956 4.199351
-0.832759 -2.562645 -1.057428
1.416241 0.757847 0.566004
1.391038 -2.223016 -1.300549
0.511268 -2.165340 -0.044604
-2.050495 -0.289804 -1.010367
-1.911041 -0.961197 -0.945374
-1.161958 1.395585 -2.595573
1.201501 0.701145 -5.328684
1.831569 0.292159 -0.620797
-2.037955 -0.071107 -0.483333
-1.566946 1.296842 3.948676
1.833609 1.011978 -0.527905
2.028520 -1.512027 -1.340054
-2.073674 0.599911 3.297477
0.319291 1.661065 -3.119405
1.258361 -0.332518 -5.125005
-1.878763 -1.485684 0.075524
1.856358 -1.545772 -1.444453
-0.151688 1.986587 3.636610
-2.038925 0.411499 -0.254107
0.195826 -2.629529 0.234002
-1.433436 1.166298 -3.464616
-2.149893 -0.521764 3.657581
1.795318 -1.097287 -3.121159
1.137186 -1.322561 1.661973
1.421413 -0.824241 0.825274
-0.699019 1.492041 -4.079947
-0.622224 -2.278170 -1.841826
-1.003168 -1.090177 -5.214937
1.721437 0.008921 -3.085757
-2.151881 0.608440 2.053090
-2.194090 0.499640 2.921764
-2.078780 -0.294184 -0.392807
0.773768 -1.973795 2.795207
-1.792064 -0.557794 -2.566422
-2.255613 -0.302545 2.701353
1.936281 -0.986704 3.137799
1.289648 -1.652315 -0.106811
-1.893589 -1.438030 1.989659
-1.394567 -1.439828 -3.781719
0.949569 -1.683178 2.337915
1.721736 -1.130412 -3.448025
-1.814875 -0.517062 -1.572759
2.154611 -0.121134 2.652391
1.174144 -1.450913 -4.212675
1.560027 -0.584632 -4.087904
1.059223 0.303584 -5.422386
1.641863 -1.387474 2.270627
1.346960 -1.049873 1.272490
-1.727636 -0.748400 -3.021806
0.462111 -2.042053 2.282828
0.790316 1.253398 1.504811
2.255378 -0.139275 2.089603
1.523045 -0.656499 -4.180371
0.900300 1.506827 -3.773679
-2.167940 -0.626336 2.187277
-2.004832 -0.376367 -0.739018
0.977999 -1.759765 0.970271
-1.530428 1.493472 1.404406
0.828388 1.521269 -4.100708
1.627599 0.826530 2.166831
-1.056201 -2.108508 -0.461530
-1.487075 1.527727 2.907009
1.009978 1.667554 3.310554
0.770089 -1.665800 -4.559741
-1.703098 1.401218 0.898296
0.327629 -1.795614 -4.604096
-1.745431 -0.232059 -3.295686
1.452849 0.907909 -3.068699
-2.107773 0.475243 1.166605
-1.803557 -1.679193 0.293401
-0.146746 1.777024 -3.305048
1.886017 -0.284616 -0.395965
-0.256490 -2.253844 2.936712
2.112743 0.973290 -1.654017
0.551322 -2.113115 -2.555028
-1.510694 1.501286 2.438363
0.027777 -2.223309 1.521895
-2.186759 0.202295 0.559841
1.838396 -1.543720 -2.419704
1.915750 0.954808 -0.598892
0.619920 -2.194391 -2.815472
-1.739729 -1.505530 2.741900
1.175718 1.376903 -2.765486
0.769892 -2.202693 3.707217
1.664719 -0.479516 -2.274382
-1.040230 -1.783762 -2.123013
-0.738063 1.596726 -3.979748
1.801596 1.363169 -1.306656
-0.910548 -2.349839 -0.890337
-1.282596 0.244808 -4.636648
-1.524524 -1.717161 -0.617962
-0.329566 1.961282 1.707551
1.236024 0.652538 1.164637
0.545605 1.855163 2.533409
1.648988 -0.640724 -3.000535
-0.816242 -2.399313 0.266386
-2.216327 -0.234766 3.050351
-1.780530 -1.016497 -1.490067
-0.494895 -1.730175 -4.301748
0.672240 2.033686 0.119929
-2.147074 -0.641743 0.535943
1.708148 -0.745743 -3.143011
1.115919 1.501370 4.076668
0.047047 1.925905 2.151784
1.297753 0.689329 1.577141
-0.317652 1.976812 1.591659
0.788997 1.844083 -3.321979
-1.521885 -1.056290 -3.553434
-2.223696 -0.079250 1.292104
-2.339113 -0.035810 1.176141
-1.514462 -1.054064 -3.097739
0.494179 -1.899457 1.652007
0.415762 -1.706176 -4.743635
0.455975 -2.259143 3.665188
0.846100 -1.895799 0.097365
-0.792879 -1.675359 -5.079373
-0.913990 -1.702619 -3.807035
-0.154992 -2.937662 -1.481438
0.065112 -2.253161 3.683277
1.220327 0.915917 0.607142
-1.740628 0.317250 -2.653704
0.614023 -2.083193 2.691842
0.584111 -1.904740 1.171232
1.520907 1.123023 2.502261
1.007979 -1.614684 0.961950
0.297366 -2.142604 2.428454
1.589606 -1.758070 -2.770478
0.362689 1.674767 2.124426
-2.159971 0.185413 2.103357
0.438460 1.750043 2.629151
1.369484 1.328816 4.047858
2.047063 -0.528776 -0.289277
-1.360364 1.650383 -0.064901
1.259779 0.426612 -4.872525
0.039623 -2.564086 0.546750
1.425716 0.717141 -0.016299
1.211267 -1.740557 0.225939
1.500844 -0.049304 0.627295
1.366324 -1.323295 1.881062
-0.066891 1.770688 -2.247781
1.402867 -1.567426 3.944915
-1.447916 -1.871870 3.335266
-0.168399 1.557144 -4.109105
0.441796 1.309142 -5.170516
-0.346695 -2.172772 -2.399095
-0.424632 2.324897 -0.081634
1.630127 0.914657 -0.119311
1.176351 -1.079012 -4.817967
1.394982 -1.126876 0.937947
-2.327541 -0.078142 3.435240
1.281287 1.390777 3.604313
-1.133815 1.579840 4.220696
1.684264 -1.372510 4.353446
-1.429715 1.669433 3.348783
2.198244 0.061091 2.625644
-0.022408 1.790758 4.315314
0.701807 -1.498954 1.686810
-1.476363 1.467834 3.712480
-1.681674 -1.354949 -1.307525
-0.731422 1.818618 -1.669493
1.481237 -1.383566 -0.623556
2.011100 0.191583 4.170307
1.204216 0.970651 0.952737
-0.257534 2.461073 -0.007112
1.337296 0.707727 1.789308
1.670097 0.180849 1.492471
1.589321 -0.627808 0.197729
-2.119882 0.497280 3.453181
1.080649 -1.507488 2.106625
1.136856 -1.270826 -4.288397
1.541382 -1.570337 2.559156
0.639532 2.211803 -0.294922
-0.623651 1.718184 -2.841632
0.140147 -1.910233 2.024143
1.935786 -0.446662 -0.894774
0.007549 -2.166597 2.287957
1.322260 1.344783 3.496810
-0.569325 -2.784684 -0.648127
0.103482 -1.783367 -4.422160
0.402241 1.694336 -3.951656
1.275794 -0.644519 -4.691591
-1.436591 -1.975782 -0.379892
0.083574 1.858458 -2.606151
-1.320268 1.750301 1.826259
1.667861 0.338526 -3.432344
0.279347 2.136291 -2.540138
1.744751 -0.980254 -0.944899
-2.280579 0.268559 1.804851
-1.992358 -1.226160 -0.006521
-1.601572 -0.179624 -3.785208
1.841913 0.811243 3.563717
-1.990864 -1.321571 2.716062
1.171921 -1.762868 0.014223
-0.941910 -2.069116 2.253725
1.597539 -0.513869 -2.624900
-1.966320 -1.252484 3.168539
-1.505272 1.030336 -2.867431
-1.015066 -2.333362 -1.015137
1.048711 1.361362 2.706411
1.260001 -1.909809 -0.826933
0.205629 -2.091719 -3.103793
1.477075 1.205174 -0.981679
-0.624357 -1.998259 -2.580974
1.306528 -2.209242 -2.022953
-0.410047 -1.745011 -4.376969
-2.302443 -0.484358 2.115541
-1.053935 -1.946032 3.656713
0.705517 -1.563646 -4.695138
1.155925 -1.171665 -4.351347
-1.427314 1.591384 2.106678
1.111722 -1.464016 1.516239
1.547926 0.619973 1.025849
-0.668421 -2.327805 -1.451507
1.643293 1.075021 3.014352
0.808058 -1.495653 -4.345624
-0.986938 1.834776 2.251861
-1.761114 -0.130535 -2.597805
-1.794938 0.621523 -2.101412
-1.640373 -1.707313 2.821576
-1.602154 0.934223 -2.011247
-1.755846 0.964592 3.963300
0.623171 1.634405 -4.035938
1.957963 0.608219 2.560405
-0.728698 1.973433 3.449698
-0.185670 -2.017920 -3.656510
-1.889394 0.600438 -0.584742
1.163530 -1.300573 1.876940
2.050564 -0.861572 3.145841
-1.598931 1.388068 -0.109755
1.642806 -0.947168 -3.629380
1.986206 -0.148593 3.769449
1.466081 1.168002 3.485279
-1.819776 0.349221 -1.680106
-2.110658 -0.599350 0.108175
1.451566 -2.034338 -0.938013
0.888803 1.257609 0.505979
0.175428 -1.801804 -4.161470
-0.320288 -2.306041 3.399510
-2.196298 -0.366367 3.538778
0.882022 0.022093 -5.442211
1.210652 1.726298 -3.302281
0.683958 1.607884 -3.278194
0.147381 1.586404 -4.910465
1.578442 -0.835089 1.472796
-1.615476 0.975880 -1.620628
1.264286 -0.167412 -4.939256
1.821779 -1.649665 -2.448320
-0.717204 -2.220344 1.401417
-0.968572 1.133038 -4.554928
0.667245 2.168772 -0.793785
2.266500 -0.680245 3.003415
0.135390 -2.219561 2.481282
0.385297 1.467248 2.022892
2.133590 0.238827 3.428835
1.551248 -0.985946 0.307010
1.937454 -0.777841 4.111430
-1.634495 0.715588 -2.779686
0.556506 1.630933 -3.685737
1.707887 0.949049 -2.482448
0.230548 1.561011 -2.803946
0.571774 1.406856 1.669823
0.038525 -2.618720 -2.045611
-2.099112 0.561556 3.683564
-1.818976 -1.443165 3.324375
1.648402 -0.237948 -3.217999
1.459584 0.843708 -3.855174
1.809265 0.669983 -2.280488
-0.275073 1.738466 -3.108343
-1.024061 -1.814025 -2.576348
-1.622685 -0.903958 -3.140481
1.322997 1.046565 0.056323
-1.740332 -0.922764 -1.767083
1.710487 0.894580 2.438684
1.905966 0.220030 4.291380
-1.991546 -0.223977 -0.686974
-1.872376 1.053331 2.389661
-0.025038 2.078881 3.259408
-1.801997 0.806846 4.349931
0.873724 1.683494 2.826398
-1.698453 1.279411 1.790691
0.452689 1.662791 2.207496
0.009463 -2.103688 1.995933
-1.787341 -0.450204 -2.123497
-0.570757 2.210471 0.113982
-0.116657 -2.229952 2.636874
-2.256022 -0.187376 2.642838
0.745784 -2.237054 3.393975
0.522954 1.566876 2.056339
-0.168680 1.788594 -3.165565
-0.569069 -2.251166 2.892048
-0.553169 2.046286 1.395142
1.993250 0.297518 3.557790
-1.228986 1.682713 3.377779
0.671777 1.636047 -3.582752
-2.184683 0.190003 2.227736
0.750766 -2.093121 -2.617989
2.158175 -0.261114 1.908911
1.548594 0.960007 0.040230
-1.771885 -1.600088 0.435971
0.716726 1.996393 -2.600942
-1.745525 -0.147309 -3.523665
1.536340 -1.214086 -3.639529
-2.188774 -0.896786 0.915973
-0.263379 1.752054 -2.374461
-2.201786 0.111804 0.640695
-1.877936 -1.460115 0.294475
0.904380 1.789502 3.190431
1.929547 -1.028866 2.109190
0.429854 -2.285990 -2.488476
-1.859492 -1.113549 -0.758096
-2.141316 -0.385558 3.728564
-0.112232 2.070859 0.803428
2.137958 -0.439487 2.418305
-0.992479 0.704073 -5.385165
1.792383 -0.049680 -2.083373
1.734831 -1.014254 -2.414598
-0.268592 2.138899 1.320097
1.552823 0.905150 -2.856175
0.552954 1.943885 3.550738
1.286042 0.261761 -4.583937
-1.678231 1.306620 -0.019128
0.114605 -2.712000 -0.021089
-2.013148 -1.006665 -0.573576
1.263922 1.034849 -3.909271
-0.606720 2.064875 2.646579
-0.349235 2.041436 1.418456
2.134097 0.008788 2.467602
-1.133181 1.785145 1.555549
0.620121 -1.853601 -3.758552
-1.853844 -0.704284 -1.885880
0.723102 1.376552 -3.019984
1.964297 0.508451 -0.881212
1.608025 0.400285 0.217839
1.767792 -1.451810 -0.833905
2.080168 -0.502312 -2.024365
-1.759088 -1.431121 3.664750
-2.255121 -0.235276 1.282964
0.921104 1.401454 0.287840
-2.022758 -1.098480 2.277818
-0.436475 1.548127 -4.812019
-0.756544 -2.532406 -1.311762
1.135377 -1.992006 -3.203603
-0.326837 -2.531787 0.469042
-2.262007 0.101572 1.939986
-1.468698 1.649039 -0.468055
-1.772723 -1.467050 -0.531732
-1.191880 1.080160 -4.489410
1.651947 0.168568 -3.052038
-1.955038 0.787945 2.770253
-0.659811 2.216692 -0.249539
1.018917 -2.101877 3.189501
1.514024 -0.942610 -3.742700
-0.279243 1.735860 -3.477223
-0.873523 -1.874880 -2.779807
-2.053126 -1.133445 3.345416
0.901011 1.501754 -2.863214
1.911514 -0.422107 -2.055946
-2.171616 0.473797 1.618147
1.835948 -0.807810 3.889598
2.033828 0.159933 3.503526
1.744063 -0.101030 -2.624608
-0.615256 2.025444 1.274231
0.427423 -1.969905 -3.399336
-1.689254 -1.240551 -1.663298
-2.243090 0.020398 1.339990
-1.872638 1.172970 3.708406
-0.481654 -2.147614 -2.524297
-1.668930 1.448910 1.566374
-1.800448 -1.488959 2.325139
0.056130 -2.025896 1.878151
1.262769 -1.863699 3.154938
-1.272426 0.612076 -4.482222
-0.736079 -2.667752 -1.805847
1.642536 -0.358182 1.126589
-0.943778 1.551920 -3.854462
-0.164901 -2.183656 1.132971
1.306016 0.362585 -4.478153
-0.703811 1.792216 4.044867
-1.794231 -1.483356 1.193876
-0.950200 -2.560672 -0.349543
-2.297487 -0.501069 3.689675
2.038183 -1.128807 -1.398964
1.691622 0.841329 4.027675
1.443236 -1.177349 0.566187
-1.475682 -1.976377 1.041545
-1.831361 0.358850 -2.056139
-2.143296 0.145188 3.768250
-1.452364 -1.230824 -3.653563
-1.718928 -0.847977 -2.381590
1.533413 -1.623859 3.124377
-1.975826 0.996165 1.644242
-1.636593 -0.051312 -3.939916
-1.293619 1.460372 -1.709058
1.441036 1.132707 0.141342
1.382944 1.001404 1.823379
0.177036 1.815192 -3.166373
2.155669 -1.137668 -2.079050
2.288819 -0.579127 2.917870
0.661769 1.905760 3.487541
1.843479 -2.010849 -2.287858
1.126299 -2.371531 -2.256193
-1.906842 -1.417842 2.318073
-1.694781 -0.677567 -2.642122
-0.829589 1.717496 -1.631145
-1.665183 -1.036164 -2.570163
1.647660 0.574515 -3.491914
-1.481602 -1.502104 -1.949277
-2.159405 0.647485 2.234260
0.178668 -2.710767 -1.911979
1.205149 1.456730 3.155237
1.753780 -1.472964 -0.063249
0.126019 1.956945 3.351666
0.514601 -2.892129 -1.157066
1.550821 0.841538 -2.997473
-1.798689 -1.152100 4.016675
-1.561263 0.708406 -3.686430
-1.927263 0.218967 -1.460527
0.722012 2.195760 0.081939
1.699705 -1.932617 -2.505681
1.647060 -1.025917 -0.373046
-1.746821 -0.932754 -2.571359
0.323610 1.994911 -3.336735
2.000225 -1.033800 -1.825982
1.460533 -0.300889 0.712047
-0.854130 -1.968924 3.986616
-0.608431 -2.232169 1.199378
-1.924409 1.019224 3.124344
-2.041275 0.713311 1.291634
1.751768 1.092152 -2.201385
1.059242 -2.093714 -2.991537
-0.226613 2.089608 3.161695
-0.767330 2.200098 -0.420460
-0.132409 2.218431 -2.806121
0.471402 1.907265 3.394346
0.350870 -2.925284 -1.585458
1.115195 -2.080343 -0.741520
-0.766156 1.579038 -2.121841
-0.907734 -2.464395 -1.001965
1.856644 -0.057435 -1.459859
-0.786000 -1.923011 -2.473728
1.250601 -0.434365 -5.423343
-2.100938 0.662068 1.628743
0.496630 -2.235153 3.032907
1.050342 1.119941 0.370988
-1.762390 1.302621 0.048774
-0.620445 1.941772 2.975169
2.183366 -0.973347 -1.465926
1.980386 0.511516 2.752629
1.001594 1.601428 2.916877
-1.602255 1.409459 2.508482
1.468835 0.181045 -4.314780
-2.225918 -0.413293 1.060479
-1.360603 -2.070396 -0.263373
1.935208 0.323460 3.772798
1.934124 -0.254900 -0.602498
-2.184149 -0.057425 3.949026
-0.260980 2.063122 1.176977
-1.536787 -1.218905 -2.863033
-0.954110 -1.820982 -3.279778
-0.183394 -1.920007 -5.177199
-0.163420 -1.982955 -3.906995
1.545638 1.096156 3.188167
-1.789491 -0.533653 -2.026907
1.164503 1.433795 -5.404555
-1.965245 0.929745 2.303637
-1.504988 -1.820595 -0.454739
-1.572712 0.879567 -2.513309
1.397684 0.999416 -2.953587
-0.132177 2.493877 -0.016829
1.145525 1.201628 2.135250
-2.107070 -0.072259 -0.219561
0.438504 -2.650700 -1.891362
-1.179014 1.670156 -0.383108
1.475420 -1.834831 -0.208374
-0.816767 -0.446609 -5.090295
1.411056 -1.332451 -0.059564
-1.310583 1.185283 -2.623068
1.230359 1.274324 2.589155
-1.989947 1.093478 0.860929
0.349112 -2.539612 -2.247429
1.480788 1.056238 2.822469
0.920111 -2.206923 3.549278
1.264752 -1.950415 -2.749697
-0.695328 -2.199413 -1.709631
-2.107501 -1.006319 0.431231
1.736657 -0.398320 0.305189
1.983440 0.534499 -1.208233
0.023163 2.063616 2.234053
-2.032551 -1.079352 3.255028
-0.161761 -2.301681 2.422209
-2.188541 0.387582 0.946481
-0.722996 -2.750454 -0.155879
-0.994704 -0.406316 -5.183016
-2.046278 -0.851780 0.368023
-1.033006 -2.078402 -1.615601
-1.975673 0.755434 -0.324852
0.127794 2.352421 -1.221823
0.147681 2.403051 0.081387
1.536983 -0.381081 0.444077
-1.683619 -1.138291 -2.596437
-1.403387 -1.659472 -1.466654
-1.494434 1.139573 -1.173797
-1.558531 0.948178 -2.309408
0.826924 -1.586905 1.498744
1.794906 -1.110271 -1.846028
-1.978896 1.058555 0.186156
1.641783 0.234212 0.260473
1.885200 0.750625 3.328065
-0.850168 2.105725 0.982457
-1.170710 -0.977683 -4.140381
0.958972 2.196048 0.149461
-1.830438 -1.411585 -0.166954
-0.662919 1.762129 -2.013444
-1.803867 0.783002 -0.673132
0.151310 1.464705 -4.623935
-1.804643 -0.457024 -1.753782
-2.239139 -0.650927 3.694322
-2.315150 -0.381699 1.605762
1.572815 -0.918171 1.714891
-1.502353 1.643726 3.084828
1.470879 -0.299994 0.577259
-1.060392 1.442160 -1.404971
0.661333 1.173183 1.968784
-1.009488 -1.843624 -1.860631
-0.776042 -1.745500 -4.297569
0.171723 -2.029574 2.023556
0.623640 -1.773379 1.323255
-1.018013 1.950370 0.505725
1.371589 -1.642251 -3.503620
0.043775 -2.162065 1.162220
-1.933198 -0.399535 -0.586823
0.481022 2.206462 -0.896473
-0.060578 2.091891 2.628476
-1.411365 1.134907 -2.210936
1.377819 -0.535623 -4.815804
2.008213 -0.733890 -0.903034
1.108220 -2.454376 -1.988678
0.203076 -2.319641 3.610302
-1.168259 1.752733 2.500029
1.325202 -1.761953 -0.139855
1.730342 -1.396081 2.937274
1.618601 0.180096 1.026434
0.660379 -2.048041 -0.051409
-2.093343 -1.093759 2.932893
-1.657121 0.826122 -1.919734
1.392699 1.063935 -3.542481
1.986099 1.249745 -1.380523
-1.402641 1.262974 -1.262635
-0.110203 1.718972 -3.493025
1.386529 0.440698 -4.459293
-0.185742 2.392073 -0.631064
-2.000022 -1.229949 0.685649
1.814919 0.122300 -1.344150
0.599619 2.353034 -0.873252
-0.627894 -2.412731 -1.628055
0.422926 1.635974 2.350632
-0.552893 2.175535 0.726059
-0.863769 1.942822 3.736513
-0.693890 -2.177939 -1.479115
1.413782 0.037147 -5.222210
1.609738 1.409081 -3.155293
-1.949270 -0.644225 -0.774979
-0.514947 -1.960822 -3.748340
1.334728 -0.190583 -4.541117
0.176079 2.006136 2.480335
-2.042312 0.790181 2.417192
0.058622 -2.335665 3.405205
0.163163 2.005702 2.778677
1.191417 -1.142008 -4.511086
1.992897 -0.989840 2.829165
1.842796 -0.085946 -0.551493
0.456046 1.598660 1.172552
-0.079221 -2.345065 2.946141
-1.812531 -1.187642 -0.566842
-1.206930 -0.152486 -5.119700
-0.931273 -2.159538 2.739825
1.691095 -1.212171 -0.658901
1.278214 1.352943 -2.793227
1.409338 0.240616 -5.536614
-0.752362 1.966805 2.533843
1.931173 -0.830229 0.120759
1.430813 -0.697107 -4.727973
-0.561072 -2.289557 1.379204
1.232998 0.296352 -5.082531
-0.927310 1.229165 -4.467847
-2.082668 -0.718866 -0.034253
-1.111010 -1.906665 -1.521601
1.389699 1.012907 -5.415010
0.413918 1.869646 2.695232
-0.263448 -2.247107 1.035713
-1.242118 1.571233 -0.799130
-1.537619 0.926640 -2.893586
0.556661 1.279883 1.906367
-1.851712 1.051112 2.560742
-1.885036 0.943294 2.840481
-1.265899 -2.119604 0.539736
-1.785899 0.591685 -1.247253
0.150886 1.812438 -2.880284
1.687882 -0.350157 -3.393570
-2.222111 -0.063713 0.808840
1.790159 -0.357561 -0.372891
1.483128 0.146818 0.478464
0.306294 -1.942411 1.889421
-1.095085 1.751784 -0.697436
-1.671300 1.208632 4.208567
2.133441 -0.745658 2.305733
1.622255 0.112707 1.321070
1.161956 0.601411 -4.718444
-1.263894 -0.167750 -4.879765
-1.904557 -1.385890 2.215078
1.249565 1.847584 -0.958498
1.351333 1.836510 -0.793653
-0.918486 -0.599347 -5.192152
-0.059713 1.195580 -5.288559
-2.112046 0.669677 3.586612
1.824041 -0.859539 4.208807
0.486778 1.670619 -3.617515
-0.872458 1.838687 1.596708
0.208673 -1.778905 -4.598431
-1.752718 -0.550089 -2.977257
1.250903 1.431521 3.744673
0.656782 -2.252598 -0.103967
1.752300 -1.031156 4.026431
-0.332927 1.533700 -2.545311
0.015383 -2.931370 -0.430642
-0.396649 2.047781 1.936525
1.396603 -0.986014 1.120299
-2.180092 -0.290244 2.260358
-0.352473 -2.752783 -0.099227
-1.246306 -1.974948 1.432051
-1.344283 1.665232 3.223476
1.416345 0.971470 -3.764740
-1.712549 -1.287116 -1.190316
-0.420684 -2.659489 0.415647
0.251707 -1.823068 1.756486
-1.883129 -1.101057 -0.599153
0.010096 -2.291138 2.716265
-0.314490 -2.478567 0.330288
-2.172813 -0.921330 1.045176
-0.886543 1.910099 1.765350
-2.123068 -0.955467 1.282881
-1.832456 -1.488884 2.666707
-0.826966 2.115559 -0.203071
-1.238887 -1.950758 1.820974
-0.608363 1.711436 -3.097030
-0.536051 -2.865161 -0.313532
0.759504 -2.618291 -1.826384
-0.209014 1.618094 -5.149430
-0.420683 2.072310 2.760756
-1.112593 1.406802 -2.241555
1.712656 0.847065 -2.712076
-1.661350 1.415391 1.826560
2.049621 -1.119298 -1.759725
-1.999590 -1.319464 0.925443
-0.897634 0.837195 -5.191751
1.628869 -0.545146 -2.439637
-0.263521 -2.838373 -1.665192
-1.683201 1.025253 -0.976940
1.031704 0.535642 -5.312580
-1.516080 -1.469139 -2.212029
-0.251103 2.206467 0.689194
1.554824 -1.215412 0.211622
2.102577 -1.553657 -2.150781
0.224022 1.796464 2.161375
-2.229680 0.505383 3.285737
-2.068781 -0.823211 0.263112
1.597786 -0.525816 0.123404
1.375847 -0.932225 1.318521
-0.632748 -2.234313 2.604343
-1.559744 1.627433 0.756120
-0.669672 -1.699160 -5.105114
0.386311 -2.136544 4.059197
-0.461475 -1.996434 -2.481050
-1.054057 1.454884 -3.752695
-2.008952 0.208085 -0.945727
0.395230 -2.187343 0.798686
-1.038039 -1.950461 3.828963
-1.442861 0.725570 -3.965137
1.772171 -0.054399 1.609607
-1.123551 0.186784 -5.015707
0.989139 -2.095508 -2.886612
0.454256 -2.115894 0.623756
-1.765484 -1.103882 -1.341557
-1.284654 -0.154081 -4.654370
0.077782 1.617371 -2.466093
0.282411 -2.418805 -2.373906
1.667365 -0.495212 0.758303
1.716832 -0.166115 -3.522361
-1.046016 -2.028132 1.206870
1.548838 -1.605899 -0.640552
1.766866 -0.542805 -2.006866
-2.311796 -0.168659 3.268282
0.907796 -1.324412 1.648930
-2.086994 -1.021680 0.216653
-0.309031 1.486814 -4.209323
-1.404351 -1.733728 -1.302149
2.080961 -0.562958 2.000751
-1.312149 -1.936521 3.338434
1.998124 0.585196 2.997058
-1.700848 -0.989890 -3.286496
-2.310056 -0.058161 2.473467
-0.547210 -2.105909 3.774383
1.634675 1.032580 -2.561338
-1.497585 -1.426688 -2.812391
-0.923092 -1.852605 -2.291583
-0.056530 1.442929 -5.157722
1.522669 1.057766 0.013880
1.407722 0.327987 -4.394532
1.777558 0.173464 -0.192762
-0.301269 1.749830 -2.026698
-1.142674 0.378485 -4.945462
-1.930292 -0.849920 -0.630009
-1.442324 0.976943 -3.608204
-2.343499 -0.013649 1.421413
1.499866 1.149869 3.011848
2.106863 -0.389888 3.963936
0.088555 2.082363 2.776254
1.554150 -0.862239 0.185709
-0.408868 -2.000886 -3.289004
1.272826 0.259705 -4.725285
-1.028632 -2.323606 -0.864934
1.183718 -1.853523 4.061149
1.739233 0.037801 -3.776094
-0.896982 1.935535 0.499557
-0.016187 -2.270414 -2.619308
0.633170 -1.717731 -4.184135
-0.505864 2.074647 -2.472478
0.643755 -2.085760 0.387671
1.601533 0.627465 -3.949699
-0.261197 -2.004580 -3.730480
1.369798 1.091272 4.122930
1.632677 1.017991 3.527508
1.181258 0.455307 -4.809965
-0.648736 -2.768551 -1.070873
-1.028292 -1.981307 -1.469095
2.143904 -0.279579 2.365195
-0.737256 -1.899621 -2.899380
1.562029 1.092459 -2.804592
0.910355 -2.051270 -2.602247
0.603644 -1.931606 -3.474162
1.851053 0.553930 2.153269
2.062987 -0.353991 3.478837
0.238929 1.528936 1.629242
0.772635 -1.781602 2.455116
-1.226348 1.755662 3.494529
-1.440199 1.407626 -0.517872
1.355281 1.835966 -1.165605
1.671292 0.312524 0.055250
1.125626 -2.081964 3.233115
-0.741475 1.668065 4.297422
-1.369986 -0.135546 -4.146306
0.573320 -2.826438 -0.622774
0.253554 1.662516 -4.200429
0.417815 -2.946377 -0.543956
-0.316862 2.282752 0.064062
-1.253122 -1.603026 -5.455687
0.193858 1.996082 3.058069
1.518469 -1.093839 -3.451607
-2.175735 -0.256160 -0.374746
-1.905815 0.928599 3.847284
-1.979759 0.901244 0.019510
1.129839 1.054737 0.434869
1.552580 0.983172 2.947130
-0.873781 -1.822147 -3.918611
2.167319 -0.117857 2.276829
0.019877 -2.084387 4.073890
2.000672 -0.707659 3.623520
-0.590806 -1.701591 -5.207133
0.421913 -2.177642 3.861145
1.340751 -1.603275 0.290031
0.500585 -1.706788 -4.338532
-2.202006 -0.868155 2.001025
1.212613 -1.637749 -0.019625
-0.213615 -2.058272 -2.828188
-2.060022 0.190960 3.893757
1.709440 -0.453539 -2.583555
-0.849500 1.566969 -2.706764
-0.380661 2.047533 2.426303
1.846432 -1.338465 3.669998
-1.147847 -1.500538 -4.289290
0.234397 1.795014 -2.809474
1.219643 1.338110 4.178051
0.202348 1.604661 -3.900836
0.001213 -2.360059 -2.441811
-1.738697 0.060741 -3.374318
-1.918572 -0.784123 -0.943588
1.608680 -1.634539 -3.439960
-1.767885 0.162159 -3.428136
-0.869830 1.753985 3.639095
-1.073959 -1.495789 -5.328905
1.685708 1.021801 -0.960641
1.611197 -0.248979 -2.952765
0.033248 2.413154 0.260229
1.732903 0.070916 0.265049
-0.668488 -2.139617 2.875905
0.363649 -1.970005 1.721915
-2.217547 -0.174338 -0.173370
1.241221 0.712647 -4.440550
-2.075362 -1.038242 0.859715
-0.647586 -2.186273 3.615979
-2.084336 -0.808717 0.459024
1.484013 -0.018777 -5.158481
-1.372185 1.555025 1.601451
1.306352 -2.082349 -0.959976
-1.931098 -0.450132 -0.908965
0.308679 -1.773137 -4.453107
-0.036442 -2.795760 -0.039213
1.775556 -0.363438 -2.060338
1.345452 -1.171705 -3.878383
-1.567427 0.030956 -4.036577
-1.042780 1.966187 1.155727
0.004632 -1.985391 4.104531
-1.447152 -1.383217 -2.616461
1.693878 -0.080634 1.216244
1.854866 0.822593 3.402357
1.612658 1.483891 -0.629098
1.832105 -1.100405 4.364614
-1.335602 1.383244 -1.282047
-0.506545 2.009724 3.571257
-0.233841 -2.641993 -2.036088
-1.418619 -1.489575 -2.994402
0.895608 0.991501 1.339312
-1.620888 -0.837429 -3.633977
-1.305176 -1.525273 -3.921191
-0.744375 1.998809 2.645910
-0.730924 2.211244 -0.002629
1.350468 0.817559 1.770378
1.819289 1.051108 -1.057351
-2.001372 0.767767 3.794344
1.372283 -1.185155 1.782618
1.655028 -0.631243 0.277715
-0.774150 -2.062451 3.862631
0.344411 2.378092 -0.216956
-2.096864 0.160320 4.130454
-1.723362 1.005669 -0.623328
1.261116 1.159015 0.412313
-2.146100 -0.457148 0.804596
-2.010037 0.571620 0.237152
-2.047515 0.937913 3.280895
-1.366255 1.355435 -0.936284
1.460339 0.902359 -3.414339
-1.282900 -2.014448 0.855448
0.876803 -2.097519 -2.908099
0.973121 1.195587 0.367494
0.593097 1.914807 2.948274
0.876209 -1.738999 0.977306
0.547046 2.000182 -3.329279
-0.869862 -2.494896 -1.223392
-2.224563 -0.562765 1.542264
-2.152040 0.692695 1.148095
0.863447 1.360083 2.479064
0.287781 -2.189963 0.679458
0.802803 1.928591 0.524971
-0.550053 1.802106 3.904422
1.872411 -1.930118 -2.391286
-0.111959 -2.223980 1.893056
-1.261870 -1.689329 3.942569
1.483090 -0.995405 -3.524609
-1.339575 0.538199 -4.135324
-2.060086 -1.051088 3.768028
0.672590 -1.784878 2.135841
1.375801 0.392264 -5.602194
1.105119 -2.499137 -1.583289
0.771484 1.183781 2.026119
-0.291344 -1.919225 -5.182876
1.669751 -0.044090 0.339244
-0.823831 1.470735 -5.126585
0.983954 -0.122627 -5.428051
-1.949824 0.068090 -1.490812
1.907172 0.162288 -0.736568
-0.913124 -1.841124 -3.625703
-1.056168 -1.824811 3.824590
-2.261059 -0.308782 -0.236916
-0.385163 -2.250606 2.957779
-0.760831 -2.565350 -0.065093
0.431887 1.486087 1.396219
-1.773379 0.078166 -3.033234
-0.897309 -1.300905 -5.177718
-1.353636 -0.253847 -4.360929
-2.062961 0.923681 1.369788
-2.224276 0.522920 1.739217
-1.788360 -1.172425 -1.011097
0.484134 -1.680644 -4.507106
0.041507 -2.685978 -1.894343
0.673470 1.887509 3.693897
1.454959 0.660637 0.638779
1.952247 -1.378273 -2.388046
1.554388 -1.619182 2.964231
1.727904 -0.190642 -1.959100
-0.814917 -2.184883 1.606249
-1.756445 1.229883 3.319149
1.726716 0.374872 -2.580608
1.586413 -1.011853 -0.732365
-0.812744 -1.899087 -3.418171
-0.951476 -2.049431 2.040288
-0.675776 -1.962029 -3.161095
-2.207444 -0.185570 1.043590
-1.625819 -0.925066 -2.998716
1.374549 -0.811038 -4.274693
1.348897 1.304772 3.147971
1.675100 -0.525643 -3.460546
-0.132836 -2.635743 0.165555
0.629589 -2.014099 0.068006
-0.253414 -2.302840 2.741856
-1.900064 0.940274 1.279477
2.083189 -1.036060 3.496634
-0.917604 1.686594 -1.815379
-1.853397 -0.802492 -1.280330
1.344865 1.620491 -0.813031
-2.149351 -1.109832 0.789873
-0.919773 -1.956168 -2.354685
-0.938982 -1.927345 3.936482
0.846514 -1.521130 -4.824442
0.049475 1.976581 0.986578
1.588527 -0.695995 -3.986225
-1.910311 1.093798 1.060939
1.319052 -2.139987 -1.422330
0.335698 2.353840 -0.824088
-1.420688 1.539011 3.833387
1.681389 0.944845 3.610989
1.095189 -1.565582 0.925252
1.302588 0.514308 -4.602220
0.160444 1.882321 4.133393
0.328421 1.717457 -3.477898
1.470157 -0.323089 0.975759
1.374784 -2.443597 -1.521890
0.102333 -2.564449 0.363468
-2.258102 0.066278 1.595257
-1.141850 -1.998442 3.279601
-1.065613 -2.196753 -0.094241
-1.723383 -0.942624 -1.438060
-0.157216 -2.715308 -2.045796
1.065116 -1.639450 -5.385336
1.295547 -0.282337 -4.904726
-1.972851 -1.253203 0.459682
-2.207686 -0.237228 0.339426
-2.056823 0.706447 2.619822
1.316614 1.689736 -3.342975
1.768597 0.067245 -1.801546
-2.069811 -0.932408 2.148538
-0.331006 -2.167251 3.548449
0.312709 -1.534798 -5.244024
1.555473 -0.839903 0.657381
-0.506109 -2.496283 0.432263
-0.938873 -2.171923 2.612001
-1.883200 -0.907804 -0.511791
-0.595650 2.112362 -0.565295
-1.734730 0.496625 -2.992413
1.026106 -1.319314 1.628041
0.572534 2.045007 -2.602915
-1.404495 1.187738 -2.096577
-1.455775 0.299038 -4.287147
0.958496 -1.835292 0.059203
1.181607 -2.223079 -1.450262
-0.721104 1.602930 -3.556683
-0.923560 1.972463 0.682655
-2.238365 -0.490223 0.667017
1.665157 -0.472330 0.415778
-1.973415 0.241619 -0.639245
-0.061091 1.968783 3.685460
1.328439 -1.002018 -4.021615
-0.923789 -1.897018 -1.972974
-0.936670 1.821312 -2.927640
-0.890557 1.575688 -1.955267
-1.949790 1.158473 -0.028444
0.512493 1.795653 0.756832
-0.878474 -1.601929 -5.101988
-1.285549 1.211748 -3.133253
-1.797007 -0.223495 -2.113315
-0.901226 1.456548 -2.190620
-1.308609 0.101436 -4.289723
0.352958 -1.963742 -3.813208
0.798867 -2.178465 -2.876743
1.831771 1.286219 -1.367296
0.222856 -2.592389 -0.046417
-0.649140 -2.134430 4.048415
1.758927 -0.404271 -1.914617
0.888879 1.772258 0.473979
1.800225 -1.002682 4.392769
-1.775555 0.821463 -1.347690
0.354060 -2.008236 -3.711937
0.789395 -1.763587 1.323977
1.719767 0.018459 -3.253050
1.100504 1.045558 1.164482
-0.653703 2.285727 -0.656863
-0.000854 2.050131 0.791072
1.588321 -0.050689 -4.173691
-1.081306 1.250214 -3.898145
-1.086497 -1.785491 4.244348
-0.693792 -2.301894 1.008208
-1.198352 0.347508 -5.061308
0.517753 1.507531 1.004638
1.702087 -1.373358 -0.793283
1.134811 -1.674535 -3.582170
-1.780611 1.212444 -0.130042
1.905127 -1.628677 -1.591103
0.257583 -2.628381 -2.181739
-0.135012 -2.302370 3.316692
-1.499318 0.809677 -3.522515
2.142169 -0.631458 2.669380
0.976313 1.335582 2.576915
0.703417 -1.516308 -5.120142
-1.305270 1.091311 -3.950036
1.252992 0.741417 -4.032224
0.854193 2.181493 -0.427340
1.525710 -0.882445 0.746658
-0.086689 -1.873662 -5.033411
-1.988034 -0.989558 -0.219854
-0.368092 2.128621 0.661874
1.220399 -2.017536 3.581979
1.651517 -1.132604 1.842432
1.954588 -0.892976 4.172909
-0.818320 1.942319 3.211606
0.709800 -1.898609 1.001190
-2.185333 -0.467985 1.267871
-0.265547 2.514680 -0.609546
0.103808 1.720848 -2.143491
-2.196482 -0.107103 3.623601
0.841535 1.581303 -3.479900
-2.100751 -0.955577 3.449441
-1.000499 1.777804 3.627760
-0.982348 -2.191724 1.057174
1.059927 1.050612 0.560229
-2.324611 0.151605 3.467650
-1.870125 -1.602857 0.217239
-0.309779 -2.034627 -3.498109
-1.796412 -1.079949 -0.832018
2.079503 -0.194897 1.611203
1.334830 -0.682964 -5.337618
-1.518616 -1.351452 -1.779689
-2.270800 -0.088206 2.954696
2.128922 -1.102124 -2.242707
-1.729723 -1.386163 -0.982592
-0.592754 -1.919978 -3.947957
1.925538 -1.568603 -1.237517
-2.121286 -1.181236 0.044242
1.742972 -0.085031 -3.119058
1.588546 -0.641741 -3.198970
1.536067 0.207461 0.541056
-0.673233 -2.200544 2.486630
-0.477062 2.094124 0.721740
-2.051250 0.834277 3.264647
-0.325482 -1.858286 -4.036291
-0.884056 1.801457 -1.804658
-2.064455 -0.475698 -0.499521
1.709453 -0.267184 -3.602227
-0.899804 1.615726 4.272519
1.451905 -1.557563 -3.474883
1.920245 -1.859724 -0.956404
1.121032 -0.222175 -5.235550
1.689605 -0.354547 -2.833256
0.288508 1.581803 -2.568795
-2.296112 0.102740 2.136413
2.149093 0.882403 -1.350944
1.034972 -1.376713 1.541898
1.895090 -0.182509 -0.847362
-1.903167 0.618926 -1.074050
2.147765 -0.429312 2.096923
1.361607 -1.579181 3.851113
0.376535 -1.970222 -4.076483
0.624444 2.245292 0.076401
0.023789 -2.264031 -2.817437
0.154019 -2.190517 -2.830595
-0.416116 2.040828 3.783384
-2.232821 -0.706756 1.121578
1.768058 0.909517 -2.284256
0.083097 2.180253 -1.829704
1.685927 -0.734071 -3.042826
-1.991196 -0.469705 -0.700951
-1.055990 1.509619 -1.195816
-1.821121 -0.988412 -0.877656
-0.965937 1.365595 -5.514213
0.318841 -2.279271 3.313383
0.790231 -1.937403 0.006322
-0.359881 -2.295839 2.780794
1.680625 -0.268639 -2.155540
-1.352623 1.539879 -0.606314
0.994556 1.230933 -4.157101
1.737434 -1.311609 -3.063069
-0.410618 -2.605015 -1.918376
1.907907 -0.483562 -1.118426
0.785083 1.560092 -3.874257
-1.908670 -1.261966 -0.304742
1.040171 -1.768918 0.138032
1.653335 0.996078 3.782308
1.724820 0.426377 -3.028570
-0.387773 -2.192833 2.232734
-2.010464 0.838860 2.925068
1.840188 -1.102080 3.544025
0.621338 -2.006894 0.243871
-0.831064 -2.142573 2.348113
-1.749382 1.395513 1.099710
-1.845382 1.087679 0.464383
-1.752777 0.593230 -1.704091
-2.296745 0.186621 1.442350
-1.952529 -0.019611 -1.217900
-1.502548 1.638494 2.901667
1.046820 1.153034 1.971399
-0.407966 2.298180 -0.449967
1.766571 0.772101 -2.381927
-2.118329 0.605290 2.823206
2.072245 1.166237 -1.423647
0.779189 1.741179 3.697351
0.022482 -2.964691 -1.354283
-1.293276 1.259610 -2.246741
-1.396289 -1.430925 -2.814160
-2.042220 -0.605146 -0.543341
0.838506 1.256688 1.360537
-0.739427 1.998229 1.448707
0.426228 -1.898051 2.061551
1.370555 -0.756196 -4.365761
1.835311 -0.743976 -3.003076
1.562212 -0.943863 1.450383
-1.386112 0.896747 -3.951868
-2.020903 -1.147502 2.449414
-2.226506 0.521012 2.594422
2.076432 -0.408515 3.790953
-1.970461 -0.825900 -1.179201
1.304300 1.030088 0.359760
0.219554 -2.898951 -0.485250
0.748486 1.691882 3.864747
1.329468 -2.135996 -0.873859
0.996957 -1.868283 0.229588
-1.238684 1.884481 1.121552
1.410215 -1.680486 3.778863
-1.818847 -1.325387 3.915580
1.601106 0.234220 0.449119
0.458034 -2.657078 -0.210208
-1.256326 1.579754 4.051121
-1.134794 1.783914 3.618507
2.087788 0.218118 2.181924
1.138950 0.578357 -4.819986
-1.956523 -0.745883 -0.568265
-0.982003 -1.827586 -2.479404
1.798064 -1.422787 3.098264
-0.655109 -2.154408 3.036613
0.551653 -1.469811 -5.330162
1.203554 0.126620 -4.954504
-0.689794 -2.229479 1.657169
1.885041 -1.778076 -2.353735
-1.976520 -1.210715 3.436906
1.737669 -1.392939 2.667517
0.563602 1.185988 1.819525
0.425380 -1.978051 1.813447
1.442564 -0.529862 -4.137655
-0.134895 1.185817 -5.356362
-0.770426 -2.187976 1.312930
-0.520753 -2.215550 3.135643
-1.926010 0.852900 3.995741
1.739696 0.959376 3.032400
-0.897673 0.826800 -5.718349
-0.264869 2.396983 0.317898
-1.330407 1.529402 3.964972
1.839012 0.732544 -2.127652
1.355343 1.427501 0.403405
1.833876 -0.712595 -0.725857
1.769375 -0.167388 -2.237598
0.727431 -1.847108 2.583027
0.457367 1.970163 3.660440
-0.497910 1.953464 -2.620467
-1.892564 -0.605135 -1.107890
-1.519711 -1.818205 2.500689
-0.917342 -2.107829 3.498248
1.247301 -1.211203 -4.115408
-1.136329 0.549978 -4.827523
-1.716273 0.677184 -1.844047
-1.325689 1.126676 -2.961183
1.540117 -0.792521 0.398387
1.331158 -1.336459 1.787374
-0.123729 2.424916 0.151155
-1.178180 -2.286902 -1.245299
0.013020 2.387864 -0.702084
1.345332 -1.767021 -0.844035
-2.054082 0.755991 1.897341
0.130300 -2.268802 2.797962
1.374352 -1.443635 -3.575971
0.273809 1.797974 -3.005784
0.400118 -2.268587 3.402230
0.314746 -1.695719 -4.920245
1.297684 0.826754 1.089226
1.664869 -1.417935 3.773561
1.901362 -1.407823 -1.518288
1.226934 -2.232201 -2.218101
-0.550974 -2.784769 -1.169489
1.557882 -1.579365 -3.248976
0.471013 2.071750 0.381324
1.755534 -0.301244 -1.807564
-0.776159 1.866126 1.525441
0.726055 1.925427 -2.671860
1.147753 1.397193 -0.126796
1.979053 0.531012 -0.710801
0.512063 1.826229 3.773190
-2.300372 0.120890 1.788387
-1.163527 -1.806882 3.789782
1.775892 -1.251763 -0.559441
1.067073 -1.600604 -4.016540
0.175639 1.652318 -4.120383
1.879630 0.416336 -1.868058
-0.994620 -2.099443 1.484431
-1.900124 0.483828 -1.246179
-1.825709 0.174450 -2.338789
1.571777 -0.838422 -4.029372
1.781639 0.831650 -0.349563
-1.364223 1.734072 1.560238
1.260575 -1.805874 3.005478
1.719681 0.198688 -3.602213
1.703409 -0.197411 0.051872
2.205886 -0.494237 2.185692
0.496328 -2.084881 2.488682
0.521293 -1.562546 -4.995687
-1.943883 0.908199 1.471821
-0.113340 2.192513 0.793790
-0.689364 -1.814513 -4.333493
-0.866027 2.025448 1.350208
-1.257793 -1.465824 -5.427488
0.075482 1.982115 -2.282292
-0.754385 2.157253 0.177959
0.750516 -2.647543 -1.709055
0.516587 -1.829511 1.991786
1.339543 -1.337777 -0.782059
-1.589070 1.426436 4.042453
0.888866 -2.267885 -0.635880
-1.445734 1.492496 -0.126676
1.454502 0.723083 1.116749
1.728065 -0.172675 0.917584
1.032743 0.875992 -4.453724
-0.961427 1.457838 -3.646288
-1.477532 0.910247 -3.119975
-1.959993 0.945181 0.846044
-1.394837 -1.883630 1.701308
1.752703 0.735427 -0.319925
1.848406 -0.088085 -1.182918
-1.707786 -1.721914 1.712972
-1.480402 -1.163406 -3.520652
-2.299989 -0.301252 1.479109
1.223245 -0.943376 -4.575333
-1.467184 -1.828257 -0.677364
1.223311 0.735084 1.507749
1.707828 0.227237 -3.700530
1.869092 -1.317698 -0.119201
0.682408 1.323190 -4.165307
-1.893272 0.114094 -2.382025
-0.694359 1.678202 -2.964990
2.067835 -1.011518 -2.435414
0.027701 2.073920 2.547162
0.192838 2.009810 -2.056393
-1.126607 1.853604 2.075693
-2.126137 0.082444 4.246150
-0.199238 2.194249 -2.598563
0.050037 2.407203 -0.843373
0.932275 0.303215 -5.310827
1.957574 1.099350 -1.274226
-0.241785 -2.311657 -2.254439
-0.601805 2.023576 3.128528
0.443967 1.985250 -2.879428
-1.915395 -1.480177 2.859838
-1.153053 -2.065422 1.341789
-1.293212 1.727331 0.326669
0.552299 1.359704 -4.231508
-2.083558 -1.051836 3.482167
1.902547 0.374715 -0.606761
0.931153 1.457472 -4.030870
-2.231899 0.093324 3.797774
1.504347 0.737358 0.283294
1.359428 1.538197 -3.260120
-1.294962 -2.017851 1.170366
-1.354180 -1.972664 -0.731655
0.492864 1.957878 2.871237
0.354173 2.264193 0.279147
1.988486 0.541215 2.631788
1.864599 -0.309605 -0.199332
-2.039867 -1.148909 0.627969
-1.054565 1.447442 -3.100237
-1.557152 1.351373 -0.369507
1.282663 -1.946536 -3.309916
-0.276979 2.036939 2.935345
-1.318668 -1.855196 3.571172
0.943528 -1.678869 0.864891
0.777903 1.768755 3.230564
2.119268 -0.074939 3.327225
1.671222 -0.804209 -3.498857
0.870199 1.627230 2.717218
1.282767 0.812551 1.904692
2.158597 -0.137519 2.378587
-1.622551 -1.464311 -1.221086
1.521719 -2.182600 -2.439369
0.233769 -2.164987 -2.992360
-1.816578 -0.895618 -1.083826
-1.831002 -1.111804 -0.469040
-1.573641 1.549109 1.083064
-1.720170 0.626521 -2.270456
0.130653 1.866485 4.230772
2.138828 -0.740234 3.496136
1.412571 -0.710777 -4.153501
2.206404 -0.309755 3.376856
0.277325 2.157240 -2.747847
1.565209 1.113296 3.439499
1.531119 -1.054922 0.237068
-2.255658 0.416322 3.357270
-2.011526 0.211686 -1.056193
-1.591423 -1.143830 -2.690728
-1.839615 0.010193 -1.521873
1.618589 -0.335994 -2.904096
-0.802379 -2.194675 3.402349
-1.297934 -1.965706 2.600055
-0.774832 1.322273 -4.736799
-2.007782 -1.157866 -0.181334
-2.227513 -0.203330 3.494483
-1.926783 -1.416137 0.655497
-0.923410 1.862392 3.367326
1.910663 -0.923906 3.886924
0.688412 -2.012409 -0.348470
1.771572 -0.382742 -0.270296
-0.846824 -2.200340 1.838396
1.791232 -0.358583 -1.205269
-2.108876 0.203297 0.149272
-1.816210 0.744344 -1.243515
-0.877244 1.818572 3.864642
-0.233809 2.465958 -0.365412
1.753421 -0.540441 -1.140743
2.288310 -0.137316 2.760228
-1.895793 -1.418173 1.786507
0.189428 -2.941689 -1.553773
-1.912961 -1.398761 2.519718
-1.608972 0.906473 -2.162500
-1.007375 -2.096400 2.771639
-2.019473 0.840903 1.574286
2.076344 -1.287724 -2.241975
-0.946249 1.884289 1.943886
1.889990 0.978904 -1.125542
0.159688 1.725828 -5.121086
1.067169 -1.970681 3.192667
-0.850208 1.274432 -4.120708
1.578253 -0.149121 0.993399
1.587873 1.056522 2.436946
-1.211248 0.733933 -4.900311
-0.813029 2.103453 1.190555
1.430565 0.637969 1.647658
0.994861 -1.992049 -2.587237
1.590238 -1.222035 3.905450
-0.285275 2.112679 -2.603281
1.299395 1.013299 1.130702
-1.636764 1.367441 0.274887
1.860108 0.089928 -0.388016
-2.190691 -0.899397 2.726787
-0.393850 -1.804763 -4.108764
-0.713535 1.645639 -1.540933
1.435876 -1.548321 -0.706957
-1.669516 -0.390761 -3.404646
-0.739871 2.291235 -0.232631
-1.211521 -0.477860 -4.101777
-1.061349 -2.186167 0.698426
-1.932925 -1.292825 2.375940
1.571364 -0.568942 0.552552
1.323423 1.203986 4.116803
-0.330997 1.259050 -5.216929
-1.840720 -1.495800 0.592262
-1.173455 1.980595 0.505683
-1.906104 -1.159407 -0.859342
-0.799377 1.894184 2.197616
0.042756 -2.348845 3.209913
-2.065170 -1.041890 0.746952
0.044258 1.830159 1.954432
1.406493 -1.787511 3.453402
-1.375492 1.686838 0.853024
-1.273037 1.198328 -3.940395
